# .PCD v0.7 - Point Cloud Data file format
VERSION 0.7
FIELDS x y z normal_x normal_y normal_z curvature
SIZE 4 4 4 4 4 4 4
TYPE F F F F F F F
COUNT 1 1 1 1 1 1 1
WIDTH 643
HEIGHT 1
VIEWPOINT 0 0 0 1 0 0 0
POINTS 643
DATA ascii
0.031242978 -0.022033328 0.082519189 0.97352982 -0.22554094 0.037026141 0
-0.066298053 -0.01713356 0.08243826 -0.99316102 -0.11390743 0.025618929 0
0.032103177 -0.017767441 0.082293846 0.98769772 -0.15505528 0.020270679 0
-0.066824853 -0.012612922 0.082346648 -0.99569625 -0.090980425 0.017648308 0
0.032647304 -0.012321413 0.08227694 0.9974879 -0.067219675 0.022347542 0
-0.066857763 -0.0077600544 0.082252614 -0.998631 0.029269466 0.043353196 0
0.032713529 -0.0074416292 0.082482122 0.99702668 0.069490664 0.033299856 0
-0.066374972 -0.0022852535 0.082516491 -0.98762065 0.15632267 0.012989003 0
0.032065652 -0.0023706793 0.082756422 0.98209959 0.18612981 0.028918475 0
-0.06558346 0.0018314082 0.082707748 -0.96697497 0.25104475 0.04399937 0
-0.064918995 0.003943264 0.084076397 -0.95635134 0.28367957 0.070128419 0
0.031118937 0.0026009397 0.082452945 0.97556734 0.21490674 0.045643333 0
-0.063731499 0.0076891589 0.082171306 -0.9370144 0.34890085 0.016496614 0
0.029272716 0.008120738 0.082841337 0.92802602 0.37065157 0.03721831 0
0.030230435 0.0056887721 0.082329772 0.94864786 0.31612507 0.011495408 0
-0.061700683 0.01259045 0.082585454 -0.90475774 0.42592549 -0.00093981682 0
0.027373357 0.012574471 0.082806341 0.89215374 0.45041853 0.034422278 0
-0.060285464 0.015304479 0.083222508 -0.86554432 0.50068051 -0.012337087 0
-0.058587994 0.017916903 0.082353227 -0.82251263 0.56799799 0.029175054 0
0.023969892 0.018252304 0.082564123 0.82409328 0.5650025 0.040527944 0
0.025561279 0.015834669 0.082103513 0.85965294 0.51082081 0.007680933 0
-0.055943392 0.021448646 0.082981639 -0.79076093 0.61044914 0.04526585 0
-0.054080736 0.023855636 0.081896447 -0.75740337 0.65237504 0.027328478 0
0.01933613 0.02415302 0.082575694 0.72871274 0.68479198 0.006136898 0
0.021503901 0.021705993 0.082743838 0.77938998 0.62534696 0.03863313 0
-0.051420398 0.026448224 0.083054386 -0.67253429 0.7394259 0.030772906 0
-0.049172513 0.028501203 0.082495421 -0.66290414 0.7479924 0.032642614 0
0.014069017 0.028972065 0.082455404 0.65239245 0.75671977 0.04194412 0
0.016815493 0.026589852 0.082199335 0.67039406 0.74169123 0.021583777 0
-0.046018697 0.030923834 0.082254149 -0.56552547 0.82429904 0.026684238 0
-0.042603467 0.03317906 0.082183927 -0.52433282 0.85066366 0.038031075 0
-0.039489139 0.03484172 0.083547659 -0.43089312 0.8999033 0.067120254 0
0.0072463751 0.033715677 0.082298197 0.49275637 0.86921781 0.040639084 0
0.011331419 0.03108968 0.082562082 0.58241278 0.81226319 0.031997468 0
-0.037386019 0.035867706 0.082704753 -0.41015458 0.90999192 0.060728446 0
-0.03223731 0.03789347 0.082840621 -0.32418624 0.94442868 0.054386504 0
-0.027558722 0.039123818 0.082381114 -0.20965663 0.97743154 0.025918515 0
-0.023471462 0.039847001 0.082733534 -0.14014399 0.98840386 0.0584592 0
-0.010686108 0.039844919 0.083776474 0.13935637 0.98786438 0.068584479 0
-0.007427915 0.039373372 0.082178712 0.18533127 0.98151529 0.047751378 0
-0.0024841581 0.038043499 0.082502916 0.31447214 0.94914466 0.015220981 0
0.0024794978 0.036200617 0.082673736 0.42075399 0.90561014 0.053257734 0
-0.021340353 0.040168289 0.081926905 -0.084775932 0.99618161 0.020860866 0
-0.017427871 0.040336449 0.082469381 -0.017262042 0.99842578 0.053366635 0
-0.01288093 0.040144425 0.082284495 0.094866119 0.99419212 0.050818589 0
-0.035921235 -0.055506721 0.086955801 -0.34120902 -0.93985993 0.015478224 0
-0.032156497 -0.056923982 0.087242275 -0.31264356 -0.94943947 -0.028613294 0
-0.027865849 -0.058110867 0.087794736 -0.22627926 -0.97319919 -0.040999904 0
-0.022324635 -0.059105065 0.087543972 -0.13598827 -0.9902662 -0.029664481 0
-0.017744083 -0.05935986 0.087477393 -0.0047551775 -0.99969202 -0.024360437 0
-0.012543549 -0.059196025 0.087362796 0.0893365 -0.99598444 -0.0058317841 0
-0.0073869829 -0.058498986 0.087149858 0.17665783 -0.98406845 -0.020033156 0
-0.0023265462 -0.057224229 0.087844282 0.3048715 -0.95164555 -0.037737064 0
0.0020491099 -0.05566413 0.087337583 0.36890364 -0.92942935 0.0084328363 0
-0.045483645 -0.050285246 0.087850951 -0.55800384 -0.82930416 -0.029770141 0
-0.042850394 -0.051987223 0.087239034 -0.51796472 -0.85503995 -0.024881024 0
-0.038497258 -0.054330979 0.087227628 -0.48530242 -0.87417948 -0.017080482 0
0.0044151056 -0.054670133 0.087384686 0.42575675 -0.90475917 -0.011914994 0
0.00748091 -0.053038877 0.087341182 0.48753482 -0.87307113 -0.0075211939 0
0.011291199 -0.05069527 0.087832056 0.57442069 -0.81827462 -0.021620968 0
-0.050838169 -0.04600735 0.087865658 -0.72173864 -0.68944657 -0.061293058 0
-0.047831751 -0.048558798 0.087409906 -0.60679674 -0.79397857 -0.037357908 0
0.013796631 -0.048768133 0.087731168 0.62509221 -0.7804879 -0.0099121705 0
0.016881803 -0.046143107 0.087853521 0.67220145 -0.73880655 -0.048063371 0
-0.055666789 -0.040756058 0.087820217 -0.80234921 -0.59407055 -0.057582956 0
-0.053358287 -0.043360814 0.087611243 -0.72880602 -0.68291956 -0.049625486 0
0.019136362 -0.04384974 0.087037846 0.7454899 -0.66624802 -0.018928085 0
0.021101678 -0.041605357 0.087412916 0.77314454 -0.63331902 -0.03397854 0
-0.058059178 -0.037516996 0.087755911 -0.81598037 -0.57681024 -0.03828866 0
0.023781545 -0.038088553 0.087507203 0.82421935 -0.5653792 -0.031762283 0
0.025323791 -0.035683248 0.087544419 0.8567642 -0.5147897 -0.03076794 0
-0.061247483 -0.032233905 0.087585881 -0.88998771 -0.45499507 -0.030024603 0
-0.059826754 -0.034658626 0.086169675 -0.83931446 -0.52283323 0.14898543 0
0.027068589 -0.032625772 0.08766485 0.88861966 -0.45806289 -0.023095364 0
-0.06330239 -0.027463069 0.087388165 -0.9331885 -0.35912234 -0.013799489 0
0.029230045 -0.027772561 0.087525986 0.93060219 -0.36431125 -0.035450455 0
0.03014485 -0.025265932 0.087400846 0.95762742 -0.28680921 -0.026273062 0
-0.065271243 -0.021223811 0.087521404 -0.97693765 -0.21321961 -0.011416415 0
-0.064613238 -0.023557952 0.08719442 -0.95720285 -0.2892268 -0.010519527 0
0.030843398 -0.022835741 0.087531477 0.96594471 -0.2580204 -0.01939553 0
-0.065998718 -0.01762918 0.087311164 -0.98777872 -0.15585004 -0.0020112458 0
0.031941034 -0.017557448 0.087828957 0.98547935 -0.16313979 -0.047073606 0
-0.066556759 -0.012416215 0.087579213 -0.99776566 -0.063481525 -0.020826733 0
0.032427493 -0.012342442 0.087401703 0.99931228 -0.033941876 -0.014928015 0
-0.066576168 -0.0075498358 0.086954944 -0.99912667 0.036153425 0.020944187 0
0.032467507 -0.0075025186 0.087918803 0.99819142 0.037137195 -0.047272403 0
-0.066173911 -0.0021415036 0.087521277 -0.9876042 0.15423137 -0.029167648 0
0.031937666 -0.0027893465 0.087667264 0.98966676 0.14023282 -0.029907072 0
-0.065397814 0.0017127127 0.0876652 -0.96844792 0.24921022 -0.0016972398 0
-0.064777248 0.0039294143 0.086883932 -0.96588773 0.2589075 0.0052660485 0
0.031036934 0.0024551142 0.087580338 0.9720217 0.23384948 -0.022097787 0
-0.063662104 0.0076362453 0.087387696 -0.94277304 0.33228683 -0.027647775 0
0.029115934 0.0079459427 0.087312527 0.92805988 0.37207189 -0.016353639 0
0.030165151 0.0051728315 0.087023444 0.92703861 0.37390232 0.028222324 0
-0.061595999 0.012815109 0.0874516 -0.89900154 0.43792507 -0.0042395042 0
0.027173555 0.012458528 0.087534599 0.89564729 0.44436345 -0.018899541 0
-0.060240936 0.015293008 0.08666458 -0.83143312 0.55551469 0.011060975 0
-0.058666784 0.01763624 0.087495834 -0.81412965 0.58051407 -0.014012611 0
0.02387845 0.018005993 0.087373197 0.82863796 0.55940259 -0.020686803 0
0.025330782 0.015924191 0.087831751 0.8409673 0.53915536 -0.045666523 0
-0.055893689 0.021250401 0.088001296 -0.78287178 0.61827779 -0.069601163 0
-0.053707272 0.023863496 0.087332584 -0.75174844 0.65943092 0.0050291214 0
0.019098997 0.02422652 0.087762058 0.722628 0.69008076 -0.039967481 0
0.021253347 0.021577271 0.087634407 0.79977834 0.59827685 -0.049188487 0
-0.051358305 0.026301134 0.087120637 -0.67314219 0.7395013 0.0041633775 0
-0.048195962 0.028994638 0.087044671 -0.62113553 0.78361756 0.01158439 0
0.013986845 0.028864076 0.087546363 0.63246793 0.77055055 -0.078969792 0
0.016945947 0.026344758 0.087831609 0.67953455 0.72937155 -0.079055637 0
-0.045989696 0.030756826 0.087696895 -0.5961799 0.80094844 -0.055237662 0
-0.042470854 0.032967564 0.087538943 -0.51246428 0.85855168 -0.01641242 0
-0.039723564 0.034541562 0.086474016 -0.44245473 0.89592767 0.039337397 0
0.0045524025 0.034904819 0.086999878 0.47531849 0.87918949 -0.033141725 0
0.0074383821 0.033363983 0.087392688 0.47936857 0.87700343 -0.032723453 0
0.010980944 0.031277739 0.087544262 0.5713197 0.82056475 -0.016347755 0
-0.036733266 0.035932098 0.087839223 -0.37758976 0.92468852 -0.048755612 0
-0.032737069 0.037469305 0.087539949 -0.33893216 0.94011945 -0.036061697 0
-0.027361264 0.038906775 0.087462112 -0.24003485 0.97074449 0.0062025269 0
-0.022210151 0.039771128 0.087443717 -0.098490559 0.99481374 -0.025402384 0
-0.01716312 0.03998173 0.0863612 0.012556719 0.99989337 0.007456305 0
-0.012347848 0.039796226 0.087349452 0.066150442 0.99774772 -0.011119445 0
-0.0072592767 0.039140586 0.087950267 0.21105562 0.97710335 -0.026918067 0
-0.0028188876 0.037952572 0.08780016 0.34494871 0.93759185 -0.043953765 0
0.0020150172 0.036227837 0.087792419 0.39391714 0.9182592 -0.040364355 0
-0.020960629 0.040064834 0.089311838 -0.1553006 0.97630042 -0.15072915 0
-0.017538751 0.040172216 0.087869123 0.01042417 0.99719054 -0.074177243 0
-0.013515949 0.040073283 0.089396134 0.13743374 0.98647279 -0.08935032 0
-0.036461473 -0.05564902 0.092179589 -0.4104445 -0.91095412 -0.04120614 0
-0.032644 -0.057114124 0.092517897 -0.32314688 -0.9458105 -0.031914148 0
-0.02762473 -0.058500141 0.092427179 -0.22623178 -0.97379369 -0.023345571 0
-0.022763584 -0.059316643 0.092333786 -0.12497352 -0.9921304 -0.0076671755 0
-0.017761795 -0.059680093 0.0923099 -0.017380135 -0.99983823 -0.0046301316 0
-0.012278209 -0.059458144 0.092328049 0.08617413 -0.99621862 -0.011066578 0
-0.0076346309 -0.058843348 0.092351466 0.1949413 -0.98081124 -0.0026657211 0
-0.0027796919 -0.057586372 0.092775598 0.28082108 -0.95975894 0.0014910953 0
0.0019440912 -0.055934381 0.092367485 0.38371405 -0.92336494 -0.012681469 0
-0.045897823 -0.050521191 0.092798956 -0.56250715 -0.82588363 0.038754426 0
-0.042361453 -0.052620661 0.092591174 -0.49961045 -0.86618811 -0.010370215 0
-0.039011471 -0.054352362 0.092702188 -0.52240068 -0.85263717 0.010360167 0
0.004733678 -0.054729547 0.092198253 0.39741382 -0.91744924 -0.01868652 0
0.0076850019 -0.053150896 0.092346385 0.49206254 -0.87054431 -0.0052012107 0
0.010989236 -0.051129196 0.092618547 0.5546515 -0.83206648 -0.0052066394 0
-0.050987165 -0.046252616 0.09220963 -0.71005499 -0.7039178 -0.017935235 0
-0.047997452 -0.048822079 0.092214316 -0.61544949 -0.78777045 -0.025290815 0
0.013735764 -0.049067482 0.092084885 0.62465274 -0.78060561 -0.021537574 0
0.016681723 -0.046603788 0.092756487 0.6752975 -0.73754025 -0.0027780924 0
-0.055857174 -0.041052513 0.092686057 -0.78645355 -0.61701149 -0.028064184 0
-0.053472351 -0.043726314 0.092873715 -0.71633834 -0.69764894 -0.012059481 0
0.01906611 -0.044279609 0.092078619 0.72001827 -0.69365907 -0.020267921 0
0.021330817 -0.041685585 0.092121273 0.7730968 -0.63416302 -0.012598919 0
-0.058369234 -0.037534136 0.092318006 -0.82832605 -0.55987781 -0.020318318 0
0.023747157 -0.038527988 0.092818484 0.81872767 -0.57417059 0.0036110764 0
0.025372792 -0.036023151 0.092306353 0.85039186 -0.52563787 -0.023206601 0
-0.061349954 -0.032406576 0.09223453 -0.88155341 -0.47179461 0.01653311 0
0.027537487 -0.032186534 0.092391007 0.89560217 -0.44454449 -0.01664352 0
-0.063645221 -0.027285781 0.092412025 -0.92619663 -0.37555343 -0.03345729 0
0.029224725 -0.028275277 0.092318855 0.92689854 -0.37412885 -0.02977702 0
0.030264633 -0.025697779 0.092165001 0.92967004 -0.3677572 -0.021637298 0
-0.06544821 -0.021522051 0.092335135 -0.96991444 -0.24252312 -0.021173837 0
-0.064795248 -0.024108266 0.091989085 -0.96882343 -0.24425426 -0.041483615 0
0.031178366 -0.022386113 0.092709489 0.9748069 -0.2226852 -0.012758885 0
-0.066230357 -0.017598577 0.091903254 -0.98709387 -0.15683921 -0.032360859 0
0.032152422 -0.01754625 0.093007244 0.9867112 -0.16248251 -0.00065659592 0
-0.06683939 -0.012298333 0.092961326 -0.99549973 -0.093065083 -0.017865332 0
0.032650638 -0.012403406 0.092837371 0.99936867 -0.035179488 -0.0049690334 0
-0.066926852 -0.0074355165 0.09262228 -0.99940163 0.030389892 -0.016515963 0
0.032640744 -0.0073602577 0.092468023 0.99880314 0.048365299 0.0072881137 0
-0.06644094 -0.0024505435 0.092608362 -0.98660481 0.16281337 -0.010139202 0
0.032137148 -0.0026677202 0.092473574 0.98790127 0.15481204 0.0091805235 0
-0.065396763 0.002384837 0.092523307 -0.97155839 0.2365219 -0.011480921 0
-0.064825587 0.0046908404 0.09177155 -0.97128189 0.23768587 -0.010806809 0
0.031129112 0.0023518021 0.09265098 0.97111428 0.23832779 0.011705757 0
-0.063854285 0.0075053093 0.092488118 -0.93466502 0.35547253 -0.0063695516 0
0.029274514 0.0082814414 0.09205009 0.93994588 0.34080091 -0.018881205 0
0.030225722 0.0055968286 0.093112648 0.97331649 0.18514246 -0.13556282 0
-0.06178445 0.012408528 0.092241362 -0.90246826 0.43075585 -0.00072459521 0
0.02734792 0.012605045 0.092809677 0.89625716 0.44351375 -0.0043190266 0
-0.060308825 0.015268564 0.093596607 -0.87552977 0.4829987 -0.012642498 0
-0.058575254 0.018057955 0.092190482 -0.82011402 0.57219863 0.001302402 0
0.024000831 0.018404331 0.09281905 0.83213127 0.55435431 -0.015773125 0
0.025387464 0.016253201 0.09268795 0.85815722 0.51336926 -0.0042701415 0
-0.055967204 0.021512 0.092370085 -0.78542823 0.61882806 -0.012428547 0
-0.053907685 0.023999028 0.092632577 -0.73220658 0.68103486 -0.0080678388 0
0.019460514 0.024138959 0.092551492 0.75436085 0.6561271 -0.02090154 0
0.021323605 0.021935971 0.092306443 0.7817595 0.62309694 -0.024540458 0
-0.051448628 0.026483329 0.092512056 -0.68935257 0.72442192 -0.0024151839 0
-0.048657082 0.028958667 0.092652418 -0.62806755 0.77802861 -0.014235853 0
0.013928634 0.029342631 0.092034072 0.64572734 0.7634325 -0.014384289 0
0.017108446 0.026525427 0.092654087 0.68980986 0.72395909 0.0067537883 0
-0.046108115 0.03093495 0.092519544 -0.58878392 0.80823272 -0.0096622258 0
-0.042918034 0.032939784 0.092670411 -0.5050174 0.8630085 -0.013179321 0
-0.039598264 0.034837592 0.092473648 -0.49365529 0.8695097 -0.016042264 0
0.0069696051 0.03391837 0.092395663 0.50648832 0.86223537 0.0044556265 0
0.011546789 0.03109676 0.092203535 0.57534117 0.81767207 -0.019873096 0
-0.037297364 0.035948146 0.092260182 -0.4063271 0.91361856 -0.014124217 0
-0.032589152 0.037784342 0.092531987 -0.31215256 0.95000476 -0.0071925386 0
-0.027806867 0.039081506 0.092270955 -0.23820212 0.97105753 -0.017521478 0
-0.023832576 0.039816815 0.092185192 -0.11651096 0.99294013 -0.02225161 0
-0.011231696 0.039914064 0.091530979 0.11932753 0.99018121 -0.072815552 0
-0.0075696032 0.039417151 0.09239503 0.19700593 0.98011386 -0.023782531 0
-0.0026994243 0.038139801 0.093012415 0.31156966 0.95017999 0.0090749096 0
0.0027202303 0.036133323 0.092295997 0.41842213 0.90817368 -0.011977672 0
-0.021005828 0.040155105 0.092388466 -0.1208354 0.99257809 0.013697687 0
-0.017259648 0.040362816 0.092440896 0.012223231 0.99990618 -0.0061675948 0
-0.01361895 0.040197473 0.09259586 0.083001405 0.99602145 -0.032435488 0
-0.036645059 -0.055673201 0.097506389 -0.40736827 -0.91289604 -0.025922662 0
-0.032439314 -0.057248544 0.097316965 -0.3163377 -0.94858915 -0.010437114 0
-0.027871639 -0.058499072 0.097263038 -0.2061206 -0.97801697 -0.031576019 0
-0.022790538 -0.059309542 0.097389683 -0.12545983 -0.99195886 -0.016658595 0
-0.01757844 -0.059695389 0.097867243 -0.030891661 -0.99885815 -0.036441889 0
-0.012651085 -0.059522469 0.09751945 0.090314738 -0.99590778 -0.0033103507 0
-0.0071628215 -0.058722146 0.097373232 0.20775655 -0.97802931 -0.017202327 0
-0.0026372958 -0.057578973 0.097369522 0.28925556 -0.95701587 -0.021256255 0
0.0021575801 -0.055850275 0.097670168 0.37309828 -0.92779112 0.0010924074 0
-0.04579046 -0.050516356 0.097456031 -0.58566809 -0.80988979 -0.032733448 0
-0.042752039 -0.052519299 0.097576134 -0.52186912 -0.85292763 -0.01292787 0
-0.038949817 -0.054567449 0.097489603 -0.45108959 -0.89093858 -0.052407268 0
0.0046338132 -0.05479024 0.097502463 0.43644255 -0.89971685 0.0052369363 0
0.0077471542 -0.05315448 0.097043537 0.50313205 -0.86416894 -0.0083774216 0
0.011218281 -0.050995789 0.09761858 0.56683695 -0.8233192 -0.029003853 0
-0.051404189 -0.045920268 0.097377121 -0.69903624 -0.71473211 -0.02250181 0
-0.048408002 -0.048545942 0.09766233 -0.61790138 -0.78595668 -0.021675847 0
0.01380434 -0.049069535 0.097131439 0.62822461 -0.77787161 -0.015801437 0
0.016850164 -0.046448596 0.09735927 0.66632271 -0.7455923 -0.010302934 0
-0.055669259 -0.04129966 0.09733966 -0.78931808 -0.61393154 -0.0080671273 0
-0.053879123 -0.043394163 0.097548045 -0.73725837 -0.67541313 -0.016342487 0
0.01919898 -0.044247452 0.097168177 0.73368543 -0.67937285 -0.01257559 0
0.021312106 -0.041795246 0.097761199 0.77227145 -0.63500917 -0.018977489 0
-0.058390528 -0.03756626 0.097104013 -0.82795626 -0.56060123 -0.014650468 0
0.023656549 -0.038698748 0.097676992 0.82620054 -0.56292373 -0.022573119 0
0.025556287 -0.035804112 0.097147025 0.83723664 -0.54684073 1.4679987e-05 0
-0.061328862 -0.03259404 0.097266413 -0.8976559 -0.43882909 -0.040533599 0
0.027294807 -0.032726824 0.09785074 0.89354718 -0.44888106 -0.0089066513 0
-0.063751325 -0.027233366 0.097369991 -0.93738937 -0.34745792 -0.023963174 0
0.029200088 -0.028562088 0.097582616 0.91963857 -0.39274389 -0.0041319923 0
0.030194284 -0.025901575 0.097632281 0.95605415 -0.2930873 0.0077639678 0
-0.065503135 -0.02154877 0.097747445 -0.9723807 -0.23303401 -0.013073403 0
-0.064764582 -0.024499329 0.097863048 -0.94497943 -0.3270914 -0.0050064703 0
0.031102495 -0.022743927 0.097311877 0.96594453 -0.25872725 0.0033753219 0
-0.066336371 -0.017531797 0.097523347 -0.98584467 -0.16707194 -0.014044223 0
0.032095399 -0.017817903 0.097517595 0.985906 -0.16697317 -0.010456454 0
-0.066903435 -0.012339706 0.097746707 -0.99852276 -0.048200168 -0.025079068 0
0.032671284 -0.012428609 0.097611167 0.99972665 -0.022273466 -0.0071021081 0
-0.066969074 -0.0076900311 0.097240038 -0.99968314 0.019900572 -0.01541419 0
0.032664344 -0.007204988 0.097467579 0.99754852 0.062959246 -0.030545203 0
-0.066449866 -0.0025756569 0.097312108 -0.98550993 0.1690558 -0.013797246 0
0.032170154 -0.0026327579 0.097623162 0.98870361 0.14759299 -0.026104243 0
-0.065489918 0.0021845954 0.097287744 -0.97382367 0.22712484 -0.0090522319 0
-0.064879805 0.0046724211 0.096983664 -0.97072935 0.24000813 -0.0089749992 0
0.031156685 0.0025167835 0.097723365 0.97074026 0.23834947 -0.029203208 0
-0.063902706 0.007405045 0.0975888 -0.93562603 0.35291216 -0.0075438237 0
0.029423563 0.0081975944 0.097396478 0.93045974 0.36575899 -0.021561556 0
0.030247906 0.0058417968 0.097847201 0.95429438 0.29852474 -0.014321571 0
-0.061639726 0.012819924 0.097468078 -0.90160084 0.43218109 -0.018316226 0
0.027443167 0.012496306 0.097096965 0.90115565 0.4330056 -0.020606376 0
-0.060226358 0.015499554 0.097569339 -0.87653512 0.48130667 -0.0054807374 0
-0.058689497 0.017940337 0.097608842 -0.82637781 0.56256521 -0.024900611 0
0.023889853 0.018637348 0.097252734 0.83365721 0.55221528 -0.0086106621 0
0.02547911 0.016156223 0.097939558 0.84948444 0.52610976 -0.039809149 0
-0.056226261 0.021184659 0.097234912 -0.77547085 0.63115102 -0.017128618 0
-0.053963136 0.023967346 0.097621314 -0.76699209 0.64132178 -0.020722549 0
0.019545861 0.024252281 0.097278312 0.75591803 0.65344071 -0.040040031 0
0.021762269 0.021540193 0.097693689 0.78651172 0.61733526 -0.017217942 0
-0.051599607 0.026364738 0.097990409 -0.67029053 0.74171478 -0.023871886 0
-0.04878496 0.028857859 0.097085953 -0.66026616 0.75102162 0.0038911086 0
0.014031932 0.029387463 0.097333536 0.63221514 0.77457792 -0.018248171 0
0.01710736 0.026638333 0.09725865 0.67684245 0.7355445 -0.029301597 0
-0.046297029 0.030845322 0.097866319 -0.56281924 0.82647187 -0.013371338 0
-0.042360261 0.033335213 0.097547449 -0.51140004 0.85910565 -0.020185523 0
-0.039485507 0.034969538 0.096661612 -0.49149755 0.8707726 -0.013612991 0
0.0078030294 0.033574942 0.097632542 0.49848956 0.86600024 -0.039391153 0
0.011841417 0.030999826 0.097154684 0.56240505 0.82632208 -0.029873211 0
-0.037186973 0.03602137 0.097320586 -0.40141755 0.91587484 -0.0060953898 0
-0.032899663 0.037706055 0.097357713 -0.32995501 0.94391906 -0.012107196 0
-0.027894603 0.03909529 0.097595878 -0.20841999 0.97789735 -0.016667493 0
-0.023797449 0.039808054 0.097362861 -0.1320689 0.9909417 -0.024336902 0
-0.010684138 0.039952029 0.097940736 0.14588843 0.98905694 -0.021977976 0
-0.0075843818 0.03943355 0.097534657 0.18404989 0.98277938 -0.016441539 0
-0.0020619861 0.037996113 0.097465932 0.3017666 0.95273924 -0.034999561 0
0.0027777448 0.036180366 0.09752506 0.41299176 0.91046834 -0.02203013 0
0.0051919674 0.03506124 0.098880306 0.46052364 0.8849507 -0.069139071 0
-0.021178689 0.040117573 0.097482353 -0.082464471 0.99657547 -0.0060778214 0
-0.017423432 0.040347725 0.0970705 -0.0065621175 0.99997753 0.0013651785 0
-0.012946248 0.040163569 0.097661018 0.077984855 0.99666005 -0.024230864 0
-0.036399361 -0.055581696 0.1023604 -0.40569785 -0.90739352 0.10975577 0
-0.032279287 -0.057035275 0.10273489 -0.31380519 -0.9459942 0.081370957 0
-0.027455863 -0.058406133 0.10238797 -0.18329054 -0.97818029 0.097815812 0
-0.022999717 -0.05916759 0.10224095 -0.13402891 -0.98627895 0.096386082 0
-0.017670481 -0.05963267 0.10205824 -0.022557501 -0.99490136 0.098298728 0
-0.012681598 -0.059306271 0.10264339 0.082404658 -0.99216318 0.09392374 0
-0.0074926699 -0.058673017 0.10222955 0.20467283 -0.97640842 0.068815798 0
-0.0023855693 -0.057415806 0.10233244 0.28640369 -0.95520043 0.074599907 0
0.0019065874 -0.055843599 0.10249697 0.38564748 -0.92095304 0.05587092 0
-0.045678034 -0.050416976 0.10247991 -0.57620382 -0.80424881 0.14550933 0
-0.042352155 -0.052493725 0.10251636 -0.50923181 -0.85685849 0.08047691 0
-0.038894709 -0.054333046 0.10287885 -0.4288682 -0.90264976 0.035992507 0
0.004448086 -0.054732732 0.1027579 0.42450848 -0.90457928 0.039100919 0
0.0075561632 -0.053102702 0.1028615 0.4962346 -0.86645776 0.054791424 0
0.0110915 -0.050951242 0.10269502 0.54102397 -0.83886069 0.060048472 0
-0.0508928 -0.046158154 0.10226654 -0.6819191 -0.72248983 0.11399475 0
-0.047959838 -0.048607029 0.10268116 -0.6151666 -0.77768552 0.12951934 0
0.013683874 -0.049064536 0.10273253 0.62133765 -0.78071702 0.066485912 0
0.016709136 -0.046501171 0.10267916 0.68243319 -0.72684622 0.077327088 0
-0.055658951 -0.041077599 0.10213675 -0.75816715 -0.63784647 0.13540463 0
-0.053443119 -0.043449949 0.10282295 -0.72612482 -0.67270052 0.14218603 0
0.019216483 -0.044012025 0.10304043 0.71756309 -0.69335431 0.066053689 0
0.02115972 -0.041851144 0.10272706 0.76996672 -0.63504726 0.062179327 0
-0.060023777 -0.035147376 0.10048439 -0.86735111 -0.49732834 -0.019146636 0
-0.058232892 -0.037402891 0.10285074 -0.82593441 -0.55645776 0.09048301 0
0.024183568 -0.037892513 0.10241392 0.82543045 -0.56284761 0.043209352 0
0.025544403 -0.035786469 0.10227168 0.8666994 -0.49316281 0.074984729 0
-0.061446 -0.032071292 0.10238118 -0.89521682 -0.43302125 0.1052592 0
-0.059690855 -0.03471889 0.10455146 -0.87178963 -0.48579457 -0.063138686 0
0.027299205 -0.032565188 0.10235214 0.89130306 -0.44984701 0.056714185 0
-0.063554965 -0.027311545 0.10261598 -0.92407608 -0.36970416 0.096965015 0
0.029285299 -0.028080298 0.10238097 0.92969912 -0.36767319 0.021817664 0
0.030213473 -0.025473149 0.10192481 0.9540593 -0.29617167 0.045310773 0
-0.065328181 -0.021676771 0.10280517 -0.97426975 -0.22074242 0.045511257 0
-0.064660944 -0.02411548 0.10285573 -0.9449805 -0.32231802 0.055882115 0
0.031036105 -0.022493498 0.10283062 0.96443707 -0.25788012 0.057957206 0
-0.066227384 -0.017504657 0.10235526 -0.9838925 -0.16638111 0.065367207 0
0.032042269 -0.017600421 0.10260992 0.98890996 -0.14176469 0.044270739 0
-0.06680461 -0.012383782 0.1020744 -0.99580139 -0.065648131 0.06379535 0
0.032537069 -0.012828019 0.10236597 0.99749923 -0.051490948 0.048415568 0
-0.066852778 -0.0075837877 0.10265742 -0.99757642 0.035456691 0.059867647 0
0.032557413 -0.007275397 0.10305189 0.99739921 0.062959425 0.035084046 0
-0.066348523 -0.0023461408 0.10227165 -0.98674828 0.14988481 0.062147833 0
0.0321302 -0.002609513 0.10239865 0.98757458 0.1484088 0.051685102 0
-0.065569505 0.0018573455 0.10237128 -0.97091597 0.23903653 0.013555208 0
-0.06483487 0.0044913455 0.10277256 -0.95022327 0.30659795 0.055438116 0
0.03103389 0.0025837836 0.10279796 0.96601516 0.2566601 0.030663023 0
-0.063676193 0.0077319979 0.10249513 -0.93665767 0.34628397 0.052534144 0
0.029200729 0.008291821 0.10296597 0.92913342 0.36175066 0.076468833 0
0.030184086 0.005492765 0.1026824 0.95427418 0.29752976 0.02892866 0
-0.061790101 0.012398863 0.10265388 -0.90611893 0.42104933 0.040815372 0
0.027341096 0.012545308 0.1025292 0.90093529 0.43071374 0.052926704 0
-0.06028001 0.015277928 0.10225137 -0.86261225 0.50457972 0.036048017 0
-0.058788862 0.017668415 0.10238075 -0.83351785 0.54887605 0.063111752 0
0.023939468 0.018300258 0.10302045 0.81440121 0.57755548 0.05639419 0
0.025650848 0.015923368 0.10194588 0.84432453 0.53116512 0.070567667 0
-0.056004826 0.021369474 0.10264546 -0.7767275 0.62820762 0.045272492 0
-0.053944755 0.023843654 0.10263919 -0.75467283 0.65511137 0.036028363 0
0.019314663 0.02438445 0.10256333 0.75154346 0.65648288 0.064903967 0
0.021490501 0.021703551 0.10246393 0.78627604 0.61560047 0.052971356 0
-0.051327582 0.026595253 0.10203624 -0.65724921 0.75273961 0.037503522 0
-0.048652381 0.028823344 0.10245795 -0.64074302 0.76538569 0.060275234 0
0.014176387 0.029015966 0.1031298 0.63105822 0.77494335 0.035049111 0
0.017202787 0.026505237 0.10226481 0.67716032 0.73498428 0.035383761 0
-0.046115141 0.030829525 0.10268268 -0.58237982 0.80999428 0.06886851 0
-0.042253129 0.033310469 0.1019455 -0.49816653 0.86493367 0.060991023 0
-0.039490424 0.034761302 0.1028809 -0.44574168 0.89206338 0.074413225 0
0.0046087983 0.03493746 0.10421121 0.42958415 0.90290552 -0.014802622 0
0.0072609815 0.033700723 0.10267258 0.4826296 0.87034971 0.097775199 0
0.011486123 0.031098308 0.10244948 0.56652439 0.81933117 0.088014551 0
-0.037305847 0.03579833 0.10234667 -0.39780751 0.91438687 0.075139433 0
-0.032413911 0.037639249 0.10277933 -0.31395897 0.9451583 0.09003038 0
-0.027464841 0.038938053 0.10285867 -0.21071462 0.97418308 0.081035204 0
-0.02255778 0.039702408 0.10330265 -0.11584647 0.98950976 0.086313985 0
-0.018073721 0.039942663 0.10408683 -0.031854991 0.99837244 0.047303583 0
-0.01170448 0.039858453 0.10329255 0.12130691 0.98985326 0.073994592 0
-0.0076384116 0.039262328 0.10268693 0.18642227 0.98034984 0.064504683 0
-0.0029008512 0.038018499 0.10291321 0.29728168 0.95235729 0.068110429 0
0.0024747855 0.036126181 0.102107 0.39877465 0.91308898 0.085130647 0
0.0051782504 0.035135683 0.10020642 0.43342355 0.89399886 0.11362275 0
-0.021254998 0.040118869 0.10099041 -0.092934087 0.99328572 0.068896353 0
-0.016807878 0.04029572 0.10136262 0.026515013 0.99389827 0.10706706 0
-0.013687611 0.040173206 0.10129789 0.039577872 0.99640292 0.074932203 0
-0.036337487 -0.055657402 0.10727227 -0.39507532 -0.90997183 -0.1259636 0
-0.032397646 -0.057133712 0.10754719 -0.30124483 -0.9491865 -0.091085441 0
-0.02766645 -0.058381133 0.10733713 -0.21843196 -0.97214603 -0.084967628 0
-0.022577075 -0.059192244 0.10721488 -0.096674599 -0.99002409 -0.10250004 0
-0.017617097 -0.059494063 0.10728215 -0.032163668 -0.99593145 -0.084177911 0
-0.012772536 -0.059301026 0.10758585 0.073872462 -0.99502033 -0.066914238 0
-0.0075784265 -0.058650471 0.10749292 0.19163033 -0.97901434 -0.069344535 0
-0.0023821641 -0.057366934 0.10754076 0.2956599 -0.95409995 -0.047732357 0
0.001785884 -0.055885676 0.10726044 0.37237543 -0.92680907 -0.048594322 0
-0.045837082 -0.050417643 0.10833492 -0.59433091 -0.80069411 -0.07523109 0
-0.042424187 -0.052497633 0.10716165 -0.5249179 -0.84581816 -0.09514679 0
-0.038978539 -0.054538395 0.10790251 -0.42578623 -0.90147918 -0.077726036 0
0.004368708 -0.054763041 0.10729742 0.41087353 -0.91063452 -0.043905403 0
0.0071904561 -0.053354997 0.10733916 0.47273961 -0.87959749 -0.053156056 0
0.011072775 -0.050934907 0.1075852 0.56769407 -0.82258081 -0.032929178 0
-0.051295985 -0.045788165 0.10755311 -0.69412982 -0.70914441 -0.12368549 0
-0.048105512 -0.04858239 0.10740978 -0.61900067 -0.77753985 -0.11076954 0
0.013890413 -0.04889765 0.10712855 0.60224551 -0.79613364 -0.058919966 0
0.016672166 -0.046519861 0.10748103 0.67954731 -0.73228872 -0.044369724 0
-0.055750094 -0.040852927 0.10735326 -0.77500319 -0.62476206 -0.095091641 0
-0.053636119 -0.043413378 0.10778537 -0.74364662 -0.66191328 -0.094130442 0
0.01930026 -0.04400837 0.10758337 0.7216838 -0.69083869 -0.04375435 0
0.021383021 -0.041544538 0.1074164 0.77739638 -0.62707376 -0.049328703 0
-0.05828955 -0.037444744 0.10748284 -0.82090503 -0.56355262 -0.092321992 0
0.023739237 -0.038490038 0.10762198 0.81399471 -0.57978016 -0.035602659 0
0.025556145 -0.035753574 0.10788179 0.86463982 -0.50165921 -0.027129026 0
-0.061365969 -0.032337062 0.10769979 -0.88822573 -0.45308128 -0.075976096 0
-0.059897225 -0.034897815 0.10660521 -0.82914031 -0.55458343 -0.070451967 0
0.027031861 -0.033015847 0.10732292 0.88112557 -0.47026357 -0.04969896 0
-0.063588932 -0.027302699 0.10734031 -0.93143922 -0.35701218 -0.070450053 0
0.029037755 -0.028598085 0.10660733 0.92598444 -0.37395924 -0.052031521 0
0.030207122 -0.025515238 0.10721675 0.95397013 -0.29429004 -0.057744343 0
-0.06545867 -0.021310378 0.10741927 -0.97211748 -0.23035648 -0.043857906 0
-0.064729661 -0.024053575 0.10729935 -0.94939989 -0.31183171 -0.037429824 0
0.031040527 -0.022599449 0.10755501 0.96605009 -0.25448397 -0.044553921 0
-0.066179886 -0.017898269 0.10769657 -0.9848386 -0.16992895 -0.034886681 0
0.032059502 -0.017823648 0.10740136 0.98747206 -0.14970011 -0.049887165 0
-0.066777267 -0.012616878 0.10737212 -0.996086 -0.071158729 -0.052431773 0
0.032587159 -0.012490342 0.10714373 0.99800533 -0.04456389 -0.044714797 0
-0.066840142 -0.0077077211 0.10744267 -0.99866194 0.032402109 -0.040302914 0
0.032639541 -0.0073525878 0.10759149 0.99901301 0.035548206 -0.026633862 0
-0.066294976 -0.0023585954 0.10737709 -0.9873569 0.15484276 -0.033912789 0
0.032180589 -0.0026889546 0.10763709 0.98781329 0.15312916 -0.027863557 0
-0.065458022 0.0022027015 0.10765341 -0.97183818 0.23548134 -0.0088913795 0
-0.064772643 0.0045675561 0.10655084 -0.94974315 0.30945057 -0.047204919 0
0.031116612 0.0026445822 0.10743663 0.97163022 0.23257737 -0.042923596 0
-0.063866004 0.0073071006 0.1077979 -0.93481696 0.35224864 -0.045147795 0
0.029400516 0.0079464801 0.10723003 0.93057024 0.36479136 -0.031085225 0
0.030267201 0.005715583 0.10772628 0.93929088 0.33967409 -0.04851881 0
-0.061688103 0.012559717 0.10739023 -0.90109217 0.4331511 -0.020325743 0
0.027675042 0.012144733 0.10774556 0.90404361 0.42461944 -0.049023632 0
-0.060268134 0.015269989 0.10730267 -0.85914636 0.50991094 -0.043109003 0
-0.058633048 0.017848592 0.10727189 -0.83071196 0.55554557 -0.03587088 0
0.024037594 0.018381946 0.10769655 0.83277661 0.5518719 -0.043825202 0
0.025560943 0.016027555 0.10751443 0.84894443 0.52476627 -0.062558986 0
-0.056064475 0.021313872 0.10698164 -0.78158021 0.62232375 -0.042959008 0
-0.054048967 0.023734825 0.10743781 -0.744793 0.66665238 -0.029290622 0
0.019449957 0.024308395 0.10760465 0.75064653 0.65941417 -0.041265067 0
0.021597657 0.021738209 0.10761723 0.78061837 0.62372899 -0.039963908 0
-0.051410805 0.026450407 0.10768186 -0.67807573 0.73466873 -0.021796023 0
-0.048798334 0.028710643 0.10759859 -0.62772965 0.77706337 -0.046130147 0
0.01419257 0.029193331 0.10749914 0.62861079 0.77618629 -0.048818741 0
0.016815843 0.026967172 0.10764948 0.67220414 0.73881084 -0.047960341 0
-0.046219859 0.03070421 0.10725573 -0.58339363 0.81082046 -0.047138616 0
-0.042917728 0.032885183 0.10727387 -0.51391804 0.85571629 -0.060314666 0
-0.039318584 0.03488639 0.10720203 -0.44371349 0.89501476 -0.045463823 0
0.00475492 0.034949746 0.10532707 0.42499515 0.90174848 -0.078923322 0
0.0075280853 0.033671916 0.10750543 0.48507014 0.8717621 -0.068832137 0
0.011584342 0.031181624 0.10796824 0.56980354 0.82103831 -0.034930304 0
-0.037044227 0.035975501 0.10786071 -0.39858937 0.91638505 -0.036944579 0
-0.032448579 0.037661593 0.10768489 -0.30848011 0.95049375 -0.037439186 0
-0.027178168 0.039069228 0.10726452 -0.20851392 0.97570795 -0.067200616 0
-0.023713248 0.039658833 0.10691643 -0.14425877 0.98644102 -0.078252748 0
-0.018152356 0.039969642 0.10527694 0.01203777 0.99764091 -0.067585044 0
-0.011352964 0.0398506 0.10704818 0.10077696 0.99251598 -0.0689632 0
-0.0071267039 0.039215006 0.10758583 0.21069965 0.97661138 -0.042847391 0
-0.0022412559 0.037965663 0.10754979 0.27992705 0.95839995 -0.055770483 0
0.0024118386 0.036209475 0.10760675 0.41499609 0.90784019 -0.060036745 0
0.0050412347 0.035084579 0.10974697 0.42512965 0.90483803 -0.023086261 0
-0.021125626 0.04011092 0.10775408 -0.087831527 0.99490982 -0.04939713 0
-0.01732965 0.040177606 0.10789105 -0.017628711 0.9987368 -0.04705381 0
-0.013538031 0.040149279 0.10812534 0.073518306 0.99594903 -0.051773455 0
-0.03644583 -0.05581915 0.11284389 -0.39425138 -0.91899997 0.002252226 0
-0.032627255 -0.057221845 0.1122773 -0.30824268 -0.95130765 0.00016651847 0
-0.027385846 -0.058632039 0.11234538 -0.21427077 -0.97676468 -0.004334433 0
-0.022487361 -0.059387777 0.11287279 -0.086723983 -0.99622232 -0.0044871205 0
-0.017523941 -0.059638001 0.11258454 0.0015646933 -0.99999475 0.0028478701 0
-0.012533187 -0.059379756 0.11249083 0.087256998 -0.99618167 0.0028751129 0
-0.0073551084 -0.05867938 0.11265864 0.1961768 -0.9805541 0.0053209914 0
-0.0027365356 -0.057527781 0.11282071 0.28130004 -0.9595865 0.0080011468 0
0.0019727736 -0.05586198 0.11268198 0.3826631 -0.92385727 0.0075260564 0
-0.04595533 -0.050520912 0.11213394 -0.60539329 -0.79589897 -0.0066092224 0
-0.042790979 -0.052558895 0.11277852 -0.50596809 -0.86245322 -0.013064629 0
-0.039196659 -0.054555189 0.11203162 -0.44678313 -0.89457482 0.010986798 0
0.004375834 -0.054805864 0.11225768 0.41266346 -0.91087657 0.0035736032 0
0.0077819708 -0.053047929 0.11238728 0.4969748 -0.86751407 0.020865204 0
0.011536723 -0.050697722 0.112661 0.57846797 -0.815705 -0.00035043497 0
-0.051244218 -0.04609561 0.11264211 -0.67695528 -0.73602217 -0.0017248505 0
-0.048402678 -0.048610304 0.1123091 -0.63650614 -0.77127081 0.0011288375 0
0.013729479 -0.049080614 0.1124805 0.60360068 -0.79727155 0.0049269819 0
0.016682923 -0.046543885 0.11246244 0.67767072 -0.73536474 0.001057671 0
-0.055754077 -0.041209433 0.11184924 -0.77646786 -0.63015044 -0.0028360202 0
-0.053710744 -0.043627068 0.11222402 -0.7416243 -0.67080629 -0.0035056723 0
0.019227419 -0.044092648 0.11331759 0.73695797 -0.67590296 0.0069388305 0
0.021635197 -0.041324023 0.11208172 0.78142035 -0.62396806 0.0067837774 0
-0.05852215 -0.03734139 0.11274249 -0.83218682 -0.55439579 0.010507316 0
0.02381284 -0.038420767 0.11264124 0.81738049 -0.57605588 0.0069888742 0
0.0255569 -0.035724506 0.11217523 0.86611748 -0.49978435 0.0074865059 0
-0.06137393 -0.032530151 0.11230254 -0.89160973 -0.45280293 0.0012510142 0
0.027426828 -0.032337438 0.11236231 0.89435643 -0.44733077 0.0046767793 0
-0.06362626 -0.027425855 0.11214666 -0.93530071 -0.35383162 0.0039730589 0
0.029223273 -0.028288523 0.11272001 0.92186582 -0.38744211 0.0072224718 0
0.030236658 -0.025737664 0.11338015 0.94917601 -0.31473526 0.0025813247 0
-0.065470904 -0.021583509 0.11247972 -0.97515941 -0.22150429 2.9070801e-05 0
-0.064638369 -0.024573166 0.11273098 -0.9489876 -0.31531042 -0.0013641189 0
0.031241687 -0.02215784 0.11245023 0.96595442 -0.25869894 0.0026426488 0
-0.06628868 -0.017612593 0.11267902 -0.98563015 -0.16891654 0.0005158197 0
0.032172713 -0.017372847 0.11229807 0.99121046 -0.13228928 0.0012042486 0
-0.066844381 -0.012637125 0.11235 -0.99869806 -0.050780602 0.0048543173 0
0.032676231 -0.012402501 0.11260477 0.99901748 -0.044193279 -0.0033219743 0
-0.06688644 -0.0073002782 0.11284485 -0.99938065 0.034731936 0.0056580859 0
0.03267489 -0.007335166 0.11208711 0.99918288 0.040258922 -0.0035929999 0
-0.066394754 -0.0026031968 0.11253131 -0.98759615 0.1570134 0.00073829363 0
0.032207936 -0.0025156557 0.11246148 0.98893732 0.14829014 0.0036010959 0
-0.065589964 0.0017442965 0.11246734 -0.9740026 0.22653598 0.00061406195 0
-0.064852066 0.0046183919 0.11219273 -0.96260202 0.2708894 -0.0040352838 0
0.031158673 0.0027346665 0.11266457 0.97233456 0.23358817 0.0013998837 0
-0.06391634 0.007418551 0.11242752 -0.93732917 0.34843671 -0.0024463537 0
0.02947801 0.0080237053 0.11247856 0.93143123 0.36365989 -0.013689095 0
0.030350413 0.0057127392 0.11255009 0.94935769 0.31419212 0.001805165 0
-0.061775036 0.012511403 0.11234722 -0.9016059 0.43250299 -0.0069267941 0
0.027620161 0.012330781 0.11283312 0.89840049 0.43913573 0.006035747 0
-0.060287416 0.015387803 0.1125468 -0.86391652 0.50363296 0.0014807745 0
-0.058653571 0.017901449 0.11258285 -0.82399076 0.56659961 0.0020041266 0
0.023989838 0.01858622 0.11288446 0.8277517 0.56109321 -0.0012536877 0
0.02552771 0.016221788 0.11245799 0.85388827 0.52045345 0.0017436239 0
-0.056358263 0.021048609 0.11291366 -0.78843993 0.61510706 0.0024097376 0
-0.05410355 0.023721939 0.11238716 -0.73685884 0.67603976 0.0030439582 0
0.019269265 0.024563663 0.11274574 0.71467263 0.69945687 -0.00177771 0
0.0214494 0.022049677 0.1126189 0.78144956 0.62396544 -0.0019019077 0
-0.051766984 0.026133478 0.1127376 -0.69343793 0.72049862 0.0050655105 0
-0.048740324 0.02885621 0.11206114 -0.64297014 0.76589108 -0.00056164956 0
0.014331396 0.029148052 0.1123406 0.60768068 0.79418147 0.00017843496 0
0.016709669 0.027108811 0.11267266 0.6798209 0.73336303 0.0047147293 0
-0.045878116 0.031041157 0.11228086 -0.58713305 0.80949038 0.00024204297 0
-0.042368408 0.033289824 0.11268681 -0.50680602 0.86204803 0.0045693321 0
-0.039678585 0.034797251 0.11245999 -0.452986 0.89151454 -0.0023304953 0
0.0075671142 0.033740629 0.11263541 0.49602449 0.86827445 0.00769347 0
0.01161643 0.031198163 0.11260881 0.58197153 0.81319618 -0.0046011582 0
-0.037407763 0.035846949 0.11205134 -0.40877429 0.91263497 0.0010090098 0
-0.032589477 0.037701618 0.11274779 -0.31643167 0.94860852 -0.003610169 0
-0.02735097 0.039108351 0.11183202 -0.21017262 0.97753823 0.015698895 0
-0.02337249 0.03984277 0.11287896 -0.13098107 0.99137855 0.0035405648 0
-0.010529386 0.039906796 0.11252392 0.12021253 0.9927457 0.0022188271 0
-0.0075235786 0.039328385 0.11257357 0.20040716 0.97967613 0.0084676621 0
-0.0022149947 0.037978008 0.11244775 0.29333028 0.95596981 0.0088986894 0
0.0024307962 0.036259297 0.11266549 0.39467224 0.91881436 0.0037421433 0
0.005077586 0.035080802 0.11286959 0.44319698 0.89639926 -0.0066875564 0
-0.020925039 0.040104531 0.11285443 -0.089353524 0.99592847 0.011936057 0
-0.017500658 0.040242132 0.1126451 -0.017810481 0.99984127 -0.00034417555 0
-0.013249886 0.040160533 0.11238233 0.076692499 0.99704576 0.0042328248 0
-0.036762565 -0.055694334 0.11793281 -0.40692198 -0.91342664 -0.0081475601 0
-0.032270808 -0.057344075 0.11746491 -0.31591806 -0.94876361 -0.0065887086 0
-0.027522629 -0.05862049 0.11809768 -0.2080151 -0.97809422 -0.0078432318 0
-0.02270739 -0.059374262 0.11731765 -0.096599817 -0.99532264 -0.0011204171 0
-0.017401364 -0.059612811 0.11766829 0.0094942711 -0.99993825 0.0057742423 0
-0.012858967 -0.059376948 0.1175226 0.084330626 -0.9964357 0.0020358823 0
-0.0078465845 -0.058748551 0.11747335 0.1688609 -0.98563272 0.0037617516 0
-0.0025245354 -0.057425331 0.11750033 0.29234743 -0.95630407 0.0039410926 0
0.0024462922 -0.055643048 0.11762702 0.39635852 -0.91809541 0.00083155383 0
-0.045894969 -0.050622053 0.11698313 -0.59091634 -0.80669075 -0.008244684 0
-0.042279989 -0.052912377 0.11781878 -0.49056077 -0.87135983 -0.0090731662 0
-0.039017409 -0.054613896 0.117942 -0.44211051 -0.89691347 -0.0091990279 0
0.0046417387 -0.054654811 0.11772222 0.42066213 -0.90721565 -0.0017629148 0
0.007445069 -0.053195678 0.11736894 0.48269054 -0.87578988 0.0013898996 0
0.011241333 -0.050886784 0.11802913 0.56911147 -0.82224327 0.0053001479 0
-0.051320657 -0.046072174 0.11733143 -0.67948788 -0.73364025 -0.0082531637 0
-0.048487443 -0.048598189 0.11727151 -0.63835388 -0.76965141 -0.011879964 0
0.013615832 -0.049168706 0.11752468 0.60905999 -0.7931239 -0.00064081477 0
0.01667078 -0.046570912 0.11771656 0.67026478 -0.74212116 0.0011449223 0
-0.055829253 -0.041092642 0.11750951 -0.79611874 -0.60512483 0.0043538697 0
-0.053732522 -0.043662045 0.11769967 -0.75781685 -0.6524511 -0.0046012742 0
0.019045014 -0.044248767 0.11760709 0.74111164 -0.67136586 0.0046194447 0
0.021414459 -0.041558534 0.11716334 0.77172828 -0.6359514 0.0011172078 0
-0.058252681 -0.037652683 0.11764967 -0.8291477 -0.5589993 0.0058210576 0
0.023922872 -0.038237575 0.11755735 0.8165673 -0.57724416 0.0026273099 0
0.025518691 -0.035806883 0.11712358 0.86343908 -0.50444001 -0.0036371928 0
-0.06132533 -0.03258412 0.11743344 -0.89091396 -0.45415345 0.0041123219 0
-0.059971862 -0.034993876 0.11794301 -0.85390371 -0.52036679 0.0081762755 0
0.027398864 -0.032366082 0.11712214 0.8968932 -0.44223297 -0.0035342672 0
-0.063559584 -0.027502645 0.11747015 -0.92991626 -0.36769757 0.007370308 0
0.029237784 -0.028218113 0.11716493 0.9240979 -0.38215211 -0.0017057441 0
0.03026613 -0.025537578 0.11791406 0.96316731 -0.26884857 0.0053918203 0
-0.065330602 -0.022190493 0.11760702 -0.96900094 -0.24705508 0.0010273504 0
-0.064723253 -0.024349025 0.11762279 -0.94920629 -0.31465182 -0.0012836503 0
0.031019248 -0.022846585 0.11744584 0.96334761 -0.26822469 0.0040969071 0
-0.066318572 -0.017304482 0.11717086 -0.98887002 -0.14878173 -0.00022583304 0
0.032196768 -0.017323215 0.11736669 0.99056625 -0.13684562 -0.0071920836 0
-0.066811495 -0.012850566 0.11779744 -0.99791259 -0.064571731 0.00096340181 0
0.03268439 -0.012377125 0.11747584 0.99867272 -0.051465943 0.0020407441 0
-0.066851877 -0.0070707439 0.11764854 -0.99812573 0.06108563 0.0036864209 0
0.032711092 -0.0073364363 0.11731371 0.99883074 0.047585141 -0.0085362745 0
-0.066450506 -0.0030711382 0.11723216 -0.98994946 0.14130986 0.0056150765 0
0.032224745 -0.0025661425 0.117928 0.98920012 0.14632787 -0.0084416224 0
-0.065501355 0.0020349461 0.11741113 -0.97747457 0.21097009 0.0059223799 0
-0.064933293 0.0044187279 0.11699722 -0.95787454 0.28718561 0.00091319479 0
0.031188814 0.0025746257 0.11751751 0.96960467 0.2446181 -0.0053599752 0
-0.063929595 0.0073755947 0.11748302 -0.93796784 0.34672186 0.00042701451 0
0.029596517 0.0078279097 0.11699495 0.93304646 0.35967287 -0.0077304528 0
0.030275201 0.0058659562 0.11671872 0.95812953 0.28629735 0.0046564913 0
-0.061774053 0.012545086 0.11743106 -0.89970934 0.43648934 -0.00016699992 0
0.027487231 0.012585975 0.11778162 0.8965627 0.44281223 -0.0096250791 0
-0.060264498 0.015411572 0.11703175 -0.85850364 0.5128057 0.0013583436 0
-0.05867089 0.017892275 0.11777528 -0.82475162 0.56549478 -0.00061981654 0
0.023802867 0.01885942 0.11767105 0.82249701 0.56876266 -0.0027686553 0
0.025713095 0.015879245 0.11774918 0.86947083 0.49394605 -0.006141738 0
-0.056084011 0.021386141 0.11728842 -0.78824377 0.61535949 0.0020938283 0
-0.053982094 0.02383841 0.11785194 -0.7345323 0.67857248 0.0013431861 0
0.019555669 0.024288513 0.11761424 0.72134703 0.69256949 -0.0024474631 0
0.02164924 0.021787494 0.11789747 0.78955072 0.61368328 0.0016165065 0
-0.051600125 0.026271328 0.11736797 -0.68772054 0.72597504 0.00084446964 0
-0.048791811 0.028826235 0.11787876 -0.63849711 0.76962346 -0.0010874092 0
0.014315746 0.029176021 0.11740037 0.64229196 0.76645869 0.0014560081 0
0.017001141 0.026800837 0.11775693 0.685543 0.72803217 -9.374864e-05 0
-0.045953199 0.030977013 0.11755633 -0.57612067 0.81736439 -0.00064716797 0
-0.042196754 0.033364825 0.11752713 -0.50389993 0.86376089 0.0014406758 0
-0.039669055 0.034794886 0.11823527 -0.48600516 0.87395227 -0.0025490716 0
0.0076532322 0.033682775 0.11781348 0.49929222 0.86642909 -0.0028184277 0
0.011769213 0.031078601 0.11742083 0.57324833 0.81936437 0.0053307549 0
-0.037161682 0.035961445 0.1177689 -0.40675431 0.91352272 -0.0052143983 0
-0.032967068 0.037587013 0.11784365 -0.30631325 0.95193064 -0.00040190687 0
-0.027472468 0.039031796 0.11760844 -0.21826394 0.97588384 0.0033959921 0
-0.023379756 0.039832003 0.11792388 -0.12302969 0.99240232 -0.0011898327 0
-0.010760749 0.039915029 0.11718234 0.14465329 0.98946464 0.0059302687 0
-0.0077109584 0.039358843 0.11753678 0.19117637 0.98155177 -0.0027690176 0
-0.0022300349 0.037971172 0.11780038 0.30569351 0.95212984 -0.00054085872 0
0.0025489021 0.036200438 0.11759125 0.38985395 0.92087662 0.00016833466 0
0.005112947 0.0350959 0.11723681 0.44319701 0.89639932 -0.0066875564 0
-0.02098712 0.040081948 0.11729368 -0.097350352 0.99524409 -0.0034834708 0
-0.017449263 0.040242281 0.11723235 -0.020755874 0.99978453 0.00024696023 0
-0.013476127 0.040146455 0.11801481 0.080531098 0.99673241 0.0062640212 0
-0.036507249 -0.055824649 0.12206028 -0.37988251 -0.92502606 -0.0040075835 0
-0.032520507 -0.057295986 0.12217897 -0.31615293 -0.94869465 -0.0050742878 0
-0.027643889 -0.058633316 0.12281445 -0.20704919 -0.97831613 -0.0053073154 0
-0.022587614 -0.059401263 0.12249168 -0.084980108 -0.99638253 -0.00048651366 0
-0.017272893 -0.059586428 0.12247305 0.004434464 -0.99999022 0.00011287042 0
-0.012481649 -0.059347391 0.12228494 0.08458098 -0.99641424 -0.0021525968 0
-0.0073873685 -0.058648095 0.12230615 0.1869626 -0.98236287 0.0028665082 0
-0.0024324271 -0.05739383 0.1227356 0.30273992 -0.95307243 -0.001230858 0
0.0018522312 -0.055862255 0.12254164 0.37376827 -0.92752165 0.0009483911 0
-0.046016354 -0.050579395 0.12207528 -0.5797863 -0.81474406 -0.0063192202 0
-0.04235395 -0.052910306 0.12219824 -0.49654776 -0.86798286 -0.0067843585 0
-0.039222673 -0.054567732 0.12190497 -0.44793069 -0.89400375 -0.010738335 0
0.0045620454 -0.054689571 0.12207907 0.44860384 -0.89370698 0.0065159029 0
0.0077061867 -0.053045888 0.12241264 0.49015707 -0.87162811 0.00322865 0
0.011233186 -0.050849546 0.12301095 0.55994552 -0.82849157 0.0079137748 0
-0.051247142 -0.046238754 0.12289765 -0.68874723 -0.72482753 -0.015879499 0
-0.048295192 -0.048830949 0.12237015 -0.63299954 -0.77407527 -0.010912515 0
0.013554722 -0.049208187 0.12209325 0.61337674 -0.78978783 0.0020469353 0
0.016671345 -0.04654767 0.12240805 0.66208601 -0.74939889 0.0065901834 0
-0.055734802 -0.041187938 0.12222455 -0.80304962 -0.59591204 -0.00024619084 0
-0.053787403 -0.043613523 0.12212668 -0.75662804 -0.65379512 -0.0081191547 0
0.019162739 -0.044106644 0.12249884 0.73436934 -0.67874062 0.0035897873 0
0.021331318 -0.041663721 0.1225025 0.77511781 -0.63181573 0.0011581598 0
-0.058293737 -0.037622042 0.1226347 -0.82387346 -0.566742 -0.0060018669 0
0.023788176 -0.038408846 0.12208911 0.81309026 -0.58213341 0.0022245271 0
0.025582548 -0.035697691 0.12244599 0.85196042 -0.52360141 0.0022426464 0
-0.061273489 -0.032680303 0.1228848 -0.89073718 -0.45451644 0.0014620754 0
0.027200677 -0.0327897 0.12223202 0.88749701 -0.46080798 0.00224786 0
-0.063516103 -0.027517166 0.12232098 -0.92952359 -0.3687605 -0.0012824034 0
0.029260322 -0.028221544 0.12230641 0.92717558 -0.37459937 -0.0045647682 0
0.030274795 -0.02552524 0.12161964 0.95551103 -0.29493731 -0.0032845102 0
-0.065402187 -0.021897154 0.12229823 -0.9691779 -0.24635406 0.001991502 0
-0.064792208 -0.024107037 0.12280928 -0.95974493 -0.28085873 0.0028212811 0
0.031184247 -0.022363564 0.12260038 0.96541059 -0.26061177 -0.0079993047 0
-0.066313781 -0.017309166 0.12259591 -0.98718894 -0.15951541 0.0035747914 0
0.032214195 -0.017450405 0.12234619 0.98894918 -0.14819984 -0.0040307073 0
