# .PCD v0.7 - Point Cloud Data file format
VERSION 0.7
FIELDS x y z normal_x normal_y normal_z curvature
SIZE 4 4 4 4 4 4 4
TYPE F F F F F F F
COUNT 1 1 1 1 1 1 1
WIDTH 641
HEIGHT 1
VIEWPOINT 0 0 0 1 0 0 0
POINTS 641
DATA ascii
0.016665418 -0.052427091 0.092004098 0.99365485 -0.020329623 0.11061946 0
-0.048235592 -0.047484428 0.092235893 -0.99860841 -0.0462378 0.025361611 0
0.016667111 -0.047327727 0.092515029 0.99240035 -0.022612249 0.1209553 0
-0.048364863 -0.042579781 0.092352152 -0.99977785 -0.016722361 0.012824846 0
0.016750867 -0.042871375 0.092427574 0.99245846 -0.01374935 0.121808 0
-0.048433304 -0.037401613 0.092473075 -0.99991727 -0.00904065 0.0091531137 0
0.016809842 -0.037571684 0.092544109 0.99253035 -0.0056737107 0.1218665 0
-0.048468068 -0.032274943 0.092718109 -0.99994385 -0.0049628383 0.0093531385 0
0.016863495 -0.032887306 0.092505082 0.99140811 -0.0085426774 0.13052596 0
-0.048491742 -0.027145393 0.092334963 -0.99994284 -0.0031191651 0.010229075 0
0.016937146 -0.027241852 0.092421792 0.99178219 -0.013862826 0.12718451 0
-0.048494514 -0.022618204 0.092861019 -0.99991888 0.00086285057 0.012702684 0
0.016984096 -0.022082344 0.092615172 0.99199498 -0.012822905 0.12562485 0
-0.048475578 -0.017251946 0.092276819 -0.99988246 0.0079135653 0.013131632 0
0.017031508 -0.01829518 0.092605911 0.99209899 -0.011488874 0.1249308 0
-0.048424542 -0.012576 0.092305973 -0.99982333 0.013348729 0.013234239 0
0.017133178 -0.01221155 0.092496604 0.99220234 -0.014288878 0.1238161 0
-0.048354123 -0.0076958588 0.092534542 -0.99980253 0.014889712 0.013163144 0
0.017194677 -0.007777913 0.092430606 0.99255967 -0.010181165 0.12133271 0
-0.048269141 -0.0021496692 0.092267931 -0.99981928 0.015487437 0.011025507 0
0.017240629 -0.002884655 0.092481591 0.99271059 -0.012096766 0.11991383 0
-0.048187688 0.0023184721 0.092231132 -0.99972939 0.020885371 0.010249224 0
0.017275663 0.0027043335 0.092920192 0.99311048 -0.01537006 0.11616906 0
-0.048062969 0.0080855256 0.092198811 -0.99968934 0.022219609 0.011295349 0
0.017403977 0.0078988178 0.092247427 0.99274564 -0.0098451097 0.1198298 0
-0.047950372 0.012531533 0.092741728 -0.99960172 0.026302258 0.010225448 0
0.017410001 0.012333126 0.092481084 0.99366784 -0.0065615438 0.11216595 0
-0.047811911 0.017354863 0.092272647 -0.99925476 0.037778944 0.0079182489 0
0.017488178 0.0179909 0.092077561 0.99378616 -0.0045219045 0.11121444 0
-0.047571607 0.0227456 0.092450529 -0.99912 0.041940045 0.00040450471 0
0.017457921 0.022551253 0.09235502 0.99475574 0.0056577441 0.1021222 0
-0.04738941 0.027337393 0.092536643 -0.99931347 0.036754351 -0.0046563712 0
0.017426224 0.027401367 0.092264473 0.99509817 0.0090274708 0.098478869 0
-0.047199242 0.032633431 0.09248212 -0.99929905 0.037333537 0.0027416809 0
0.017285757 0.032615487 0.093144745 0.99578851 0.014313731 0.09055569 0
-0.046941347 0.037680548 0.092846215 -0.99782783 0.064523295 0.013282024 0
0.017176948 0.037832636 0.093086056 0.99641949 0.028498527 0.079599142 0
-0.046612807 0.042370133 0.092368066 -0.99710321 0.075631276 0.008071241 0
0.017112253 0.042509787 0.092277542 0.9972046 0.025713598 0.070154838 0
-0.046304613 0.047488209 0.092711478 -0.99889076 0.046730492 -0.0057824301 0
0.016817994 0.047552086 0.092580862 0.99562609 0.081827022 0.045090158 0
-0.046073925 0.052098468 0.092265509 -0.99861801 0.052181609 -0.0062570116 0
0.016511146 0.05247039 0.09247148 0.99838233 0.044452261 0.035451464 0
-0.045888025 0.05701581 0.093095511 -0.99970555 0.022439193 0.009238299 0
0.016214229 0.057496127 0.092221089 0.99748474 0.070467971 0.0076454575 0
-0.045525361 0.062492222 0.092232615 -0.99656749 0.077149741 0.03001886 0
0.0087162573 0.064991266 0.093242928 0.25229424 0.96597731 0.056880992 0
0.014848482 0.064900227 0.094278574 0.58202648 0.81109208 0.058092896 0
0.015717277 0.062747516 0.092339076 0.98227745 0.18743227 -0.00038265728 0
-0.04529462 0.065202951 0.092431597 -0.98781443 0.15520711 -0.01154818 0
-0.042869978 0.066311471 0.092423633 -0.21543071 0.97649109 0.0073979092 0
-0.037334189 0.066450179 0.092884734 0.054152701 0.99853218 -0.0010006321 0
-0.032063294 0.066220388 0.093058951 0.0095701506 0.99992567 -0.0075460058 0
-0.027431462 0.066170536 0.09265887 0.011095262 0.99993771 -0.0012177047 0
-0.022131426 0.066110238 0.0928014 0.012582107 0.99991715 -0.0027033691 0
-0.01765308 0.066042639 0.092993468 0.01698184 0.99971759 -0.016620353 0
-0.012798574 0.06596031 0.092350394 0.017302874 0.99983734 -0.0050893766 0
-0.0077835969 0.065851763 0.092857286 0.024729412 0.99965942 -0.0083326241 0
-0.0018754599 0.0657188 0.092450179 0.027648527 0.99932158 -0.024331249 0
0.0027963561 0.065574549 0.092836432 0.037461568 0.99929363 -0.0030006664 0
0.0080562644 0.065266818 0.092207275 0.0022034489 0.99967217 0.025506433 0
0.012477449 0.065282002 0.092407137 0.078090116 0.99694598 -0.00079618476 0
-0.045847181 -0.091271527 0.09814541 -0.98386633 -0.17817377 -0.016157821 0
-0.042934529 -0.093165755 0.098046243 -0.22834347 -0.97344595 -0.016194897 0
-0.037361216 -0.093706124 0.097063132 -0.031118993 -0.99950814 -0.0038771734 0
-0.032235667 -0.093769059 0.097187415 -0.020181553 -0.99972624 -0.011837306 0
-0.027614802 -0.093884021 0.09779866 -0.025222974 -0.99964815 -0.0082014063 0
-0.022782935 -0.094041355 0.097464964 -0.031270426 -0.99932843 -0.019101005 0
-0.017919676 -0.094130084 0.096750066 -0.016162805 -0.99970156 -0.018316168 0
-0.01237165 -0.09422417 0.097350724 -0.019323219 -0.99958867 -0.021193417 0
-0.0074279793 -0.094317734 0.097636499 -0.0065688593 -0.99954611 -0.029401137 0
-0.002955317 -0.094372377 0.097541772 -0.018328192 -0.99920058 -0.035528239 0
0.0026414159 -0.09444043 0.097039454 -0.011340966 -0.99910027 -0.040865138 0
0.0074482001 -0.094510727 0.097916715 -0.0087493192 -0.99950397 -0.030253531 0
0.011859961 -0.094485141 0.097578563 0.087633558 -0.99612892 -0.006887929 0
0.015215836 -0.09151087 0.097840771 0.99768823 -0.059282616 0.033222921 0
-0.046129197 -0.087230183 0.09777578 -0.99708742 -0.075078703 -0.013413926 0
0.015316325 -0.087808922 0.097872734 0.99779958 -0.027572561 0.060297959 0
-0.046446409 -0.083142586 0.098100133 -0.99713773 -0.074752636 -0.011333433 0
0.015505319 -0.082314231 0.097305626 0.99671584 -0.018339163 0.078874044 0
-0.046849899 -0.077364311 0.09776409 -0.99775881 -0.066184305 -0.0098538194 0
0.015567166 -0.077119865 0.097644761 0.99592781 -0.0147228 0.088944264 0
-0.047157943 -0.07223022 0.097645551 -0.99849331 -0.05461131 -0.0053688991 0
0.015677126 -0.071898624 0.09740752 0.99508393 -0.017882526 0.097408138 0
-0.04738868 -0.067912042 0.096933708 -0.99845856 -0.055372264 -0.003796312 0
0.015823537 -0.06766516 0.097018331 0.9937185 -0.02993501 0.10783065 0
-0.047681883 -0.062559411 0.097075574 -0.99883181 -0.048272241 0.0021839731 0
0.015849603 -0.063392371 0.097743809 0.99407005 -0.015075614 0.10769165 0
-0.047886059 -0.057688933 0.097899653 -0.99932534 -0.036710598 -0.0010873937 0
0.015931185 -0.057241384 0.097472697 0.99319226 -0.014154389 0.11562365 0
-0.048044842 -0.052984316 0.097725943 -0.99958509 -0.028364796 -0.0050083785 0
0.015948085 -0.052140899 0.097845681 0.99253547 -0.0063505885 0.12179094 0
-0.048184797 -0.047618672 0.097141139 -0.99967331 -0.025535634 0.0011399885 0
0.016107278 -0.047525644 0.097173661 0.99241942 -0.021954758 0.12091988 0
-0.048308108 -0.042612102 0.097633354 -0.99968189 -0.023605593 0.0088791894 0
0.016075442 -0.042425495 0.097782485 0.99109125 -0.010881916 0.1327396 0
-0.048388824 -0.037241399 0.097278334 -0.99990243 -0.0097134784 0.010036466 0
0.016103886 -0.03773718 0.098129585 0.99255311 -0.0036090382 0.12175891 0
-0.048416138 -0.032860935 0.097780377 -0.99992973 -0.0046815653 0.010885603 0
0.016214378 -0.032464314 0.097452663 0.9918679 -0.015003651 0.12638454 0
-0.048432477 -0.027557086 0.09753111 -0.99991935 -0.0013015954 0.012636517 0
0.016282458 -0.027312206 0.097505115 0.99178004 -0.011772645 0.12741153 0
-0.048435412 -0.022831267 0.097212449 -0.99990082 0.001497503 0.01400538 0
0.016355913 -0.02246674 0.097467847 0.99150866 -0.015026025 0.12916979 0
-0.048397027 -0.01707162 0.097464889 -0.99984258 0.0095573412 0.014951026 0
0.016527129 -0.017401574 0.09668117 0.9919787 -0.011653955 0.12586647 0
-0.048350643 -0.011889546 0.096678138 -0.99980599 0.012210012 0.015456165 0
0.016535971 -0.012650547 0.097116359 0.99165934 -0.01557738 0.1279417 0
-0.048279598 -0.0072812135 0.097810157 -0.99983531 0.012386099 0.013263512 0
0.016463177 -0.007717507 0.09821704 0.99183851 -0.012173408 0.12691784 0
-0.048213314 -0.0026069346 0.097852878 -0.99983495 0.014423359 0.011040871 0
0.0166196 -0.0027030942 0.097508334 0.99216515 -0.01238739 0.12431752 0
-0.048134618 0.0023595209 0.097668149 -0.99981976 0.017271476 0.0078793587 0
0.016717896 0.0023422996 0.097513445 0.99185306 -0.019824263 0.12583558 0
-0.048016086 0.0078300992 0.097491838 -0.99977344 0.020679498 0.00504458 0
0.016669463 0.0069753621 0.098015599 0.99183929 0.007201246 0.12729071 0
-0.04792187 0.012237657 0.09763816 -0.99972481 0.02333533 0.0023972848 0
0.016753253 0.012295614 0.09798599 0.99166548 -0.030212482 0.12524673 0
-0.047768362 0.017330687 0.097935282 -0.99922192 0.038512491 0.0085041719 0
0.016868645 0.017477747 0.097535327 0.99344003 -0.006168949 0.1141877 0
-0.047565907 0.022597468 0.097717203 -0.99939317 0.031930622 0.013919647 0
0.016847039 0.02250549 0.097918481 0.9935233 -0.0030612289 0.11358774 0
-0.04737132 0.027890584 0.098013677 -0.99904108 0.043580309 0.0042001209 0
0.01689712 0.027403349 0.097553104 0.99432844 0.0017080148 0.1063399 0
-0.047165778 0.032603148 0.097676605 -0.9989568 0.045253094 0.0061134058 0
0.016840771 0.032504875 0.097815454 0.9950428 0.0079598958 0.099127933 0
-0.046937376 0.036809474 0.097299747 -0.99789065 0.063791066 0.012038465 0
0.016756339 0.037331115 0.098086692 0.99551207 0.016169552 0.093242459 0
-0.046586663 0.04253228 0.097569995 -0.99854887 0.053513587 -0.0060398192 0
0.0167192 0.042365633 0.097539097 0.99657285 0.011456123 0.081922874 0
-0.046334561 0.047503538 0.097842276 -0.99872702 0.050037935 -0.0063637462 0
0.016538285 0.047632933 0.097746238 0.99652529 0.053722296 0.063649267 0
-0.04608731 0.052370492 0.097780041 -0.99854308 0.053894725 -0.0026393591 0
0.016337687 0.051927336 0.097639002 0.99855012 0.033887647 0.041824274 0
-0.045813717 0.057549976 0.09780623 -0.99944955 0.030590011 0.012837919 0
0.016072733 0.057697024 0.097500719 0.99628991 0.071479909 0.047927599 0
-0.045424014 0.062553771 0.097437337 -0.9992879 0.011694407 0.035873849 0
0.014898491 0.064786576 0.097689748 0.64785141 0.76173347 -0.007129055 0
0.015727684 0.061571639 0.097506821 0.99083972 0.13073693 0.033828966 0
-0.045409221 0.065264665 0.09703318 -0.7909869 0.61180252 0.0061218571 0
-0.041911595 0.066376194 0.097859457 -0.1487242 0.98884928 -0.007627333 0
-0.037560865 0.066497125 0.09757024 0.081786327 0.99663484 0.0054739541 0
-0.032607552 0.066228509 0.097438045 0.0080733057 0.99996722 -0.00058987236 0
-0.026978267 0.066170216 0.097696111 0.010694211 0.99994212 -0.0011715835 0
-0.022567455 0.066123046 0.097681805 0.010685683 0.99994212 -0.0012883871 0
-0.016857103 0.066047356 0.097468153 0.016326474 0.99986225 -0.0030030925 0
-0.012643774 0.065972269 0.096978128 0.017709153 0.99983728 -0.0034277169 0
-0.0073619019 0.065871783 0.097096615 0.022688227 0.9997282 -0.0053590559 0
-0.0020576552 0.065748759 0.097844206 0.026848631 0.99963784 -0.0018154079 0
0.0025670484 0.065599114 0.097193472 0.035390187 0.9993614 -0.004934004 0
0.0071264175 0.065367013 0.097173035 0.045817476 0.99894315 -0.0036535743 0
0.011955806 0.065345339 0.097623646 0.063051261 0.99799651 -0.0052381824 0
-0.045797803 -0.09111727 0.10288821 -0.97491181 -0.22118558 -0.024977807 0
-0.043027617 -0.093262412 0.10183449 -0.23150863 -0.9725374 -0.023974039 0
-0.037608303 -0.093722753 0.1025418 -0.039730549 -0.99913597 -0.012198849 0
-0.032101873 -0.093874887 0.10241388 -0.03560039 -0.99878979 -0.033934645 0
-0.027420873 -0.094023049 0.10242178 -0.036162704 -0.99838781 -0.043748897 0
-0.022766134 -0.094171859 0.10206522 -0.016902499 -0.99928015 -0.03396323 0
-0.017402733 -0.094265983 0.10252641 -0.018116394 -0.9993636 -0.030726388 0
-0.012004605 -0.094393484 0.10300916 -0.023526404 -0.99909091 -0.035550546 0
-0.0074797552 -0.094488144 0.10284662 -0.01961153 -0.99927109 -0.032749642 0
-0.0026800525 -0.094545841 0.10273405 -0.0056932122 -0.99898273 -0.044732615 0
0.0023503907 -0.094617359 0.10225003 -0.027753811 -0.99926347 -0.026500069 0
0.0078270799 -0.094667591 0.10251629 0.0017048426 -0.99926603 -0.038267892 0
0.0127844 -0.09415105 0.10294112 0.34799707 -0.93740809 -0.012808826 0
0.015101577 -0.091906905 0.10200591 0.99879467 0.029327352 0.039358296 0
-0.046152163 -0.087885872 0.10275309 -0.99737573 -0.07079678 -0.015147291 0
0.014911328 -0.087488785 0.10431904 0.99810159 -0.0015909326 0.06156848 0
0.015101907 -0.087853052 0.1014901 0.99762839 -0.0086247614 0.068288252 0
-0.04658775 -0.081851006 0.10257082 -0.9974609 -0.070651524 -0.008952016 0
0.014929111 -0.082924567 0.10417022 0.99626219 0.010713069 0.08571405 0
0.015119323 -0.082616203 0.10192431 0.99628961 -0.0016750295 0.086046919 0
-0.046856385 -0.077938825 0.10261653 -0.99782842 -0.06550426 -0.006909071 0
0.014922303 -0.077548385 0.10437261 0.99420726 -0.0069329189 0.10725636 0
0.015221316 -0.077791922 0.10120202 0.99565327 -0.016582744 0.091649361 0
-0.047167283 -0.072727896 0.10264138 -0.99835628 -0.056302138 -0.010714391 0
0.014978237 -0.072755985 0.10450751 0.99437577 -0.0073854295 0.10565112 0
0.01516756 -0.072078139 0.10273756 0.99547648 -0.0061630066 0.094808549 0
-0.047446903 -0.067351751 0.10227858 -0.99867475 -0.050560642 -0.0096086571 0
0.014938563 -0.066183433 0.10476191 0.9937889 0.0060872287 0.11111505 0
0.015245256 -0.067861296 0.10207161 0.99317682 -0.010235222 0.11616761 0
-0.047687698 -0.062251467 0.10222733 -0.99881536 -0.048660424 0.00016714024 0
0.014943182 -0.062980741 0.10493308 0.99121881 -0.019369898 0.13080533 0
0.01531101 -0.062801257 0.10222702 0.99095005 -0.018662989 0.13292786 0
-0.047895078 -0.057495769 0.10289228 -0.9992559 -0.038561933 -0.00078321213 0
0.015344505 -0.05707318 0.10244645 0.99243557 -0.0097703654 0.12237709 0
-0.048050527 -0.052429128 0.10262757 -0.99976319 -0.021406218 0.0039059932 0
0.015415409 -0.052485634 0.10215811 0.99104559 -0.0076503153 0.13330424 0
-0.048162118 -0.047203951 0.10291252 -0.99971938 -0.022848152 0.0062540383 0
0.015399971 -0.047719616 0.10251882 0.99156761 -0.0014284356 0.1295833 0
-0.048268955 -0.042615443 0.10220064 -0.99977034 -0.019771468 0.008264727 0
0.015451901 -0.042155713 0.10235714 0.9909305 -0.01528153 0.13350418 0
-0.048322611 -0.037894052 0.10344549 -0.99990702 -0.010875233 0.0082263984 0
0.015514894 -0.037076503 0.1026482 0.98978496 -0.021836327 0.14088604 0
-0.048356973 -0.032391429 0.1024093 -0.99995106 0.00075746741 0.0098596793 0
0.015556706 -0.032493487 0.10260858 0.9917537 -0.0088179102 0.12785478 0
-0.048363697 -0.02767521 0.10280634 -0.99990582 -0.0026745391 0.013456867 0
0.015643699 -0.02747738 0.10227634 0.99124408 -0.0059023788 0.13191007 0
-0.048372302 -0.022976344 0.1020216 -0.99991393 0.0029827305 0.012774863 0
0.015687745 -0.021896681 0.10258287 0.9912802 -0.018190434 0.1305093 0
-0.048327889 -0.017833056 0.1027424 -0.99985522 0.0095963366 0.01404917 0
0.015722141 -0.017202891 0.10290763 0.99147952 -0.014230914 0.12948306 0
-0.048287418 -0.01272842 0.10179698 -0.99983966 0.011111049 0.014043941 0
0.015884977 -0.012281413 0.10219019 0.99157423 -0.014903728 0.12867963 0
-0.048222203 -0.0074801757 0.10219201 -0.99984574 0.011024232 0.01367175 0
0.015995676 -0.0077282372 0.10186169 0.99160939 -0.015294914 0.12836179 0
-0.048153535 -0.0026454702 0.10303427 -0.9998191 0.012084716 0.014690742 0
0.016028663 -0.002833073 0.10219701 0.99139696 -0.0097038224 0.13052921 0
-0.048103437 0.0021182022 0.1023185 -0.99967569 0.022263944 0.012354996 0
0.016108718 0.0024925044 0.10214867 0.99151444 -0.012512468 0.12939262 0
-0.047984473 0.0074681309 0.10210012 -0.99978077 0.016174328 0.013301142 0
0.016101263 0.0077411956 0.10281125 0.9929207 -0.012851506 0.11808198 0
-0.047892317 0.012110141 0.10250381 -0.99966347 0.021560013 0.014428751 0
0.01623345 0.012689481 0.10227463 0.9921205 -0.034096308 0.1205587 0
-0.047691889 0.017998602 0.10199218 -0.99904484 0.042254187 0.011131233 0
0.016261403 0.017345104 0.10263486 0.99269015 -0.0068978653 0.12049286 0
-0.047539398 0.022460632 0.1026353 -0.99949396 0.031499878 -0.0044417428 0
0.016297253 0.022947798 0.10267091 0.99306726 -0.0059040817 0.11739898 0
-0.047385026 0.027167616 0.10227945 -0.9993186 0.036820274 0.002562511 0
0.016327014 0.028170547 0.10261606 0.99347925 -0.0034073151 0.1139622 0
-0.047142606 0.032764059 0.10237618 -0.99872339 0.050494932 0.0013407805 0
0.016370991 0.032436263 0.10238092 0.9940719 -0.0023758241 0.10869887 0
-0.046869248 0.037649412 0.10285417 -0.99845856 0.05516069 -0.006137161 0
0.01628237 0.037819445 0.10308068 0.99541789 0.0073418301 0.095337711 0
-0.046589922 0.043018285 0.10193434 -0.99868453 0.05018561 -0.010514447 0
0.016263912 0.042341657 0.10292844 0.9960193 0.0023181236 0.089107573 0
-0.04635727 0.047727671 0.10253925 -0.99848568 0.053116459 -0.014317497 0
0.016212171 0.047796577 0.10265005 0.99728572 0.022791082 0.070012324 0
-0.046066891 0.052954871 0.10240956 -0.99842459 0.055700198 -0.0067626843 0
0.016118551 0.052402519 0.10202768 0.99826509 0.030992825 0.050062563 0
-0.04585899 0.056794006 0.10347703 -0.99894351 0.045934584 0.0013834864 0
0.015897008 0.057163499 0.10251806 0.99764681 0.056426141 0.038949303 0
-0.045480844 0.06207183 0.10258357 -0.99440694 0.099283285 -0.03602355 0
0.014748481 0.06487304 0.10279232 0.52142417 0.85037279 0.070590459 0
0.015540868 0.06247459 0.10248531 0.99659461 0.077996194 0.026754593 0
-0.045253307 0.065469243 0.10180216 -0.84680635 0.5305779 -0.037497681 0
-0.042229503 0.066362843 0.10262822 -0.22720775 0.97382939 0.0057442873 0
-0.036998693 0.066318519 0.10298441 0.058191139 0.99830008 0.0032750675 0
-0.032646809 0.066227727 0.10239673 0.0041095004 0.99999124 0.00077278336 0
-0.027252443 0.066179775 0.10228863 0.010566841 0.99994344 -0.0012485909 0
-0.022702279 0.066129558 0.10258809 0.011647291 0.99993193 -0.00071781583 0
-0.01790883 0.066072859 0.10277063 0.012110512 0.99992621 -0.0010240878 0
-0.012509732 0.065986946 0.10293856 0.020688266 0.99978548 -0.0010183991 0
-0.0075110239 0.065872476 0.10284501 0.021917865 0.9997583 -0.0016906182 0
-0.0032254271 0.065783016 0.1022809 0.020556595 0.99978721 -0.001700312 0
0.0025128971 0.065639302 0.10225515 0.031205909 0.99947077 -0.0091864141 0
0.0073298127 0.065366879 0.10287152 0.051688198 0.9984926 -0.018460775 0
0.011920275 0.065378241 0.101804 0.011435304 0.99993336 -0.0015473556 0
0.012740246 -0.095033929 0.10990441 -0.017932629 -0.98534155 -0.16964804 0
-0.045822449 -0.091462113 0.10769795 -0.90630817 -0.42211583 -0.020582687 0
-0.042507954 -0.093463711 0.10736015 -0.18584846 -0.98251885 -0.010819769 0
-0.037499774 -0.093800962 0.10725553 -0.034387812 -0.99935287 -0.010554213 0
-0.033091705 -0.09397129 0.10793819 -0.043411065 -0.99882692 -0.021454297 0
-0.027053405 -0.094165333 0.10715485 -0.023158522 -0.99966788 -0.011302086 0
-0.022593159 -0.094276763 0.10729863 -0.022367427 -0.99962133 -0.016029246 0
-0.017730743 -0.09439458 0.106918 -0.029722011 -0.99905807 -0.03161709 0
-0.01275574 -0.094526805 0.10694528 -0.023339143 -0.99901098 -0.037845824 0
-0.0075295749 -0.09467385 0.10773092 -0.021583335 -0.99878448 -0.044314586 0
-0.0020082612 -0.094749086 0.10682324 -0.018394733 -0.99872899 -0.046924796 0
0.0023771289 -0.094819374 0.10731858 -0.0025715884 -0.99788594 -0.064938933 0
0.0077845277 -0.094887994 0.1077675 -0.0047315913 -0.9992134 -0.039372798 0
0.013462272 -0.093448982 0.10787127 0.75589484 -0.6544556 0.017631585 0
-0.046249092 -0.08753965 0.10765427 -0.99754059 -0.068750873 -0.013640682 0
0.014685847 -0.087038517 0.10731249 0.99633151 0.0040189354 0.085482553 0
-0.046582114 -0.08254125 0.10740019 -0.99793035 -0.063546382 -0.0098470673 0
0.01460078 -0.082447976 0.10775641 0.99579251 0.014263343 0.090520576 0
-0.046922293 -0.077248037 0.10718372 -0.99789578 -0.064689204 -0.0043938528 0
0.014600275 -0.077812605 0.107382 0.99351484 0.0058132261 0.11355364 0
-0.047255185 -0.071859419 0.10713509 -0.99826372 -0.058813486 -0.0032592244 0
0.014640602 -0.072515406 0.1074243 0.9922772 -0.011218583 0.12353154 0
-0.047437187 -0.068214864 0.10740936 -0.99908072 -0.042868275 -0.00013150048 0
0.014573728 -0.067578092 0.10783393 0.99182683 0.006586669 0.12742138 0
-0.047651567 -0.06281542 0.10753426 -0.99927878 -0.037623663 0.0051267236 0
0.014623437 -0.062817112 0.10753939 0.99204183 -0.0080010714 0.12565455 0
-0.047874164 -0.057504762 0.10750001 -0.99903131 -0.042909145 0.0097549632 0
0.014728602 -0.058082025 0.10724343 0.99186504 -0.0091272853 0.12696655 0
0.015017333 -0.05596137 0.1050894 0.99141812 -0.005774213 0.13060118 0
-0.048026748 -0.052661002 0.10744865 -0.99981755 -0.018296765 0.0054802387 0
0.014741444 -0.052732769 0.10752518 0.99426454 -0.0091367383 0.10655699 0
0.015001761 -0.054377902 0.10523719 0.99238551 0.0083610965 0.12288664 0
-0.048132304 -0.047158919 0.10787319 -0.99975747 -0.020952743 0.0067891176 0
0.014726065 -0.047455985 0.10825863 0.99728346 0.01472012 0.072173893 0
0.015025738 -0.047184598 0.10544213 0.99207258 0.0024411713 0.12564296 0
-0.048231401 -0.042517029 0.10701106 -0.99982262 -0.016723737 0.0086688921 0
0.014652945 -0.042689189 0.1087729 0.99353403 0.0029565445 0.11349633 0
0.015038401 -0.042874891 0.10560714 0.99263126 -0.00067132741 0.12117242 0
-0.048304122 -0.037119377 0.10738673 -0.99988306 -0.013858179 0.0064627393 0
0.014735018 -0.037806302 0.10870027 0.99497199 -0.024244029 0.097174793 0
0.015099552 -0.037006386 0.10565918 0.99245191 0.00023409384 0.12263424 0
-0.048328649 -0.032491066 0.1077774 -0.99989426 -0.00078824372 0.014521988 0
0.014753667 -0.032317214 0.10856248 0.99275136 -0.0089796968 0.11985008 0
0.01512171 -0.031729393 0.10600173 0.98993522 -0.0094352784 0.14120677 0
-0.048314791 -0.02763127 0.10730378 -0.99994016 0.0014857217 0.010838852 0
0.014803625 -0.027424254 0.10874962 0.9913168 -0.011053511 0.1310298 0
0.015119911 -0.02738566 0.10630056 0.99094677 -0.012340013 0.13368703 0
-0.04829178 -0.022374749 0.10777245 -0.99988335 0.0072743469 0.013430083 0
0.014861689 -0.02400011 0.10845469 0.99083942 -0.017800726 0.13386735 0
0.01514574 -0.022330377 0.10660757 0.99090046 -0.02442872 0.13236085 0
-0.048263516 -0.017924139 0.10730463 -0.9998582 0.0084672906 0.014558708 0
0.014869015 -0.017539693 0.10935432 0.99131995 -0.01479452 0.13063575 0
0.01534355 -0.016393069 0.10589676 0.99136037 -0.01520379 0.13028219 0
-0.048212238 -0.012440613 0.1068689 -0.99983341 0.011356751 0.014284792 0
0.014950159 -0.012037796 0.10948295 0.99239576 -0.02366535 0.1207919 0
0.015279945 -0.01243057 0.10682844 0.99190319 -0.014908375 0.12611786 0
-0.048160937 -0.0078480905 0.10709896 -0.99986178 0.009655511 0.013539388 0
0.015250825 -0.0074162176 0.10764887 0.9925772 -0.018615406 0.12018366 0
-0.048091155 -0.0024019985 0.1075293 -0.99982548 0.015532949 0.010384853 0
0.01530403 -0.0023014825 0.1076433 0.9928419 -0.0091082882 0.11908827 0
-0.048018042 0.0022733463 0.10752804 -0.99992353 0.011612931 0.0042439541 0
0.015501794 0.0027573637 0.10698757 0.99222094 -0.024197435 0.12211575 0
-0.047962993 0.0067425147 0.10765365 -0.99983788 0.01763623 0.003627036 0
0.015528515 0.0078242039 0.10745085 0.99188691 -0.018746123 0.12573321 0
-0.047835965 0.012304153 0.10753396 -0.99968147 0.02485951 0.0043499763 0
0.015608906 0.012859527 0.10740892 0.99291229 -0.012578725 0.11818244 0
-0.047703255 0.017324649 0.1076456 -0.99963671 0.026696809 0.0036934107 0
0.015716188 0.017909942 0.10715102 0.99247301 -0.01077352 0.12198867 0
-0.04752773 0.022974748 0.10729716 -0.99934328 0.036131363 0.0027419 0
0.015740821 0.022443296 0.10725582 0.99270803 -0.0087832604 0.12022338 0
-0.047369037 0.027130017 0.10780341 -0.99921048 0.03954044 0.0038890622 0
0.015814411 0.027199766 0.1070233 0.99322671 -0.0068943533 0.11598733 0
-0.047168542 0.031976674 0.10717534 -0.99897552 0.044947233 0.0052542724 0
0.015836544 0.032191571 0.10712102 0.99366623 -0.00897888 0.11201239 0
-0.0469101 0.037178438 0.10770981 -0.99855316 0.053660024 -0.0035039659 0
0.015813813 0.037274204 0.10761786 0.99497324 0.0043250867 0.10004746 0
-0.046659458 0.042370334 0.10744474 -0.99892759 0.046242919 -0.0022776383 0
0.015805887 0.04256383 0.10746214 0.99489415 -0.0024960188 0.10089356 0
-0.046436567 0.04701234 0.10770708 -0.99878091 0.047857884 0.012093622 0
0.015784016 0.047600761 0.10782614 0.9955579 -0.008311511 0.093783684 0
-0.046136346 0.052226376 0.10739786 -0.99804479 0.062496662 0.00077684649 0
0.015774334 0.052590188 0.10770741 0.99734437 0.01631033 0.070979983 0
-0.045850333 0.057203334 0.10770644 -0.99827921 0.058146611 -0.0075880159 0
0.015692433 0.057129741 0.10721566 0.99812621 0.033827253 0.050987899 0
-0.045579489 0.062627397 0.1077027 -0.99956238 0.011552615 -0.027231174 0
0.015460148 0.062126841 0.10742951 0.9985652 0.04927361 0.020969275 0
-0.045377437 0.065636314 0.10784289 -0.88012177 0.47321409 -0.038132712 0
-0.042806152 0.066335566 0.10767526 -0.13885055 0.99029261 -0.0064032483 0
-0.038124975 0.066515267 0.1073139 0.026081925 0.99961936 0.0089930193 0
-0.032532815 0.06622003 0.10749047 0.0072809695 0.99997026 0.0025482755 0
-0.028046247 0.066182055 0.10792341 0.0083053634 0.99996197 0.0026648506 0
-0.022175087 0.066128619 0.1075808 0.010893637 0.99994022 -0.00085171539 0
-0.016902927 0.066067502 0.10730563 0.012133982 0.99992478 -0.0017704205 0
-0.012323409 0.065996453 0.10805577 0.018876499 0.99982005 -0.0019100762 0
-0.0068571568 0.06587816 0.10749334 0.019723017 0.99979305 -0.0049901539 0
-0.0025328971 0.06579452 0.10740637 0.020238783 0.99978876 -0.0035885898 0
0.0022613457 0.065677859 0.10739014 0.02953374 0.99956048 -0.0025456944 0
0.0079203369 0.065376773 0.10817216 0.062470634 0.99804044 -0.0035586951 0
0.012465974 0.065358475 0.10799532 0.066481821 0.99771202 -0.012284371 0
-0.005248785 -0.095053136 0.11454871 -0.032225158 -0.99828333 -0.048908457 0
-0.0019748388 -0.095085785 0.11328258 -0.026507193 -0.99815577 -0.054611653 0
0.0030837525 -0.095142543 0.11255521 -0.012220138 -0.99816775 -0.059260711 0
0.0079311598 -0.095158845 0.11242855 -0.0020921677 -0.99610108 -0.088194564 0
0.011216099 -0.095355928 0.11243543 -0.093054228 -0.9864583 -0.13505891 0
-0.045787252 -0.091756634 0.11162557 -0.80478686 -0.5935632 -0.00090972753 0
-0.042514414 -0.09347707 0.11253768 -0.26430041 -0.96429843 -0.016546607 0
-0.037665259 -0.093883559 0.11264272 -0.046885807 -0.99853545 -0.026994228 0
-0.032501515 -0.094067559 0.11246536 -0.030855017 -0.99935341 -0.018456336 0
-0.027014963 -0.094281614 0.11303559 -0.040162999 -0.99883717 -0.026670514 0
-0.022535706 -0.09442205 0.11226346 -0.033890028 -0.99893332 -0.031364333 0
-0.017421236 -0.094598807 0.11254601 -0.032366466 -0.99890023 -0.033919755 0
-0.012516418 -0.094749317 0.11251636 -0.029090343 -0.99871361 -0.041531757 0
-0.0079200706 -0.094858192 0.11204717 -0.026971927 -0.99868953 -0.043492965 0
-0.0033713784 -0.094925426 0.11107764 -0.025525341 -0.99804097 -0.057120677 0
0.0062390831 -0.094981238 0.11011292 0.017140074 -0.99673122 -0.078950047 0
0.013882146 -0.092935003 0.11271264 0.95013791 -0.30324656 0.072660685 0
-0.046300918 -0.087777525 0.11273222 -0.99787992 -0.063756317 -0.013068529 0
0.014144796 -0.087039314 0.11250724 0.99355757 0.017187152 0.11201802 0
-0.046610892 -0.0829354 0.11238653 -0.99792606 -0.063454717 -0.010821601 0
0.014118597 -0.082813643 0.11244922 0.99306697 0.0060713999 0.11739369 0
-0.046939019 -0.077627383 0.1124001 -0.99814737 -0.060249761 -0.0084653217 0
0.014024613 -0.078299344 0.11269304 0.99429739 0.007243719 0.10639648 0
-0.047248755 -0.072057575 0.11184113 -0.99871665 -0.050614875 -0.0017918836 0
0.014033503 -0.072742037 0.11243289 0.9929496 -0.00070924498 0.11853537 0
-0.047462858 -0.067439817 0.11196329 -0.9990738 -0.042970318 0.0022383407 0
0.01402138 -0.067558035 0.1122934 0.99344647 0.0078424811 0.114029 0
-0.047646552 -0.062826611 0.11253136 -0.99933845 -0.036350172 -0.0011462207 0
0.01398551 -0.062052712 0.11261001 0.99229324 -0.0067134397 0.12372968 0
-0.047826629 -0.057602003 0.11248878 -0.99940902 -0.034314271 0.0020333692 0
0.014100756 -0.057338376 0.11215706 0.98995572 -0.019838499 0.13997917 0
-0.047974989 -0.052605703 0.11221138 -0.99967736 -0.024238046 0.0076014036 0
0.014094621 -0.05275213 0.11266132 0.98581696 -0.0029358577 0.16779843 0
-0.048082553 -0.047862891 0.11205771 -0.99977493 -0.019042857 0.009356223 0
0.014113795 -0.047383208 0.11269721 0.9871791 -0.015835281 0.158829 0
-0.048183527 -0.042255089 0.11246408 -0.99978536 -0.01764551 0.010856996 0
0.014203968 -0.042081557 0.11245043 0.9938677 0.0010656244 0.11057041 0
-0.048230462 -0.037853442 0.11312326 -0.99981761 -0.0033425943 0.018807439 0
0.014323536 -0.037417281 0.112229 0.99437994 -0.0069985688 0.105639 0
-0.048249912 -0.032360539 0.11248524 -0.99989182 0.00068906503 0.014694036 0
0.01430887 -0.03233695 0.11267276 0.9924379 -0.0070444057 0.12254525 0
-0.048259903 -0.027342724 0.11252775 -0.99995691 -0.0021377543 0.0090319123 0
0.014338738 -0.027507771 0.11284989 0.99191934 -0.0078884223 0.12662448 0
-0.048236102 -0.022491993 0.11232725 -0.99988192 0.0090028085 0.012452279 0
0.014381161 -0.022832789 0.11270808 0.99657124 -0.010168186 0.082112052 0
-0.048177205 -0.017164346 0.11285498 -0.99983454 0.010348153 0.014958283 0
0.014483382 -0.017874952 0.11254194 0.99519229 -0.0070332396 0.097687975 0
-0.048122641 -0.01201932 0.11271178 -0.99982643 0.011436765 0.01470969 0
0.014629012 -0.012184477 0.11206657 0.99425447 -0.01845219 0.10543887 0
-0.048078623 -0.0072893347 0.11251891 -0.99985969 0.0083464719 0.014523324 0
0.014693987 -0.0074307634 0.11286873 0.99511081 -0.015308201 0.09757068 0
-0.04803963 -0.0022056447 0.11214902 -0.99985725 0.010739964 0.013038763 0
0.014715823 -0.0027712029 0.11303745 0.99563169 -0.023759075 0.090294801 0
0.015034265 -0.00095796678 0.11013635 0.99376303 -0.019644206 0.10976894 0
-0.047983889 0.0017939938 0.11279636 -0.99985027 0.012927129 0.011505208 0
0.014789331 0.0022047863 0.11303596 0.99415833 0.00063982455 0.10793009 0
0.015068022 0.0030997274 0.11064883 0.99264205 -0.016790679 0.11991589 0
-0.04790163 0.0077649043 0.11266238 -0.99978644 0.017894244 0.010332201 0
0.014856746 0.0078243408 0.11315973 0.99397248 -0.017898854 0.10815857 0
0.015066762 0.0072105736 0.11116006 0.99350166 -0.015400105 0.11277088 0
-0.04781187 0.012218577 0.11203013 -0.99970847 0.023262287 0.0064713717 0
0.014869471 0.012654326 0.11366578 0.99480951 -0.0087973187 0.10137285 0
0.015116438 0.012222838 0.11128245 0.99411321 -0.0090725869 0.10796548 0
-0.047677375 0.01778616 0.11294197 -0.99969411 0.024653738 0.0019190462 0
0.014891311 0.017301632 0.1139114 0.99486852 -0.014393931 0.10014729 0
0.015160698 0.017323911 0.1116152 0.991418 -0.024864208 0.12834355 0
-0.04753546 0.022315852 0.11267445 -0.99930781 0.036979549 0.0040383474 0
0.014916066 0.022451656 0.11429371 0.99710518 -0.014050463 0.074725434 0
0.015150937 0.022215851 0.11202611 0.9928987 -0.0076287384 0.11871741 0
-0.047346104 0.02749902 0.11265894 -0.99925727 0.03853536 -0.00014382407 0
0.014954319 0.02625517 0.11478405 0.99587119 -0.040152855 0.081414707 0
0.015207413 0.027851772 0.11247069 0.99393654 -0.011896827 0.10930915 0
-0.047150847 0.032292869 0.1133882 -0.99909455 0.042531423 -0.00109224 0
0.015278573 0.032532245 0.11216833 0.99479336 -0.011095529 0.10130708 0
-0.046933487 0.037168894 0.11221077 -0.99893373 0.046029154 -0.0035651675 0
0.015337936 0.037293211 0.11235489 0.99570233 -0.015315097 0.091336668 0
-0.046676274 0.042481702 0.11281519 -0.99871063 0.050614227 -0.0038964727 0
0.015375461 0.042738464 0.11255227 0.99692684 -0.0059023718 0.078115143 0
-0.046413988 0.047274165 0.11199208 -0.99849558 0.054500625 -0.0060265553 0
0.015397822 0.047621943 0.11246675 0.99729568 -0.0044163493 0.073361188 0
-0.046149649 0.052297212 0.11277858 -0.99863225 0.051856622 -0.006671431 0
0.015430746 0.052582156 0.11250702 0.99776053 0.0027865248 0.06682986 0
-0.045865599 0.057631273 0.11246636 -0.99848276 0.054736387 -0.0059992429 0
0.0153988 0.0576558 0.11221914 0.99836206 0.013275201 0.055650055 0
-0.04569976 0.062014692 0.11262172 -0.99947608 0.02592282 -0.019380838 0
0.014688772 0.064807527 0.11338004 0.7704621 0.63555562 -0.049570456 0
0.015334927 0.062384132 0.11211252 0.99702823 0.07514932 0.016948724 0
-0.045422487 0.065465845 0.11336102 -0.85260785 0.52215064 0.020457717 0
-0.042529806 0.06636402 0.11281951 -0.11924127 0.99286431 -0.0014326631 0
-0.038290471 0.066523597 0.11290278 -0.078858726 0.99688327 0.0022286389 0
-0.032656197 0.066204593 0.11225875 0.0065072039 0.99997193 0.003714368 0
-0.02761686 0.066164009 0.11322828 0.0080850637 0.9999637 0.0027016762 0
-0.022242526 0.066125169 0.11173239 0.0082927337 0.9999631 0.0022291422 0
-0.017914783 0.066085003 0.1122577 0.010888111 0.99994075 3.0744548e-05 0
-0.012294224 0.066001385 0.11283443 0.017258137 0.99985075 -0.00088146428 0
-0.0075898236 0.065915182 0.11234993 0.018980199 0.99981534 -0.0030078392 0
-0.0023579616 0.065797515 0.11192758 0.024417128 0.99970174 -0.0005136882 0
0.0020420866 0.065683506 0.11215189 0.026199022 0.99965638 0.00087595993 0
0.0074339225 0.065407284 0.11210389 0.069522507 0.99757487 -0.0033231974 0
0.013061046 0.065351635 0.11265949 0.1197236 0.99277079 -0.008513147 0
-0.010608465 -0.095084794 0.11814743 -0.025376143 -0.9980033 -0.057840593 0
-0.0079763876 -0.095111564 0.11725205 -0.026862977 -0.99826151 -0.052462086 0
-0.0029648927 -0.095309347 0.11822606 -0.033677194 -0.9981572 -0.050478887 0
0.0025371823 -0.095492765 0.11832998 -0.026686659 -0.99786305 -0.059642669 0
0.0073543773 -0.095598318 0.11768493 -0.046970721 -0.99569881 -0.079859689 0
0.011349228 -0.095687866 0.1173478 0.14823538 -0.98797804 -0.043883417 0
-0.045863364 -0.091388106 0.11769602 -0.87635845 -0.48152709 -0.011290327 0
-0.042459171 -0.093639106 0.11791972 -0.22175613 -0.97505301 -0.0097872792 0
-0.037737995 -0.09393876 0.11805892 -0.025488872 -0.99966884 -0.0035340153 0
-0.03168219 -0.094177693 0.11765364 -0.048750531 -0.99871206 -0.014059192 0
-0.027387798 -0.094370864 0.11731955 -0.042358149 -0.99888611 -0.020794779 0
-0.022061586 -0.09460108 0.11804478 -0.038907327 -0.99901009 -0.021563178 0
-0.017518587 -0.094747134 0.11719424 -0.037510604 -0.99881929 -0.030872082 0
-0.012961757 -0.094897784 0.11618342 -0.037592523 -0.99834257 -0.043576699 0
-0.0099222884 -0.094945297 0.11503235 -0.031093495 -0.99811703 -0.052873924 0
0.013695623 -0.092084996 0.11744572 0.99028295 -0.092429966 0.1039049 0
-0.046369109 -0.087753907 0.11739934 -0.99806708 -0.060746811 -0.013112074 0
0.013618359 -0.087046199 0.11718635 0.99352568 0.024480969 0.11093854 0
-0.046696555 -0.082362257 0.1176713 -0.99825376 -0.058371723 -0.0090621533 0
0.013485288 -0.08234749 0.11764479 0.99260217 0.0032184706 0.12136903 0
-0.046913259 -0.078728266 0.11808842 -0.9980588 -0.062119141 -0.0044576735 0
0.013484969 -0.078067563 0.11742812 0.99388015 0.0093105929 0.11007075 0
-0.047248181 -0.072313778 0.1175563 -0.99924833 -0.037899494 -0.0081446413 0
0.013441656 -0.072666764 0.11731365 0.99318445 0.0038188738 0.11649035 0
-0.047430936 -0.067912154 0.11770861 -0.99908382 -0.04259802 -0.0041104616 0
0.013354593 -0.068105817 0.1182171 0.99425489 0.00031653701 0.10703826 0
-0.047663376 -0.062229246 0.11749912 -0.99936843 -0.03539037 0.0032019797 0
0.013410933 -0.062512949 0.11771327 0.99481082 0.0040661744 0.1016603 0
-0.047819458 -0.057387952 0.11750644 -0.99950814 -0.0310243 0.0045915614 0
0.013452972 -0.057595126 0.11735921 0.99322069 -0.0026684147 0.11621351 0
-0.047944106 -0.052782021 0.1168032 -0.99975026 -0.020587467 0.0086956015 0
0.013495496 -0.052414492 0.1175674 0.99470448 -0.0096818628 0.10231926 0
-0.048029948 -0.047332909 0.11782128 -0.99978697 -0.017532302 0.010889118 0
0.013568711 -0.047605846 0.11710875 0.99511415 -0.0068269493 0.098493956 0
-0.048107535 -0.042716533 0.11724793 -0.99972212 -0.014842972 0.018315347 0
0.013577079 -0.042756472 0.11737536 0.99446493 -0.0077366466 0.10478411 0
-0.04815786 -0.037496898 0.11791509 -0.99989146 -0.0074540731 0.012705656 0
0.013657528 -0.03794916 0.1170811 0.99371201 -0.0092944903 0.11158012 0
-0.048181776 -0.03293588 0.11750466 -0.99991435 -0.0027144996 0.01280025 0
0.013604052 -0.03184101 0.117676 0.99319977 -0.0057868562 0.11627815 0
-0.048196893 -0.027531235 0.11730793 -0.99987322 0.0019652497 0.015801188 0
0.013784181 -0.0275879 0.11717945 0.99229777 -0.025767282 0.12116605 0
-0.0481571 -0.022259248 0.11751431 -0.99982339 0.0099690221 0.015926644 0
0.013824038 -0.022739766 0.11734991 0.98910087 -0.022644099 0.14548813 0
-0.048110824 -0.017343841 0.11727696 -0.9998222 0.010527747 0.015644254 0
0.013945906 -0.017363613 0.11739009 0.99245471 -0.010242236 0.12218317 0
-0.048056614 -0.012625013 0.11750238 -0.99981898 0.010643255 0.01576988 0
0.014050413 -0.012482529 0.11707121 0.99068499 -0.020405799 0.1346359 0
-0.048003264 -0.0074800425 0.11793244 -0.99987304 0.0077090873 0.013946148 0
0.014090696 -0.0072003589 0.11759908 0.99286437 -0.025967492 0.11638697 0
-0.047975708 -0.0022867301 0.11689456 -0.99986589 0.0085439328 0.013974376 0
0.014167309 -0.0023681934 0.11784956 0.99178708 -0.028053196 0.12478474 0
-0.047916699 0.0026177594 0.11747841 -0.99985176 0.012090728 0.012258619 0
0.014372672 0.0032186974 0.11723946 0.99476874 -0.0081229499 0.10182964 0
-0.047847386 0.007527343 0.11798964 -0.99983853 0.014497583 0.010624908 0
0.014413118 0.0080436934 0.11799486 0.99242449 -0.019688979 0.12126797 0
-0.047762532 0.012316748 0.11823472 -0.99975634 0.019789798 0.0097834608 0
0.01454578 0.012088851 0.11723439 0.99623948 -0.012899826 0.085676171 0
-0.047661394 0.017348526 0.11802839 -0.9997108 0.022094786 0.0094951577 0
0.014562476 0.017581116 0.1173913 0.99527705 -0.011097998 0.096438631 0
-0.047500875 0.022660252 0.11742353 -0.99939507 0.034475539 0.0045778519 0
0.014646085 0.022411183 0.11730786 0.99473161 -0.0096434467 0.10205892 0
-0.047327094 0.027888553 0.11748295 -0.99942464 0.033875495 0.0017306253 0
0.01470307 0.027516348 0.11709826 0.99430031 -0.01119648 0.10602556 0
-0.047134005 0.032742113 0.1173801 -0.99903601 0.043884762 -0.0011479263 0
0.014735758 0.032151829 0.11755121 0.99514788 -0.025478674 0.095033929 0
0.015006451 0.034646407 0.11542598 0.99662328 -0.045645632 0.068254285 0
-0.046926521 0.037416972 0.11731014 -0.99893177 0.046204448 -0.00071398629 0
0.014761084 0.037889108 0.11830858 0.99567741 -0.0063314377 0.092662975 0
0.01508646 0.037868228 0.11546949 0.99642771 -0.0015099448 0.084437318 0
-0.046676554 0.042640842 0.1174088 -0.99880314 0.048871256 -0.0019863807 0
0.014825309 0.04236304 0.11826731 0.99568915 -0.025719797 0.0891155 0
0.015057656 0.041614927 0.11587723 0.99433386 -0.017684802 0.10482122 0
-0.04644775 0.047243319 0.117473 -0.99847364 0.053965174 -0.011748909 0
0.01492367 0.047177844 0.11874196 0.99616975 -0.025263803 0.08371067 0
0.015117669 0.047401067 0.11643819 0.99693739 -0.019661423 0.07569214 0
-0.046174787 0.052476745 0.11792273 -0.99864084 0.051668227 -0.0068416777 0
0.01495634 0.052741136 0.11967814 0.99725717 -0.020972414 0.070981875 0
0.015117847 0.052674428 0.11734352 0.99747318 -0.011419092 0.070119821 0
-0.04589133 0.057849087 0.1168071 -0.99852884 0.053054217 -0.011199896 0
0.015144977 0.057380557 0.11777767 0.99880594 -0.0086674159 0.048078567 0
-0.045699839 0.062535673 0.11730796 -0.99526995 0.097013749 0.0051000486 0
0.014777564 0.06487152 0.11884271 0.86231536 0.50635177 -0.0044890097 0
0.015231187 0.061977513 0.11738148 0.9994756 0.019536579 0.025820903 0
-0.045376413 0.06544847 0.11691668 -0.91855514 0.39396194 0.032410774 0
-0.04219532 0.066396616 0.11752384 -0.11673716 0.99312198 -0.0090062683 0
-0.037008561 0.066350773 0.11726282 0.091602676 0.99579424 0.001660402 0
-0.032175183 0.066189975 0.11684147 0.0060866708 0.99998152 -1.1264776e-05 0
-0.028025338 0.066162504 0.11790857 0.0076475274 0.99997067 -0.000330015 0
-0.022574864 0.066121027 0.11688814 0.0074875727 0.99997193 -0.00025794684 0
-0.01731318 0.066071294 0.11791917 0.012286681 0.9999212 0.0025549801 0
-0.012480448 0.066006169 0.11764885 0.01488046 0.99988854 0.0012014743 0
-0.0079207076 0.065930627 0.11714341 0.017709225 0.99984217 -0.001434583 0
-0.0026416823 0.06582056 0.11724603 0.025077736 0.99966729 -0.0060419315 0
0.0026569716 0.065689161 0.11774475 0.025517242 0.99965036 -0.00693426 0
0.0069947294 0.065473452 0.11748728 0.087695152 0.99613726 -0.0044898256 0
0.012519332 0.065424807 0.11714792 0.055132505 0.99841553 -0.011261548 0
-0.012511777 -0.095130943 0.12275288 -0.062467471 -0.99776971 -0.023526598 0
-0.0070605101 -0.095349856 0.12254237 -0.026573658 -0.99915868 -0.031238452 0
-0.0020611 -0.095523149 0.12210594 -0.038090397 -0.99833852 -0.043235663 0
0.002392814 -0.095719136 0.12281551 -0.037971389 -0.99806345 -0.049269456 0
0.0073754597 -0.095959313 0.12307763 -0.046249125 -0.99756181 -0.052263342 0
0.011556977 -0.095876336 0.12241203 0.25693914 -0.96560866 -0.039776295 0
-0.046065461 -0.091705821 0.12265631 -0.96122265 -0.27551135 -0.01203078 0
-0.042955145 -0.093607537 0.12267183 -0.26782414 -0.96342021 -0.0095790783 0
-0.037415914 -0.094043858 0.12229913 -0.051012803 -0.99847674 -0.021022711 0
-0.032662511 -0.094205193 0.12266806 -0.033760935 -0.99900299 -0.029208981 0
-0.027258079 -0.094452024 0.12217493 -0.046855036 -0.99881428 -0.0132144 0
-0.022574602 -0.09467034 0.12278455 -0.041733537 -0.99899828 -0.016150726 0
-0.017420718 -0.094893984 0.12273338 -0.043316882 -0.99876618 -0.024284653 0
-0.014553592 -0.094959721 0.12095378 -0.044825431 -0.9988541 -0.016769135 0
0.013165437 -0.092821561 0.122486 0.99685615 -0.053300261 0.058625292 0
-0.046438113 -0.087622076 0.1227417 -0.9983409 -0.056065984 -0.013111851 0
0.013064387 -0.087866999 0.12264702 0.99699229 -0.0064517721 0.077232324 0
-0.046747051 -0.082326323 0.12275538 -0.99831641 -0.057109777 -0.010139069 0
0.013069662 -0.082733043 0.12224565 0.99835175 0.0099412818 0.056523077 0
-0.047008652 -0.077221267 0.12281185 -0.99888343 -0.047209501 -0.0018023747 0
0.013003642 -0.077478632 0.12223423 0.9972176 0.0080691436 0.074107796 0
-0.047240604 -0.072730742 0.12276007 -0.99888176 -0.045948464 0.011129037 0
0.012915154 -0.072817825 0.1231963 0.99880457 -0.00048764283 0.048880406 0
-0.04748242 -0.067017108 0.12223493 -0.99942499 -0.033906542 -0.00020186523 0
0.012983966 -0.067455105 0.12256245 0.99822211 -0.002858246 0.059536278 0
-0.047622629 -0.062770337 0.12229609 -0.99928653 -0.036382481 0.010136122 0
0.012983358 -0.06240074 0.12255734 0.99783289 -0.0045816302 0.065638877 0
-0.04778805 -0.05721933 0.12230539 -0.99945062 -0.030120429 0.013826098 0
0.012982667 -0.057760254 0.12275371 0.99780178 -0.0031503625 0.06619513 0
-0.047883071 -0.05274947 0.12274432 -0.99982697 -0.015907275 0.0096399207 0
0.013059414 -0.052418035 0.12223223 0.9967134 -0.0063370764 0.080760449 0
-0.047980454 -0.047432419 0.12233153 -0.99965513 -0.024674525 0.0089818686 0
0.01304129 -0.047536373 0.12264355 0.99970186 -0.024063859 -0.0041439701 0
-0.048039805 -0.042950634 0.12232184 -0.99998266 -0.0057589244 -0.0012616673 0
0.013071883 -0.04269328 0.12266639 0.99768108 0.006629149 0.067738727 0
-0.048098251 -0.037976567 0.12224162 -0.99985307 -0.011829672 0.012406236 0
0.013057713 -0.037552748 0.12246536 0.99708807 -0.006783491 0.075956255 0
-0.048146058 -0.03296202 0.12217861 -0.99992651 -0.0043096351 0.011335036 0
0.013149776 -0.032803435 0.12213404 0.99781936 0.0016164189 0.065983653 0
-0.048121352 -0.027387138 0.12226532 -0.999883 0.0090373084 0.01234271 0
0.013206314 -0.027467109 0.12250354 0.99594599 -0.018608477 0.088006906 0
-0.048084646 -0.022929691 0.12238897 -0.99981332 0.0095063075 0.016826639 0
0.013335401 -0.021868827 0.12206583 0.99543673 -0.026549397 0.091656528 0
-0.048030253 -0.017546812 0.12242015 -0.99981117 0.010598529 0.016282078 0
0.013370849 -0.017028244 0.12294365 0.99564046 -0.025800586 0.089634605 0
-0.047978923 -0.012677327 0.12241906 -0.99983281 0.0093894619 0.015688621 0
0.013501222 -0.012190945 0.12265373 0.99698937 -0.018063784 0.075404249 0
-0.047934648 -0.0074636359 0.12276989 -0.99987 0.0068174549 0.014612238 0
0.01362766 -0.0073881508 0.12228028 0.99541271 -0.018095165 0.093948103 0
-0.047901794 -0.002580442 0.12233467 -0.99985516 0.0090562627 0.014409328 0
0.013672739 -0.0020116535 0.1228558 0.99603552 -0.046467446 0.075855449 0
-0.047853392 0.0027324783 0.122293 -0.99985486 0.0097133797 0.014000764 0
0.013858247 0.0024533756 0.1218771 0.99581701 -0.028171329 0.086918034 0
-0.047800351 0.0074527864 0.12245414 -0.99986124 0.012954647 0.010473312 0
0.013927671 0.0072428612 0.12240507 0.99677199 -0.023710145 0.076703213 0
-0.047721837 0.012256684 0.12239524 -0.9997974 0.018280171 0.0084305787 0
0.014028303 0.012562986 0.12228865 0.99657327 -0.019336853 0.080422394 0
-0.047628526 0.016972587 0.12240732 -0.99975419 0.021336205 0.0060347612 0
0.014056261 0.017765412 0.12291893 0.99617481 -0.041245073 0.077036954 0
-0.047502831 0.021906594 0.12254275 -0.99955511 0.029406786 0.0049706185 0
0.014191707 0.022164561 0.12224323 0.99716151 -0.02317984 0.071635775 0
-0.047315303 0.027987866 0.12258914 -0.99956495 0.029459208 0.0014146956 0
0.014184736 0.027083959 0.12312259 0.99706703 -0.016037367 0.074834153 0
-0.047130425 0.033050362 0.12203581 -0.99900007 0.044679295 -0.0015967179 0
0.014384593 0.032868851 0.12252504 0.99774265 -0.034094471 0.057854176 0
-0.046929397 0.037563242 0.12239905 -0.99913424 0.041523807 -0.0025421542 0
0.014435006 0.037829325 0.1229598 0.99823141 -0.019152975 0.056277346 0
-0.046706196 0.042815875 0.12254124 -0.99895275 0.045130312 -0.0075213537 0
0.014604492 0.042227555 0.12169085 0.99836034 -0.02054872 0.053425696 0
-0.046497684 0.047290504 0.12221939 -0.99887532 0.047068737 -0.0057074437 0
0.014685702 0.047029857 0.12219 0.99813449 -0.018993344 0.058024365 0
-0.04621534 0.052484449 0.12310196 -0.99877375 0.049257584 -0.0049587903 0
0.014762999 0.052364774 0.12261469 0.99813962 -0.026598716 0.054862417 0
-0.045957416 0.057749372 0.12260196 -0.99885249 0.046927974 -0.0095656207 0
0.014907521 0.057203356 0.1227352 0.99884295 -0.032540888 0.035410363 0
0.015006645 0.056550555 0.12033454 0.99822235 -0.043712143 0.040514689 0
-0.045739181 0.06215306 0.1224021 -0.99683988 0.077410288 -0.017831085 0
0.014902375 0.062926508 0.12346866 0.98538589 0.16685368 0.034270026 0
0.0150761 0.062286578 0.12197882 0.99892175 -0.0087094428 0.045600861 0
-0.045212042 0.065433882 0.12324468 -0.83581448 0.54686755 -0.048476066 0
-0.042206731 0.066409133 0.1221901 -0.079122037 0.99685448 0.0045565586 0
-0.037659466 0.066395186 0.12235518 0.20401241 0.97889584 -0.011909714 0
-0.032475509 0.066203363 0.12213279 0.003423728 0.99995345 -0.0090180766 0
-0.027600983 0.066178508 0.12238683 0.0067798784 0.99991286 -0.011332841 0
-0.022946307 0.066154189 0.12291615 0.0095645729 0.99985075 -0.014385378 0
-0.016966177 0.066072725 0.12279093 0.014747539 0.99985516 -0.0085005499 0
-0.012341135 0.066005975 0.12262578 0.013526553 0.99987918 -0.0076529654 0
-0.0078753894 0.065940648 0.12220497 0.016076857 0.9998486 -0.0066585308 0
-0.0026344506 0.06584233 0.1224473 0.020820893 0.99977589 -0.0038269844 0
0.0026255057 0.065712355 0.12244549 0.026181793 0.99965721 4.4838856e-05 0
0.0077335709 0.065469064 0.12260864 0.0037181801 0.99998921 0.002775705 0
0.012049197 0.065472171 0.12243848 0.030706519 0.99943447 -0.013706259 0
-0.016096372 -0.095070511 0.12794103 -0.049486496 -0.99873471 -0.0089441435 0
-0.01261539 -0.095230535 0.12792699 -0.044136509 -0.99891973 -0.014539956 0
-0.0077574872 -0.095439173 0.12785357 -0.042523798 -0.99903166 -0.011294924 0
-0.0022031132 -0.095719866 0.12818339 -0.04894485 -0.99861306 -0.019400602 0
0.0032248064 -0.095958419 0.12762408 -0.025388565 -0.99966568 -0.0048864945 0
