# .PCD v0.7 - Point Cloud Data file format
VERSION 0.7
FIELDS x y z
SIZE 4 4 4
TYPE F F F
COUNT 1 1 1
WIDTH 1164
HEIGHT 1
VIEWPOINT 0 0 0 1 0 0 0
POINTS 1164
DATA ascii
-0.042013258 -0.092254922 -0.0011194748
-0.035172258 -0.092262171 -0.001578851
-0.025288338 -0.092342749 -0.0015080863
-0.015394509 -0.092214867 -0.0013611423
-0.0049127182 -0.091869526 -0.0013114627
0.0048214728 -0.091909938 -0.0013462292
0.013552207 -0.092172697 -0.00087490981
-0.042043004 -0.084885105 -0.0013268697
-0.034983665 -0.08514595 -0.0024375243
-0.025180705 -0.084920943 -0.0027837493
-0.015138994 -0.08513952 -0.0026308838
-0.0049100448 -0.085081741 -0.0023847031
0.0048873238 -0.084949739 -0.0017019256
0.013386621 -0.084734693 -0.00096755498
-0.041823868 -0.0747355 -0.0012408142
-0.035201956 -0.074663661 -0.0024441998
-0.02490787 -0.074948154 -0.002932393
-0.015073335 -0.074841693 -0.0029648675
-0.0047326782 -0.075085543 -0.0026463496
0.0050728046 -0.07508862 -0.0015872092
0.013659676 -0.075034626 -0.00070511078
-0.041829165 -0.064639375 -0.0011411734
-0.034978945 -0.065025397 -0.0024783486
-0.024717432 -0.064806543 -0.0029537508
-0.015008702 -0.064950168 -0.0030090169
-0.0051361509 -0.064683795 -0.0028029354
0.005050906 -0.06479203 -0.0015095427
0.013950807 -0.06522534 -0.00053456821
-0.042080991 -0.055093888 -0.0012224932
-0.035091713 -0.054903243 -0.0024582092
-0.025235232 -0.055354752 -0.0029625432
-0.014871697 -0.055169195 -0.0030378175
-0.0050420025 -0.054912545 -0.0028114615
0.0050667971 -0.054919675 -0.001426708
0.013497141 -0.05517263 -0.00042214501
-0.041923437 -0.045111079 -0.001360049
-0.0348625 -0.044917945 -0.002406239
-0.025042696 -0.0452164 -0.002972082
-0.014988909 -0.04476599 -0.0030456258
-0.0049794344 -0.045039073 -0.0027856396
0.0050922767 -0.0449972 -0.0013478756
0.012749863 -0.045202609 -0.0003502538
-0.041967899 -0.034978524 -0.0013247249
-0.034919407 -0.034811988 -0.0024377571
-0.024941219 -0.034798346 -0.0029634575
-0.015114379 -0.035022084 -0.0030458036
-0.0049697035 -0.034953956 -0.0027548759
0.0052058669 -0.034918316 -0.0012735096
0.012268001 -0.035243955 -0.00031366112
-0.041988973 -0.02528947 -0.0012242242
-0.035068911 -0.025115926 -0.0024510694
-0.024996309 -0.024754239 -0.0029548125
-0.01509263 -0.02504394 -0.0030484437
-0.0047372933 -0.025058553 -0.0026760709
0.005172689 -0.025010454 -0.001219552
0.011915398 -0.025250738 -0.00030265501
-0.041879997 -0.0149073 -0.0011554926
-0.03505351 -0.014921318 -0.0024510161
-0.025150329 -0.01506592 -0.0029663986
-0.014987431 -0.015170909 -0.0030522773
-0.0049595335 -0.014980863 -0.0027021689
0.0049208137 -0.015007721 -0.0011886739
0.011475919 -0.015761776 -0.00023969688
-0.041679468 -0.0049776523 -0.0011156932
-0.03489437 -0.0051329886 -0.0024383576
-0.02505794 -0.0049149655 -0.0029752683
-0.015080534 -0.0051453165 -0.0030556119
-0.0050954684 -0.0049443543 -0.0027334301
0.0049963198 -0.0049135657 -0.0011319183
0.010975379 -0.0053040255 -0.00018165534
-0.041657433 0.0050986167 -0.00098759076
-0.035099782 0.0049701072 -0.0023493243
-0.024958177 0.0052469526 -0.0029813927
-0.01488994 0.0050110999 -0.0030401298
-0.004867922 0.0050429218 -0.0027030688
0.0051532844 0.00494724 -0.0010605326
0.010710431 0.0045347824 -0.00014522127
-0.041843899 0.014917908 -0.00089346996
-0.035046212 0.014825598 -0.002105739
-0.025078658 0.0150621 -0.002881191
-0.014911245 0.014760491 -0.002965179
-0.0051413947 0.015020008 -0.0026698248
0.0049944646 0.01511141 -0.0010231538
0.010459826 0.014349776 -6.4665983e-05
-0.042139608 0.024876161 -0.00090965553
-0.034973729 0.024716016 -0.0020588895
-0.025083546 0.024945553 -0.0026811794
-0.015107495 0.024968078 -0.0028629259
-0.0051989225 0.025093928 -0.0026227704
0.0050305338 0.02509273 -0.0010245731
0.010489781 0.025373319 -0.00010310397
-0.04218594 0.035093576 -0.0009819431
-0.034898013 0.035198178 -0.0018363448
-0.02538044 0.034761604 -0.002455181
-0.015135014 0.035144262 -0.0026879651
-0.0048124976 0.034992259 -0.0024880611
0.0050662053 0.034934908 -0.00096478674
0.010261565 0.034578517 -6.7470726e-05
-0.042305388 0.045105662 -0.00094261876
-0.03484755 0.044984192 -0.001613314
-0.024988629 0.045230038 -0.0022440138
-0.015015765 0.044846483 -0.0025021185
-0.0050464999 0.045239005 -0.0021774583
0.0045962939 0.044689443 -0.00080462737
-0.042367063 0.054932445 -0.0008628855
-0.034967504 0.055025965 -0.0014202124
-0.024857963 0.055147819 -0.002025008
-0.015064899 0.05497586 -0.0023003691
-0.0050852173 0.055314265 -0.0019120385
0.0037847979 0.054663252 -0.00063070073
-0.042489685 0.063496813 -0.00071504817
-0.035308093 0.063648202 -0.0011301349
-0.025124256 0.06340231 -0.0014561804
-0.014981372 0.063425906 -0.0015256896
-0.0048762849 0.06329184 -0.001014873
0.0026166078 0.062028818 -0.00049575506
-0.042855814 -0.092376493 0.0048649521
-0.035137419 -0.093518987 0.0047681029
-0.025041508 -0.093779601 0.0049655461
-0.015022224 -0.093901403 0.0049594892
-0.004936255 -0.093777873 0.0047856914
0.005012075 -0.093756892 0.0047556483
0.014699701 -0.093053773 0.0048954915
-0.044621289 -0.084976219 0.0050745583
0.018447099 -0.085082442 0.0047303736
0.020168282 -0.080398552 0.005703425
-0.04502888 -0.074943431 0.0048818197
0.018695522 -0.074795343 0.0027426949
0.020474182 -0.07526245 0.0076515027
-0.04505698 -0.064973779 0.0048612789
0.018672131 -0.06514591 0.003115338
0.020800216 -0.064825617 0.0080816085
-0.045155033 -0.054975249 0.0052570347
0.018641645 -0.054889299 0.0029340403
0.020759424 -0.054950811 0.0079284925
-0.045052841 -0.044971339 0.0048037842
0.018230386 -0.044840176 0.002426906
0.020885628 -0.045114454 0.0078617251
-0.045083072 -0.034971621 0.0050794799
0.017713394 -0.034811743 0.0022432588
0.020990325 -0.034558486 0.0080899978
-0.045188043 -0.02528365 0.0049539655
0.017450824 -0.025165156 0.0020862024
0.021002999 -0.024919754 0.0080029657
-0.045394845 -0.015070123 0.0051083304
0.017189266 -0.014995261 0.0020614071
0.020968067 -0.015317915 0.007848097
-0.045501202 -0.0048335944 0.0049479832
0.016668174 -0.0050922143 0.0019089343
0.021041363 -0.0048311907 0.0077371611
-0.04559337 0.0046981983 0.0048614903
0.01637103 0.0050453478 0.0017840455
0.021160226 0.0053013372 0.0078839557
-0.045706391 0.015027113 0.0046922234
0.015838608 0.015184742 0.0017146498
0.021253813 0.015065717 0.0078550875
-0.045772877 0.024913672 0.0047562472
0.016089866 0.02481607 0.0017742461
0.021258624 0.025087468 0.0075470656
-0.04581729 0.034896787 0.0047269519
0.015354875 0.034867045 0.0015446271
0.021318069 0.035190891 0.0070583001
-0.046017371 0.045081705 0.0051543047
0.0091576548 0.048020367 8.9075242e-05
0.015970789 0.045570478 0.0025680321
0.02067443 0.04364052 0.0072442959
-0.045888048 0.054917529 0.0050965012
0.0085816951 0.05501581 0.00022399868
0.015986703 0.054742977 0.0037693128
-0.043933678 0.064399742 0.0050176103
-0.034952365 0.066671923 0.0049436535
-0.025133688 0.066510387 0.004907344
-0.014959561 0.066291936 0.0050649429
-0.0048892535 0.066017851 0.0049940813
0.0054216487 0.064865813 0.0041654729
0.013730893 0.063323431 0.0051330379
-0.042839669 -0.092058696 0.01498114
-0.035098277 -0.093337193 0.015053917
-0.024951704 -0.093728967 0.014955002
-0.014891435 -0.093948618 0.015147328
-0.0047617615 -0.093963385 0.01492878
0.0048698126 -0.093934417 0.014973931
0.014355899 -0.093119524 0.015045484
-0.045229815 -0.084982246 0.015095543
0.018394472 -0.08501213 0.014852667
-0.046019308 -0.07503964 0.014970725
0.019685512 -0.077870078 0.016185496
0.02036427 -0.073169611 0.014334229
-0.046532642 -0.065242581 0.015030026
0.021183928 -0.065131493 0.014909065
-0.046910632 -0.05501141 0.015169714
0.02189965 -0.055002641 0.015201534
-0.047063638 -0.044998176 0.014794101
0.022171387 -0.045077223 0.014881108
-0.047270663 -0.034945305 0.015049909
0.022385364 -0.035037126 0.01505565
-0.047391981 -0.024926435 0.015076859
0.022566443 -0.025070921 0.014979553
-0.047706082 -0.015003321 0.014917025
0.022754097 -0.014872138 0.015069641
-0.047831926 -0.004956617 0.014882173
0.022804854 -0.0049052555 0.01503639
-0.047825195 0.00497308 0.014733729
0.022734344 0.0050767781 0.014786702
-0.047892194 0.014949765 0.015243088
0.02257142 0.014987987 0.015256993
-0.047808655 0.0247855 0.014942121
0.022009689 0.025102306 0.015007115
-0.047684055 0.035157859 0.014959611
0.021338534 0.035251729 0.014880011
-0.047277912 0.044889957 0.015058106
0.019622879 0.047784172 0.015530852
0.02045924 0.04292487 0.014499332
-0.046254419 0.05510341 0.015092407
0.018268827 0.055103987 0.015114401
-0.043929596 0.064456813 0.014946215
-0.034890674 0.066490844 0.015166003
-0.025070645 0.066370226 0.014661392
-0.015073614 0.066141792 0.015304013
-0.0051090294 0.065788694 0.014839665
0.0050100475 0.065301038 0.015025664
0.01437371 0.063789636 0.01499983
-0.042969927 -0.091993563 0.025029436
-0.034889307 -0.093366466 0.02493307
-0.02507706 -0.093695894 0.025028532
-0.014963639 -0.093864441 0.025369642
-0.0046011233 -0.093943805 0.025067676
0.0050998544 -0.093945146 0.024893621
0.014465826 -0.092995986 0.024789516
-0.045357123 -0.085043162 0.024937885
0.017861826 -0.084939606 0.025160538
-0.046238013 -0.074819461 0.025188359
0.019310685 -0.075447135 0.025045877
0.020129194 -0.071244285 0.02187953
-0.046889156 -0.065008976 0.024982112
0.019897236 -0.06926173 0.028682949
0.020646123 -0.064892404 0.025066016
-0.047402672 -0.054869235 0.024946855
0.021541083 -0.054867737 0.024981126
-0.047710273 -0.045185126 0.024791364
0.022046102 -0.044808012 0.024775861
-0.04797405 -0.035098363 0.024784615
0.022328587 -0.035054892 0.024940128
-0.048179571 -0.025193429 0.025021618
0.022513803 -0.024854988 0.024868444
-0.048318204 -0.015076394 0.025039306
0.02265531 -0.015095163 0.024939671
-0.048393127 -0.0049215541 0.025052367
0.022676051 -0.0048540467 0.02489192
-0.048452541 0.0050434046 0.025146032
0.022579169 0.0051584197 0.025090594
-0.048385698 0.014876317 0.025123041
0.022319157 0.014919019 0.024917964
-0.048223462 0.024883382 0.025159009
0.021671545 0.025028616 0.025196047
-0.047778916 0.034818135 0.024991153
0.020900156 0.034832463 0.024791606
-0.047130473 0.044888876 0.025209816
0.019399777 0.045978878 0.025258059
0.020148113 0.041134994 0.023564689
-0.046031419 0.054941189 0.024963627
0.018024925 0.054894958 0.024961935
-0.043756343 0.064625092 0.024963595
-0.034878094 0.0664621 0.024903269
-0.024916932 0.06628231 0.025173925
-0.015249409 0.066027984 0.024985699
-0.0048290286 0.065645009 0.024862522
0.0050309994 0.065252461 0.024817776
0.014415295 0.063766047 0.025126668
-0.042897109 -0.092155315 0.035265747
-0.035193272 -0.093361303 0.03486944
-0.024835616 -0.093601264 0.0349769
-0.014889959 -0.093758479 0.034802116
-0.0050640884 -0.093886487 0.034757152
0.0049108253 -0.09393847 0.03505744
0.014166342 -0.09305723 0.035266943
-0.045429036 -0.085009433 0.035026025
0.017482627 -0.085012414 0.035051778
-0.046329789 -0.074939348 0.034786891
0.018791063 -0.074971557 0.035035092
-0.047011953 -0.065121718 0.035114139
0.019699952 -0.067162246 0.035784099
0.020310797 -0.062729128 0.03375994
-0.047545798 -0.055072591 0.035012066
0.020846423 -0.055041421 0.035288408
-0.047940485 -0.044815786 0.03510106
0.021528238 -0.045056898 0.034958329
-0.048239328 -0.034849573 0.034762371
0.021939481 -0.035181325 0.034903131
-0.048421036 -0.024981182 0.034857389
0.022115748 -0.024899628 0.034929745
-0.048537832 -0.01484536 0.034738224
0.022164499 -0.014816809 0.034901075
-0.048590038 -0.0052042874 0.03489732
0.022182731 -0.0051379143 0.035051558
-0.048574042 0.0048811645 0.035307664
0.022037746 0.005019295 0.035038069
-0.048433974 0.014976283 0.035173092
0.021724286 0.015218415 0.035133071
-0.048164256 0.024879022 0.035032198
0.021148458 0.025278971 0.034972802
-0.047636062 0.034877438 0.03490521
0.019876953 0.038992964 0.037130415
0.020470215 0.034562953 0.034549184
-0.046955712 0.044949081 0.034899272
0.01912974 0.045012612 0.035110164
-0.045829069 0.055152632 0.035207987
0.017656015 0.054836333 0.035058163
-0.043956339 0.064414114 0.035042241
-0.035152335 0.066468716 0.034975491
-0.025149969 0.066237785 0.035028704
-0.015230407 0.065995075 0.035111383
-0.0050871032 0.065627486 0.034699678
0.0047510304 0.065249935 0.034922741
0.014433105 0.063779131 0.034768462
-0.043025807 -0.092356853 0.044644326
-0.034967519 -0.093377896 0.044858396
-0.024935704 -0.093645893 0.04497958
-0.015134932 -0.093818106 0.044912446
-0.0052255671 -0.093892574 0.045203138
0.0050208061 -0.093944333 0.045040265
0.014114195 -0.093189888 0.044919021
-0.045574922 -0.084905103 0.045087025
0.017149612 -0.084789433 0.045027968
-0.046427578 -0.07490094 0.045003254
0.018259782 -0.0752813 0.045124471
-0.047100466 -0.064936109 0.045168303
0.019363616 -0.064925164 0.045217678
0.020040799 -0.060811251 0.040867314
-0.047599077 -0.055057872 0.045078475
0.019847102 -0.058050729 0.047727063
0.020321004 -0.054016743 0.044570819
-0.048010282 -0.045054186 0.044946235
0.020863134 -0.044861227 0.045086768
-0.048411909 -0.034925234 0.044702537
0.021294085 -0.03516522 0.045184549
-0.048624754 -0.025100004 0.045090403
0.021546746 -0.025154887 0.044966005
-0.048673335 -0.015284061 0.045034215
0.021558406 -0.015010007 0.044971399
-0.048653722 -0.0052478169 0.044795524
0.021534109 -0.0050931908 0.044831343
-0.048539951 0.0050409338 0.045241583
0.021384228 0.0050745178 0.045221359
-0.048361 0.014949258 0.044694986
0.021118751 0.015136071 0.044874199
-0.048021786 0.024901668 0.044980109
0.020637656 0.024917474 0.045034584
-0.047448188 0.03494088 0.044996463
0.019707864 0.036899913 0.045817532
0.020173792 0.032643203 0.04355045
-0.046773907 0.044940468 0.044732001
0.018722856 0.045007646 0.044850744
-0.045836136 0.054980081 0.04491321
0.017340023 0.054943647 0.044898469
-0.04390239 0.064279772 0.044990323
-0.034946036 0.066401511 0.044990376
-0.024945157 0.066165827 0.045025442
-0.014897304 0.065940961 0.044942304
-0.0048452779 0.065641165 0.045099601
0.0049199313 0.065289058 0.045311302
0.014358922 0.063647501 0.044753771
-0.043250639 -0.092395507 0.055232543
-0.035036366 -0.093385786 0.055026203
-0.025117135 -0.093690507 0.054972764
-0.015231139 -0.093864515 0.054799072
-0.005119754 -0.093917929 0.054972798
0.0048817545 -0.094014183 0.054924455
0.014228445 -0.093176633 0.054900222
-0.04574421 -0.08481276 0.055027794
0.016814893 -0.085162267 0.054994658
-0.04653934 -0.075102001 0.054902878
0.017821193 -0.075266473 0.054876197
-0.047166053 -0.06490951 0.054876216
0.018824765 -0.065049671 0.055131249
-0.047661882 -0.05506245 0.054839101
0.019560285 -0.055262592 0.055363636
0.020111309 -0.051162381 0.051321287
-0.048135199 -0.044912536 0.055019207
0.019863818 -0.04688035 0.057813656
0.020272776 -0.044255208 0.053806517
-0.048548445 -0.034901451 0.054880124
0.020539202 -0.035083357 0.055026878
-0.04873722 -0.024815081 0.054897919
0.020774543 -0.024883833 0.054874148
-0.048696082 -0.014842764 0.054880902
0.020829685 -0.015071263 0.055151824
-0.048626099 -0.0050048465 0.055173919
0.020790286 -0.0051272172 0.054908141
-0.048468035 0.0050150682 0.055130027
0.020695873 0.0049061854 0.055148017
-0.048226129 0.015334653 0.055026259
0.020490466 0.014919557 0.054907307
-0.047858801 0.024896491 0.055122539
0.019810392 0.027025109 0.057529572
0.020234399 0.023647225 0.053569891
-0.047213495 0.035015728 0.055175234
0.019380169 0.035145096 0.055060722
-0.046575323 0.044877797 0.05494535
0.018345924 0.045197699 0.055108115
-0.045883182 0.054887667 0.055203356
0.017142264 0.054974012 0.054951295
-0.04383618 0.064563811 0.054943874
-0.034991428 0.066389859 0.055163279
-0.024963018 0.066115797 0.055021394
-0.01487969 0.065940008 0.055303838
-0.0050423215 0.065694347 0.055070389
0.0050156522 0.065334827 0.054875445
0.014346134 0.06349542 0.054944418
-0.043482699 -0.092449903 0.064909004
-0.034745228 -0.09342362 0.065009199
-0.024973596 -0.093663372 0.065054633
-0.015131122 -0.093854696 0.065084785
-0.0049651656 -0.093953446 0.064800665
0.0050702877 -0.094104841 0.065056063
0.014007101 -0.093228489 0.06503804
-0.045883272 -0.08481776 0.064960182
0.016573077 -0.084951796 0.064952567
-0.046688072 -0.074822545 0.065001741
0.01748218 -0.075097121 0.064858042
-0.047292616 -0.065117449 0.064988106
0.018298909 -0.065105334 0.065011062
-0.047817774 -0.05474247 0.064865313
0.018886508 -0.054905638 0.065037772
-0.048246793 -0.044788834 0.065055594
0.019421589 -0.045004129 0.064990051
0.020000136 -0.040058356 0.060136959
-0.048563607 -0.035048045 0.065178014
0.019621603 -0.035473157 0.065958582
0.020083785 -0.033551212 0.061031267
-0.048700191 -0.025163159 0.06503576
0.0196782 -0.025068324 0.066953018
0.020166643 -0.025088087 0.061725233
-0.048682962 -0.01502138 0.065227717
0.019775683 -0.015058761 0.067168973
0.02021658 -0.01485128 0.062451228
-0.048568573 -0.0049056634 0.064714774
0.019793931 -0.0048560533 0.06772498
0.020213397 -0.0052592652 0.06256859
-0.048375577 0.0049663708 0.065170586
0.019788114 0.004854992 0.067378208
0.020173883 0.0044559352 0.062333178
-0.048026498 0.014856425 0.065143667
0.019750694 0.015713288 0.066014685
0.020100342 0.013499617 0.061686683
-0.047589023 0.025008021 0.06472154
0.019503409 0.024748331 0.064939752
-0.047030553 0.034998707 0.065002941
0.01888044 0.034790415 0.064980343
-0.046463296 0.045099597 0.065304123
0.018000683 0.045237258 0.064900458
-0.045877032 0.054945227 0.064770974
0.016865434 0.055343252 0.064760059
-0.04396442 0.0645606 0.065171197
-0.034956757 0.066397548 0.065013573
-0.025064381 0.066131681 0.065137886
-0.014909359 0.065963008 0.064812906
-0.0050594043 0.065739244 0.064810194
0.0050058463 0.065379217 0.064801626
0.014200065 0.063761018 0.06506329
-0.043543935 -0.092385456 0.075194187
-0.034812216 -0.093512595 0.074851096
-0.025106998 -0.093709692 0.074959248
-0.015070708 -0.09389329 0.075031362
-0.0051008658 -0.094050877 0.074896991
0.0052648601 -0.094189554 0.074672148
0.013776785 -0.093290105 0.075057894
-0.046019223 -0.08474265 0.07481201
0.016206842 -0.085057609 0.075018473
-0.046779782 -0.075016066 0.074774638
0.017166242 -0.07454022 0.075065173
-0.047439728 -0.064991087 0.075071938
0.017732961 -0.065012351 0.074840553
-0.047971703 -0.055123039 0.075156793
0.01822063 -0.055007689 0.074829377
-0.048379969 -0.044920616 0.074695595
0.01861842 -0.045205943 0.075009704
-0.048531845 -0.034963492 0.074985035
0.018808445 -0.035019752 0.07491257
-0.048613686 -0.024692483 0.074887663
0.018933387 -0.024988934 0.074885815
-0.048636489 -0.01506233 0.074905351
0.01902107 -0.015049543 0.0751886
-0.048483636 -0.0051401295 0.075033791
0.019137856 -0.0050209248 0.075136505
-0.048278723 0.0049876566 0.075018227
0.019173931 0.0050512464 0.074995995
-0.047949336 0.014854079 0.075079069
0.019108998 0.014983922 0.074903324
-0.047523659 0.025073545 0.074975081
0.018851468 0.025029188 0.074974604
-0.047082767 0.034872338 0.074877366
0.018425671 0.034872442 0.075079195
-0.046482518 0.045020323 0.07511016
0.017664703 0.044972803 0.07499104
-0.045841061 0.055078503 0.075007938
0.016651526 0.055153556 0.074987672
-0.044002283 0.064533234 0.07507363
-0.034943368 0.066370703 0.074996345
-0.024822026 0.066140778 0.074952357
-0.014954359 0.065986268 0.074746221
-0.0047529079 0.065774411 0.075257987
0.0050303899 0.065398678 0.074895151
0.014208944 0.063826784 0.075036891
-0.043597326 -0.092458956 0.085109815
-0.034957223 -0.093631037 0.084937349
-0.02482284 -0.093813315 0.08490973
-0.014925925 -0.093968906 0.085165761
-0.0053485618 -0.094113581 0.084751077
0.005053388 -0.094281882 0.085023776
0.014006488 -0.093471527 0.085170157
-0.046108011 -0.085070759 0.08498086
0.016072823 -0.084917217 0.085112602
-0.046874076 -0.075047337 0.084971622
0.016617117 -0.075015202 0.084658809
-0.047538359 -0.064876825 0.085192859
0.017060371 -0.064748354 0.084850192
-0.048035312 -0.055128176 0.084990233
0.017364463 -0.05503675 0.084880807
-0.048380703 -0.044785932 0.085108258
0.01754557 -0.045071539 0.084917217
-0.048494957 -0.035022128 0.08502724
0.017772183 -0.034918379 0.084826395
-0.048552155 -0.025314936 0.0847615
0.017874653 -0.025299637 0.084987909
-0.048507176 -0.014921062 0.084985629
0.017958291 -0.014983815 0.085216232
-0.048389025 -0.0049447948 0.084982105
0.018087605 -0.0051908027 0.085016966
-0.048196241 0.0051098736 0.08498016
0.01821328 0.0049000322 0.084917285
-0.047952417 0.014822108 0.085220128
0.018225186 0.015080002 0.084729567
-0.04753257 0.024940154 0.085098147
0.018093085 0.025277881 0.084983766
-0.04707491 0.034876194 0.08504504
0.017826835 0.035090428 0.08496289
-0.046447173 0.045135543 0.085036911
0.017255478 0.044852111 0.08513172
-0.045872573 0.054960504 0.084964328
0.016414363 0.055288244 0.084883586
-0.044170182 0.064359948 0.085222445
-0.034876961 0.066332698 0.084982671
-0.024990583 0.06614358 0.085254304
-0.015057656 0.066000864 0.084958389
-0.0049885008 0.065816708 0.08486782
0.0048075351 0.065448552 0.08490064
0.014136013 0.063870825 0.084894709
-0.043714844 -0.092480257 0.094932899
-0.034621857 -0.093765356 0.095057227
-0.025176091 -0.093963206 0.095092885
-0.015054983 -0.094133556 0.094693363
-0.004906843 -0.094313443 0.095116228
0.0048206369 -0.094482809 0.095069587
0.013904688 -0.093317978 0.095019817
-0.046248846 -0.085082486 0.09515398
0.015634529 -0.084952421 0.095177352
-0.04697692 -0.075002953 0.09471073
0.015915047 -0.075066663 0.094879054
-0.047541603 -0.065031879 0.095071495
0.016060788 -0.065113261 0.094863817
-0.047996808 -0.054916438 0.094738588
0.016158301 -0.05482059 0.095076412
-0.048263397 -0.045187298 0.095030934
0.016342618 -0.044890758 0.094987035
-0.04843368 -0.035265405 0.09500315
0.01646794 -0.034956139 0.095093459
-0.048420757 -0.025096646 0.094785079
0.016613083 -0.025231792 0.095049612
-0.048343346 -0.014910762 0.095284633
0.016752552 -0.015085475 0.094940685
-0.048278123 -0.0051934421 0.094909042
0.016846068 -0.0052217646 0.095036976
-0.048117407 0.0050443625 0.09513998
0.017038321 0.0050868434 0.094853483
-0.047845218 0.014941004 0.095029734
0.017128497 0.014884337 0.095027857
-0.047506224 0.024853298 0.095068209
0.01713389 0.025125727 0.09510009
-0.047040924 0.035235185 0.094921894
0.017073007 0.035095412 0.095055044
-0.046456348 0.045104478 0.095077984
0.016721526 0.044906016 0.094993338
-0.045973722 0.05481207 0.095074236
0.016093791 0.054969449 0.09507221
-0.044104293 0.064468622 0.095017679
-0.034789242 0.066330798 0.095133498
-0.025083566 0.066148877 0.095083401
-0.015166321 0.066014916 0.09509898
-0.0048122816 0.065831952 0.09475939
0.005288084 0.065519154 0.0948992
0.014196108 0.064040191 0.095070131
-0.044003986 -0.092540242 0.10491437
-0.034757562 -0.093877666 0.10498816
-0.025148874 -0.094169304 0.10503005
-0.015203469 -0.094456449 0.1051259
-0.0050120321 -0.09463916 0.10503618
0.0051664296 -0.09475778 0.10514428
0.013483553 -0.093473211 0.10499154
-0.046360489 -0.084973611 0.10466599
0.014877964 -0.084932975 0.10514949
-0.047038488 -0.075006247 0.10480034
0.014866476 -0.074836589 0.10498089
-0.047566913 -0.064854883 0.10509264
0.014900219 -0.065156467 0.10484511
-0.047920283 -0.05510693 0.10498411
0.014951684 -0.054876115 0.10508846
-0.048155416 -0.044937007 0.10522813
0.015087869 -0.044901744 0.10507647
-0.048313677 -0.035068717 0.10491696
0.015220514 -0.034949128 0.10479634
-0.048277467 -0.024931908 0.10504206
0.015351294 -0.024948264 0.10484757
-0.048203934 -0.015050149 0.10500535
0.015471415 -0.015053157 0.10516214
-0.048128981 -0.0049222028 0.10502731
0.015640335 -0.0048206821 0.10484044
-0.048021223 0.0048161778 0.10540137
0.015841907 0.005172574 0.10483363
-0.047721539 0.015300428 0.10509607
0.015970692 0.014970113 0.10501275
-0.047412083 0.024940863 0.10495184
0.016052676 0.024935685 0.10489476
-0.047036652 0.034932878 0.10483485
0.016044943 0.03483719 0.10509193
-0.046512283 0.044825464 0.10518541
0.016040618 0.045029487 0.10505606
-0.045959186 0.054903638 0.10497696
0.01568079 0.055302411 0.1051904
-0.044082683 0.064562395 0.10492472
-0.034927528 0.066328712 0.10486574
-0.025036434 0.066157363 0.10521939
-0.014951119 0.066025458 0.10480193
-0.0048424155 0.065851495 0.10496359
0.0049800379 0.065554142 0.10489082
0.013943774 0.06408675 0.10519799
-0.043972548 -0.092701107 0.11506891
-0.035375778 -0.093979411 0.11518224
-0.025023554 -0.094448425 0.11532487
-0.0151903 -0.094813578 0.11511122
-0.0048705414 -0.095054612 0.11500826
0.0053532976 -0.095360495 0.11519309
0.01284567 -0.093973212 0.11499006
-0.046484418 -0.085086815 0.11503049
0.013800848 -0.085179202 0.11489428
-0.04709167 -0.075071029 0.11498011
0.013724455 -0.075089142 0.11492428
-0.047509335 -0.065015115 0.1151061
0.013756941 -0.064796172 0.11500333
-0.047795508 -0.054990102 0.11520616
0.013837096 -0.054916196 0.11515132
-0.048043881 -0.045218855 0.11508542
0.013946639 -0.04517962 0.11491117
-0.048164379 -0.03508671 0.11504798
0.01404471 -0.035095658 0.11483831
-0.048150729 -0.024993556 0.11512132
0.014129575 -0.02523105 0.1148835
-0.048078511 -0.014990473 0.11490247
0.014268659 -0.014963423 0.11496127
-0.048000943 -0.0049340036 0.11473084
0.014433016 -0.0051557566 0.11498027
-0.047912836 0.0049695666 0.11505406
0.014613808 0.0049273823 0.1150468
-0.047699116 0.015240189 0.11518679
0.014797631 0.014932727 0.11501228
-0.047375388 0.024987238 0.11487208
0.014894748 0.025235748 0.11503196
-0.047022451 0.034961499 0.11510437
0.014995979 0.035037473 0.11502279
-0.046556521 0.044885017 0.11477116
0.015202245 0.045196105 0.11506153
-0.046005938 0.054830924 0.11498556
0.015213841 0.055221692 0.11488574
-0.044130269 0.064644195 0.11512809
-0.035094321 0.066309609 0.11501762
-0.025224123 0.066169336 0.11499456
-0.014799432 0.066037722 0.11494549
-0.0049179969 0.065868929 0.11509196
0.0049940515 0.065580986 0.11519182
0.013869723 0.063777819 0.11502022
-0.043983798 -0.092792958 0.1251577
-0.035140876 -0.094109125 0.12512469
-0.025291385 -0.09457548 0.12513702
-0.01489468 -0.095057182 0.12501013
-0.0051672133 -0.095482282 0.12519167
0.0048222984 -0.095849395 0.12499886
0.012541362 -0.093674004 0.12512554
-0.046620063 -0.085171014 0.12461586
0.012939439 -0.085072465 0.12500075
-0.047143985 -0.074968599 0.12490188
0.012938372 -0.074929588 0.12484282
-0.04742353 -0.064971685 0.12499355
0.013022182 -0.064995222 0.12506832
-0.047682874 -0.054904781 0.12518927
0.013074453 -0.054901022 0.12492151
-0.047932237 -0.045014642 0.12479402
0.013132751 -0.045003403 0.12490494
-0.048004527 -0.035213646 0.12513614
0.013269109 -0.03491617 0.12486143
-0.048012901 -0.02516111 0.1249795
0.013215522 -0.024830244 0.12514596
-0.047941029 -0.01491191 0.12501881
0.013319566 -0.015312402 0.12494161
-0.04785908 -0.0047260276 0.12488276
0.013565191 -0.0051262528 0.12479394
-0.047780462 0.0049906732 0.12470523
0.013738338 0.0053079836 0.12505917
-0.04766456 0.014976888 0.12527043
0.013996586 0.014876751 0.12481078
-0.047372591 0.025094163 0.12513943
0.014218055 0.024946785 0.12515464
-0.046996072 0.034970213 0.12491596
0.014392894 0.035193492 0.12488253
-0.046585053 0.044943962 0.12489561
0.014535621 0.045245338 0.12479241
-0.046104517 0.055221923 0.12502559
0.014693915 0.055041175 0.12487781
-0.04433101 0.06447427 0.12480535
-0.035037935 0.066327959 0.12510356
-0.024910927 0.066187911 0.12489995
-0.014990089 0.0660531 0.1251253
-0.0047628181 0.065883175 0.12505828
0.0049952157 0.065578274 0.12506831
0.013671296 0.063902147 0.12475909
-0.044106327 -0.092884183 0.13516134
-0.034941513 -0.094168894 0.13497521
-0.025054283 -0.094577849 0.13494898
-0.015033613 -0.094973229 0.13495097
-0.0051021464 -0.095414408 0.13494869
0.0049581071 -0.095754519 0.13506247
0.012587301 -0.0936765 0.13490523
-0.04673744 -0.084726185 0.13463658
0.013346544 -0.084981032 0.13525179
-0.047165029 -0.075203665 0.13474835
0.013214418 -0.074939445 0.13516517
-0.047421388 -0.064718641 0.1348666
0.013126318 -0.06478738 0.13495474
-0.047609311 -0.054901551 0.13499384
0.01316124 -0.054922283 0.13509735
-0.047764894 -0.044967312 0.1352251
0.013250842 -0.044889331 0.135048
-0.047827113 -0.035047375 0.13498245
0.013304639 -0.035200339 0.13497636
-0.047788173 -0.025108736 0.13482249
0.013302569 -0.025101351 0.13501438
-0.047761712 -0.014873901 0.13489513
0.013367121 -0.014942388 0.13499264
-0.047694359 -0.0048447214 0.13512394
0.013447572 -0.0050133495 0.13497345
-0.047628246 0.0050837323 0.13481565
0.013519587 0.0051220353 0.13481015
-0.047550254 0.014877411 0.13501114
0.01371043 0.015020904 0.13493855
-0.047358856 0.025136705 0.13488309
0.013873816 0.025003528 0.13486332
-0.046968084 0.035197485 0.13502981
0.013999109 0.034898244 0.13489394
-0.046576872 0.045120198 0.13505684
0.014273356 0.044879373 0.13506217
-0.04619813 0.054935452 0.13492727
0.014617501 0.055204581 0.13482071
-0.044390347 0.064465329 0.1350805
-0.035005096 0.066310965 0.13503309
-0.025028612 0.066173889 0.13520364
-0.015001301 0.066036128 0.13491276
-0.0049828845 0.065860219 0.13470827
0.0050787479 0.065519854 0.13489315
0.013555823 0.063898906 0.13516515
-0.044111088 -0.092853144 0.14494558
-0.034954526 -0.0941808 0.14522021
-0.024484769 -0.094604291 0.14491315
-0.014920029 -0.094934441 0.14501409
-0.0050574834 -0.095191509 0.14523326
0.0050765607 -0.095343113 0.14485171
0.012990648 -0.093566284 0.14514685
-0.046797719 -0.084953561 0.14506017
0.013912877 -0.084961526 0.14491259
-0.04714958 -0.074882545 0.14489929
0.013855818 -0.075123847 0.1448424
-0.04728521 -0.065057859 0.14521171
0.013848077 -0.065028764 0.14515698
-0.04743138 -0.055177934 0.1450396
0.013899239 -0.054816358 0.14501728
-0.047578774 -0.044792246 0.14498872
0.013980932 -0.045216359 0.14508636
-0.047587171 -0.034971301 0.14478584
0.0140451 -0.034966286 0.14499855
-0.047521979 -0.024928402 0.14497553
0.014105825 -0.024741678 0.14485092
-0.047507077 -0.014959292 0.14512816
0.014195338 -0.014974154 0.14513727
-0.047494825 -0.004943667 0.14507242
0.01420213 -0.0048711188 0.14463469
-0.047443334 0.0048251906 0.14469457
0.014380256 0.0049930331 0.14512503
-0.047372099 0.014929299 0.14501515
0.014401685 0.015157743 0.14487961
-0.047298849 0.025022157 0.14485525
0.014521185 0.024813458 0.14505771
-0.046998944 0.035234239 0.14495142
0.014517968 0.034847062 0.14500064
-0.046647519 0.044879869 0.14513539
0.014543572 0.045059327 0.14514321
-0.046266738 0.055051386 0.14514998
0.014818476 0.054964587 0.14483771
-0.04444829 0.064358562 0.14514615
-0.035186976 0.066244438 0.14483829
-0.024814965 0.066073269 0.14512083
-0.015016414 0.0658748 0.14488533
-0.0048335223 0.065640904 0.14498201
0.0049516717 0.065397024 0.14488041
0.013466758 0.063614592 0.14485627
-0.04410895 -0.09292534 0.15517835
-0.034869194 -0.094247825 0.15493487
-0.02500437 -0.094587654 0.15513536
-0.014944076 -0.094792023 0.15515751
-0.0048411419 -0.094908848 0.15500788
0.0052389759 -0.094911419 0.1551255
0.013236485 -0.093520902 0.1549654
-0.046791498 -0.084928013 0.15492018
0.014328605 -0.085010141 0.15505023
-0.047097266 -0.074868232 0.15481211
0.014530624 -0.075145558 0.15488361
-0.047228925 -0.065089919 0.15503781
0.014812568 -0.064963274 0.15525208
-0.04732332 -0.055023819 0.15506044
0.014954325 -0.055045266 0.15505013
-0.047342524 -0.0448208 0.15523152
0.01506933 -0.045011591 0.15472139
-0.047306381 -0.035263177 0.15501355
0.015223404 -0.035082512 0.15511926
-0.047250018 -0.02493413 0.15528229
0.01531403 -0.025055343 0.15510182
-0.047238618 -0.014997863 0.15513754
0.015386125 -0.01505434 0.15505427
-0.047245096 -0.005057618 0.15489152
0.015434846 -0.0051723211 0.15498038
-0.047237769 0.0049054916 0.15496902
0.015510129 0.0051666745 0.15497111
-0.047212031 0.015119573 0.15490597
0.015475498 0.014752472 0.15510908
-0.047176667 0.024909474 0.15489766
0.015470524 0.024843944 0.15501319
-0.046944194 0.035290826 0.15512821
0.015457087 0.035050929 0.15502116
-0.046648201 0.044796161 0.15479419
0.015431464 0.044736139 0.15498333
-0.04632812 0.054953311 0.15487798
0.015469206 0.055012293 0.15524784
-0.044394068 0.064457797 0.15506057
-0.034853194 0.065965287 0.15499218
-0.02478523 0.065702781 0.15472576
-0.014915589 0.065438353 0.15517731
-0.0048132138 0.065175124 0.15515605
0.0048137815 0.064903922 0.15483069
0.013561802 0.063444331 0.15489836
-0.044239212 -0.093089871 0.16514242
-0.034766529 -0.094346315 0.16485693
-0.024980171 -0.09457849 0.16495702
-0.015058002 -0.09460897 0.164975
-0.0050879861 -0.094602689 0.16485068
0.0050628642 -0.094412722 0.16508332
0.013294405 -0.093153723 0.16494085
-0.046782393 -0.085266061 0.16491774
0.014863157 -0.084883235 0.16492848
-0.04703756 -0.075039327 0.16486228
0.015440095 -0.075175509 0.16500635
-0.047126975 -0.065027066 0.16507296
0.015851894 -0.064688005 0.16505785
-0.047132172 -0.055068474 0.1650628
0.01614554 -0.055072375 0.16526687
-0.04708505 -0.04483467 0.16513596
0.016322672 -0.045081161 0.16501829
-0.047037132 -0.035253827 0.16506398
0.016521964 -0.0350026 0.16501528
-0.046960883 -0.024960851 0.16498747
0.016611392 -0.025205262 0.16487704
-0.046924375 -0.01505398 0.16490243
0.01674349 -0.014981386 0.1648577
-0.046921063 -0.0047051175 0.16508493
0.016868433 -0.0046873307 0.16495588
-0.046997197 0.0049898936 0.16522872
0.016946362 0.0049715922 0.16488731
-0.047081314 0.015049178 0.1651293
0.016971925 0.015158512 0.16497007
-0.047031607 0.02503537 0.16517186
0.017062755 0.025204692 0.16507746
-0.0468839 0.035144236 0.16480307
0.017034806 0.034888431 0.16502571
-0.046621107 0.044808153 0.1652593
0.016870882 0.045052189 0.16497864
-0.046376772 0.054855373 0.16512039
0.016493857 0.055013221 0.16502872
-0.044505581 0.064430334 0.16489843
-0.034931924 0.06545309 0.1650254
-0.025072457 0.064867064 0.16493192
-0.014910493 0.064437322 0.16503859
-0.0050111539 0.064297728 0.16473915
0.0050836843 0.064403743 0.16482224
0.013751878 0.063574903 0.16497444
-0.044264346 -0.093297146 0.17502657
-0.035008807 -0.094435737 0.17484953
-0.025255205 -0.094620548 0.17505006
-0.015025902 -0.094656065 0.17501704
-0.0051838458 -0.094476022 0.17507194
0.0049717058 -0.094141699 0.17492546
0.013342165 -0.092984393 0.17473838
-0.046854828 -0.085100412 0.17535236
0.01533491 -0.084977463 0.17506839
-0.046956871 -0.075016782 0.17495239
0.016219664 -0.075000823 0.17507507
-0.046939518 -0.065169506 0.17524587
0.016873019 -0.06491071 0.17526594
-0.0468935 -0.054821216 0.17512031
0.017214624 -0.055294875 0.17502578
-0.046835124 -0.044940691 0.17478354
0.017539253 -0.045094579 0.17508183
-0.046720054 -0.03494164 0.17511094
0.017793223 -0.035242211 0.1751574
-0.046638027 -0.025152633 0.17490764
0.01801182 -0.024818094 0.17506509
-0.046588145 -0.015079898 0.17479676
0.018185426 -0.015199684 0.17516376
-0.046634287 -0.0049620718 0.17512478
0.018299133 -0.0050507202 0.17509034
-0.046752829 0.0049910233 0.17495637
0.01841465 0.0052304757 0.17506112
-0.046930633 0.015100763 0.17500624
0.018595792 0.014960287 0.17521037
-0.046938267 0.024847131 0.17505358
0.018659208 0.025120677 0.17505147
-0.046850067 0.034792054 0.17514524
0.018567221 0.034978565 0.17499363
-0.046644818 0.044915285 0.17499773
0.018200435 0.045392744 0.17507418
-0.046409786 0.054886315 0.17501889
0.016672891 0.055073299 0.17526144
-0.044569504 0.064309165 0.17507505
-0.034876712 0.065132402 0.17519858
-0.024971008 0.064057074 0.1748583
-0.014823044 0.063502043 0.17518273
-0.005072637 0.063309953 0.1749682
0.0050184033 0.063706197 0.17500788
0.013763811 0.063138969 0.17476442
-0.044314541 -0.093312874 0.18503824
-0.03510309 -0.094490387 0.18486658
-0.025176544 -0.094660684 0.18507089
-0.01482264 -0.094693318 0.18499509
-0.0050329384 -0.094510861 0.18485098
0.0052338624 -0.094240069 0.18497553
0.013219392 -0.092964701 0.18496248
-0.046897128 -0.084834732 0.18479826
0.015662013 -0.084918164 0.18498999
-0.046853583 -0.074978471 0.18508671
0.016808802 -0.075062558 0.18531147
-0.04677254 -0.06489747 0.18492499
0.017757377 -0.064958014 0.18547121
-0.04671526 -0.055043533 0.18491973
0.018308016 -0.055072613 0.18508559
-0.046576027 -0.044803653 0.18502185
0.01866905 -0.044802692 0.18521173
-0.046399817 -0.034871809 0.18501079
0.018924901 -0.034999374 0.18489516
-0.04630208 -0.025032682 0.18482448
0.019182105 -0.025157884 0.18508565
-0.046285007 -0.014781081 0.18516988
0.019400056 -0.015179094 0.18507567
-0.046379127 -0.0050570662 0.18494938
0.019540662 -0.005391988 0.1846687
0.020049622 -0.0015678104 0.18925932
-0.046488181 0.0048925886 0.18534453
0.019577915 0.0048663071 0.18341251
0.020172045 0.0055526211 0.18824795
-0.046692498 0.01510392 0.18512647
0.019612763 0.015456738 0.18336417
0.020239025 0.013609937 0.18785827
-0.046831567 0.025093485 0.18519238
0.019575967 0.024311803 0.18419637
0.020243865 0.02780119 0.18745595
-0.046788193 0.034795232 0.18492429
0.019676941 0.035443623 0.18292677
0.020307858 0.034527376 0.18763451
-0.046631258 0.044902496 0.18521771
0.01865478 0.04485777 0.18515965
-0.046391677 0.055061974 0.18491238
0.016418913 0.055220757 0.18516317
-0.044508833 0.064255528 0.1852645
-0.034972593 0.064959005 0.18514182
-0.024844689 0.063740738 0.18515289
-0.01482583 0.062930644 0.18497567
-0.0048910589 0.062586941 0.18485074
0.0049585318 0.063037418 0.18504152
0.013536235 0.063009687 0.18476786
-0.044306245 -0.093365639 0.19523697
-0.035066012 -0.094506875 0.19505249
-0.025148537 -0.094708107 0.19518329
-0.014914224 -0.094818071 0.19525231
-0.0049762526 -0.094727822 0.19512559
0.0049942718 -0.094340824 0.19492562
0.0131806 -0.092889011 0.19516125
-0.046788387 -0.084982656 0.19508635
0.015746614 -0.085120335 0.19506384
-0.04664411 -0.075032264 0.1950534
0.017286787 -0.075208791 0.19496833
-0.046539951 -0.065094866 0.19512051
0.018035989 -0.064926103 0.19518478
-0.046465248 -0.055312648 0.19506009
0.018364303 -0.055130553 0.19515552
-0.046297319 -0.044638861 0.19507074
0.018623758 -0.044963431 0.19496818
-0.04611405 -0.03518882 0.19528988
0.018824808 -0.035023615 0.19520776
-0.045953799 -0.024944048 0.19495101
0.019060832 -0.024992239 0.19502658
-0.045966912 -0.014978348 0.19502462
0.019259533 -0.014997334 0.19514337
-0.045996413 -0.0049901982 0.1951592
0.019413682 -0.0051668072 0.19517341
0.02005511 -0.0031019137 0.19052725
-0.046073116 0.0048656831 0.19517471
0.019438202 0.0049477494 0.196371
0.020148657 0.0058556567 0.19124964
-0.046276037 0.014858114 0.19530271
0.019521952 0.015533061 0.19653226
0.020178022 0.014235456 0.19199263
-0.046565071 0.024977548 0.19484405
0.019670866 0.023868095 0.19587205
0.020266607 0.027539929 0.19351123
-0.046681236 0.034829985 0.19470179
0.019698923 0.035326179 0.19855472
0.020452052 0.035159323 0.19344319
-0.046603497 0.044903498 0.19487396
0.019159947 0.045463655 0.19500297
0.020167772 0.041246295 0.19511902
-0.046333138 0.054910321 0.19496219
0.017106712 0.054926693 0.19511224
-0.044265289 0.064325303 0.19500221
-0.035011973 0.065729611 0.19484293
-0.025054114 0.065493822 0.19523776
-0.015148469 0.064772308 0.19503325
-0.0050298143 0.064143509 0.19504312
0.0049648704 0.063504487 0.19510698
0.013766002 0.062767871 0.19527137
-0.044200365 -0.092933536 0.20514996
-0.034917593 -0.093313262 0.20563033
-0.024914194 -0.093311064 0.20562977
-0.01507546 -0.093287207 0.20556869
-0.0049083396 -0.093216479 0.20560688
0.0049904357 -0.093068443 0.20566632
0.012911819 -0.092662655 0.20445171
-0.045157388 -0.085040025 0.20626763
-0.035106495 -0.08516454 0.20935982
-0.025838252 -0.084672794 0.20968938
-0.014762687 -0.084523655 0.20981953
-0.0047593643 -0.085070901 0.20947896
0.0047912044 -0.08511845 0.20910791
0.014173464 -0.084947988 0.20556535
-0.044918161 -0.075210661 0.20652786
-0.034881189 -0.075073674 0.20925154
-0.024971142 -0.075059347 0.20955758
-0.014684659 -0.075398743 0.20964539
-0.0051273475 -0.075127579 0.20935872
0.004980322 -0.074874431 0.20900293
0.014419372 -0.074967004 0.20539725
-0.044732232 -0.065171883 0.20638461
-0.034804076 -0.065056302 0.20921697
-0.024998995 -0.06505277 0.20946005
-0.014910363 -0.065032646 0.20963302
-0.0051393257 -0.06507282 0.20938905
0.0048775217 -0.064841956 0.20908792
0.014570316 -0.064975865 0.20544417
-0.044907574 -0.055084508 0.20632739
-0.034896333 -0.055020504 0.2092832
-0.02505897 -0.054694112 0.20935966
-0.015085894 -0.054887246 0.20960951
-0.0051056049 -0.055051275 0.20940362
0.0049893637 -0.054959681 0.20913045
0.014663214 -0.055069428 0.20549181
-0.044647809 -0.045035984 0.20649427
-0.035057742 -0.044950191 0.20934087
-0.025035575 -0.044888962 0.2093502
-0.015090412 -0.045103256 0.20962577
-0.0049230983 -0.044969503 0.20941152
0.0050045317 -0.044961754 0.20914875
0.01473933 -0.044964366 0.20547022
-0.044612736 -0.034971684 0.20639329
-0.034885198 -0.034940358 0.20936139
-0.024898436 -0.034882601 0.20921952
-0.014876354 -0.035057873 0.2095481
-0.0048368871 -0.034906656 0.20941979
0.0048712553 -0.035151489 0.20916149
0.01459828 -0.034826353 0.20573829
-0.044405676 -0.025053173 0.2064732
-0.03505452 -0.024948865 0.20941304
-0.024765594 -0.024914512 0.20936677
-0.014986305 -0.025066081 0.20957914
-0.0048910715 -0.025106985 0.20942754
0.0049826456 -0.025072133 0.20915779
0.014985471 -0.025156654 0.20512313
-0.044342499 -0.015199046 0.20647228
-0.034949366 -0.015020235 0.2094387
-0.025010372 -0.01490156 0.20943369
-0.015171 -0.014868434 0.20961276
-0.0047964309 -0.014979777 0.20942236
0.0049444484 -0.014876324 0.20913005
0.014829746 -0.014803332 0.20561592
-0.044278231 -0.0050671543 0.20633253
-0.034772649 -0.0050671827 0.20940997
-0.024976311 -0.0051779035 0.20942785
-0.014970375 -0.0049547455 0.20963664
-0.0047143679 -0.0048153582 0.20939036
0.0049491259 -0.0051250691 0.20907184
0.015258064 -0.0049616699 0.20543395
-0.044334043 0.0050057182 0.20662978
-0.034885354 0.0050112125 0.20937012
-0.025080062 0.0049302806 0.20911248
-0.015113132 0.0051071416 0.20960884
-0.0051524327 0.0053243772 0.20935318
0.0050685252 0.0049517839 0.20900927
0.015161428 0.0049966355 0.20576151
-0.044465087 0.015004965 0.20633468
-0.035074856 0.015102602 0.20931354
-0.024703419 0.015030951 0.20918198
-0.015000762 0.015149585 0.20956467
-0.0049532326 0.01505182 0.20929776
0.0050642341 0.015082657 0.20895284
0.015277748 0.015105005 0.20570153
-0.044548232 0.025030222 0.20631427
-0.034963772 0.025181156 0.20921721
-0.024948249 0.024876311 0.2092056
-0.014883396 0.025103519 0.20949651
-0.0048640398 0.025209535 0.20923479
0.0050674337 0.025120966 0.20889559
0.015635071 0.025033843 0.20558473
-0.044572968 0.035142493 0.20619941
-0.03513521 0.035059921 0.20912887
-0.02495316 0.03491291 0.2091715
-0.01476438 0.03490353 0.20943379
-0.0050113131 0.03508966 0.20917343
0.005163576 0.035197716 0.20883064
0.015661482 0.035349946 0.20569159
-0.044671886 0.045165565 0.20578752
-0.035311982 0.04480977 0.20908535
-0.025194455 0.04525226 0.20912656
-0.015024784 0.045171257 0.20939226
-0.0049839043 0.044857461 0.20910402
0.0049628243 0.045078911 0.20877467
0.015913745 0.045007654 0.20559716
-0.04458762 0.055020478 0.20547633
-0.035031591 0.0549112 0.20901249
-0.025210498 0.055041052 0.20910923
-0.015213964 0.054895479 0.20935851
-0.0050547062 0.054812875 0.20904301
0.004903385 0.054838609 0.20869809
0.015600316 0.055113196 0.20567428
-0.043747474 0.064201549 0.20502831
-0.03512641 0.065533206 0.20578322
-0.024971817 0.065014414 0.20572089
-0.015197147 0.065037325 0.20536527
-0.0050703823 0.064613827 0.20560005
0.0050906325 0.06395521 0.20575283
0.013504836 0.062794723 0.20473258
-0.022016734 -0.086156987 0.21006684
-0.018666897 -0.087636463 0.21003893
