# .PCD v0.7 - Point Cloud Data file format
VERSION 0.7
FIELDS x y z
SIZE 4 4 4
TYPE F F F
COUNT 1 1 1
WIDTH 230
HEIGHT 1
VIEWPOINT 0 0 0 1 0 0 0
POINTS 230
DATA ascii
-0.040860515 -0.060357369 -0.00073461077
-0.034634512 -0.061504249 -0.0016507476
-0.024943188 -0.062050238 -0.0017459457
-0.015738845 -0.061296206 -0.0015368253
-0.0095959688 -0.060150288 -0.00048688077
-0.052496124 -0.052225552 -0.0015883431
-0.044683825 -0.054720357 -0.0018526856
-0.034991324 -0.055058725 -0.001474225
-0.024898496 -0.055140775 -0.0012650815
-0.014931766 -0.055037167 -0.0015957805
-0.0055260686 -0.054353524 -0.0020245193
0.0017805103 -0.051610596 -0.0015122362
-0.061223794 -0.042101301 -0.0012707241
-0.054872297 -0.044923995 -0.0018571068
-0.045123219 -0.045034342 -0.00066344574
-0.035544075 -0.046122126 -0.00041766959
-0.024949837 -0.046562199 -0.00035585286
-0.014644641 -0.0453877 -0.00049693894
-0.0049114036 -0.045058463 -0.00099722017
0.0045014843 -0.044445682 -0.0020157453
0.010420138 -0.040755469 -0.00096882734
-0.063305594 -0.034372117 -0.0019824679
-0.055193581 -0.035126872 -0.00080999132
-0.04665992 -0.036048144 -0.00030839251
-0.039627925 -0.039831929 -2.6434107e-05
-0.011590026 -0.038282033 -0.00014152876
-0.0047303755 -0.035220128 -0.00054975331
0.0050861677 -0.035049159 -0.0014106203
0.011984404 -0.034587782 -0.0019039549
-0.064161062 -0.024951866 -0.0018191888
-0.055068579 -0.024986828 -0.00046763662
-0.048703324 -0.026627176 -0.00014834604
-0.002887612 -0.025412235 -0.00030967739
0.0052978615 -0.024950812 -0.0009729173
0.013131623 -0.024805902 -0.002276215
-0.06364245 -0.015182245 -0.0020351589
-0.055294625 -0.014950835 -0.00057489472
-0.048189789 -0.012516161 -0.00017502443
-0.0030359558 -0.014401473 -0.00038656712
0.0052109412 -0.015037336 -0.0011389103
0.012917479 -0.015269698 -0.0021810515
-0.062449053 -0.0057455678 -0.0018829096
-0.055228952 -0.0050394675 -0.0013251309
-0.045556042 -0.0045586419 -0.00047708783
-0.036054436 -0.0015891331 -0.0002356356
-0.025124144 -0.00053225836 -5.4721953e-05
-0.013553056 -0.002891606 -0.00027441591
-0.0049176528 -0.0048398022 -0.00061899662
0.0051120305 -0.0048697065 -0.0016694313
0.01144417 -0.006868206 -0.0014867482
-0.060525373 0.0007031748 -0.00068051968
-0.054193407 0.0042170919 -0.0019527545
-0.045006059 0.0050709713 -0.0012465593
-0.035041567 0.0050892229 -0.00068593741
-0.024931306 0.0050660037 -0.00061547529
-0.014913438 0.0051675523 -0.00073109934
-0.0050310134 0.0050906795 -0.0015369325
0.003495605 0.0040378072 -0.0018668479
-0.050751306 0.010735351 -0.00078934705
-0.044273604 0.012830243 -0.0018208844
-0.034880001 0.014507736 -0.0018941772
-0.024964573 0.01502004 -0.0017703776
-0.015236028 0.014110301 -0.0021270968
-0.0062649027 0.012366393 -0.0017649425
-0.041876886 -0.060821194 0.0052136765
-0.035066657 -0.062804736 0.0049860296
-0.0249834 -0.063852228 0.0050674928
-0.014918183 -0.062305748 0.0049861856
-0.0091378149 -0.060359437 0.0053645889
-0.053671032 -0.053366322 0.0050197854
-0.046925608 -0.058342882 0.0049462211
-0.0039673587 -0.057482835 0.004965819
0.0026002042 -0.052404258 0.0051520406
-0.062013179 -0.043235753 0.0051497431
-0.058604002 -0.048174113 0.0049175569
-0.03355068 -0.041606583 0.00015550724
-0.025266698 -0.041613705 0.00015925667
-0.01807685 -0.041268375 0.00011100282
0.0076864394 -0.04649049 0.0048306137
0.01073979 -0.041484989 0.0052432562
-0.065667972 -0.035073526 0.0050381133
-0.042636111 -0.033543382 0.00039429593
-0.034885142 -0.035016429 0.00056176644
-0.024919126 -0.035071734 0.00064179912
-0.015498147 -0.034525357 0.00037335101
-0.0091229528 -0.031333618 9.784929e-05
0.0030246954 -0.037825003 3.4322252e-06
0.013449832 -0.035105888 0.0050095865
-0.067653455 -0.025031144 0.0050482494
-0.05014509 -0.020363813 1.0745513e-05
-0.044136852 -0.024507344 0.00047628573
-0.034981903 -0.024959534 0.0010026763
-0.025038419 -0.025101908 0.00097280159
-0.014952008 -0.024990711 0.00070780539
-0.0077352873 -0.024580223 0.0001218084
0.015544483 -0.025003897 0.0050262595
-0.067171 -0.015012733 0.0050624353
-0.050055917 -0.019623224 6.4599476e-06
-0.044119492 -0.015471419 0.00030648074
-0.03512134 -0.014974453 0.00080127839
-0.025084965 -0.014944832 0.00088144519
-0.015061359 -0.015028932 0.0006576227
-0.0077125933 -0.015700269 0.00020479014
0.015004897 -0.015064175 0.0049918285
-0.063971087 -0.0049514067 0.0049560023
-0.041432403 -0.0082173338 0.00010136601
-0.034552973 -0.0062746718 0.00033694156
-0.024838408 -0.0055407132 0.00036464076
-0.016109344 -0.006809311 0.00028154784
-0.0096250419 -0.0095035993 5.0984145e-05
0.0095670903 -0.00060766248 0.0045268214
0.012183988 -0.0055520097 0.0050909654
-0.060803734 0.0011320363 0.0051490581
-0.056506891 0.0062741484 0.0050585223
-6.240308e-05 0.009954012 0.00021008827
0.0052476577 0.0052345907 0.0050092996
-0.051389769 0.011121505 0.0052672033
-0.045156613 0.014955252 0.0049434984
-0.035044108 0.01850469 0.004956089
-0.024983032 0.019439215 0.0050511966
-0.014949037 0.017874336 0.0050100829
-0.0048328559 0.013608115 0.0050219805
0.00037736518 0.010307464 0.0056511406
-0.041892756 -0.06089393 0.015148846
-0.035035688 -0.062925011 0.014988132
-0.024972713 -0.063996114 0.01503784
-0.014889852 -0.062453903 0.014963934
-0.0091347098 -0.06041953 0.014935678
-0.053752773 -0.053400878 0.015037328
-0.047030237 -0.058308162 0.015063469
-0.0040654149 -0.057631608 0.014957601
0.0026856801 -0.052514423 0.01496131
-0.06209632 -0.043473531 0.015047302
-0.058682237 -0.04838755 0.015012218
0.0077112271 -0.046742864 0.01496719
0.01088241 -0.041683279 0.015131433
-0.065761991 -0.035115171 0.015022032
0.013668256 -0.034916438 0.014989214
-0.067744948 -0.02494387 0.014948733
0.015681837 -0.024967896 0.0150537
-0.067290634 -0.014999004 0.014946584
0.015283785 -0.015050021 0.015001623
-0.064056687 -0.0048819822 0.014987515
0.009711463 -0.00047237534 0.015216554
0.012311348 -0.0053939093 0.014989147
-0.060835645 0.0012389031 0.0150661
-0.056665663 0.0063647721 0.015051858
0.0052817157 0.0052798479 0.014942069
-0.051517487 0.011192343 0.015138515
-0.045174565 0.015048256 0.01497415
-0.035063528 0.01859723 0.015056483
-0.025062814 0.019639598 0.015067848
-0.014914271 0.018016316 0.01501854
-0.0049483473 0.013877195 0.014963369
0.00043522182 0.010357229 0.015119677
-0.042004209 -0.060923219 0.025561579
-0.034980159 -0.062599771 0.025944717
-0.024993582 -0.063409075 0.02599437
-0.015041119 -0.062252704 0.025652178
-0.0089933248 -0.060479809 0.025527246
-0.053519215 -0.053143457 0.025961289
-0.045686979 -0.056216206 0.026430028
-0.034961071 -0.054882694 0.026868321
-0.025072716 -0.055034757 0.026834613
-0.014946846 -0.055111181 0.027012711
-0.0047471826 -0.056145199 0.026297176
0.0025503766 -0.052513953 0.025608186
-0.062017623 -0.043126296 0.025462214
-0.056064826 -0.046048101 0.026517231
-0.04508619 -0.044942331 0.026634887
-0.034963999 -0.045118246 0.026438678
-0.024996864 -0.045012176 0.02637117
-0.01499531 -0.045000747 0.02642432
-0.0050052311 -0.04510938 0.026749428
0.0060062911 -0.045519341 0.026206376
0.010978245 -0.041650832 0.025629422
-0.064699896 -0.034950405 0.025805259
-0.054987956 -0.034944672 0.026686748
-0.044969968 -0.035029806 0.026343334
-0.034962483 -0.035083082 0.026242301
-0.025128447 -0.035018798 0.026218567
-0.01493559 -0.034974851 0.026300484
-0.0049829721 -0.035084043 0.026524592
0.005022875 -0.034950741 0.02696169
0.013206388 -0.034876999 0.02579568
-0.065904848 -0.024935951 0.025830012
-0.055063922 -0.024966953 0.026560931
-0.045022361 -0.025133049 0.026252985
-0.034973435 -0.02504422 0.026190169
-0.025100438 -0.024962917 0.026175426
-0.015047817 -0.025088662 0.026222844
-0.005019302 -0.02500858 0.026436977
0.0050927461 -0.024947427 0.026783662
0.014594881 -0.024969671 0.025886118
-0.065682627 -0.015041907 0.025961595
-0.055072483 -0.014947155 0.026616301
-0.04501779 -0.015040004 0.026259251
-0.035016373 -0.014984182 0.026179893
-0.025064122 -0.014945719 0.026184788
-0.01497639 -0.015074507 0.026250212
-0.004966476 -0.015020422 0.026462575
0.0050470033 -0.01493566 0.026791573
0.014229701 -0.015122749 0.025855593
-0.063517377 -0.0051432564 0.025772098
-0.055032387 -0.0049953614 0.026829509
-0.045018163 -0.0049213558 0.026493672
-0.035006415 -0.0050239232 0.02632134
-0.024934178 -0.0050240629 0.026315074
-0.015012455 -0.0049732095 0.026377378
-0.0049708067 -0.0049983193 0.02658774
0.0054167826 -0.0046340763 0.026976211
0.012077505 -0.0055033243 0.025441237
-0.060790524 0.0011612744 0.025439601
-0.05555721 0.0053319694 0.026086899
-0.045105077 0.0050594867 0.026836405
-0.034978949 0.0049379407 0.026583502
-0.025000909 0.0048518842 0.026581215
-0.015064762 0.0050519188 0.026698718
-0.0049824575 0.0051044459 0.026970146
0.004758019 0.0048614838 0.025876183
-0.051635083 0.011185241 0.02525916
-0.044700924 0.014357701 0.02582456
-0.034984682 0.016735801 0.026191462
-0.025048107 0.017331028 0.026170369
-0.015032107 0.016424937 0.026268302
-0.0052370084 0.013466028 0.025841983
0.0004101739 0.010330142 0.025171153
-0.024898585 0.020126769 0.029030243
-0.019743809 0.020063804 0.029369386
-0.016606562 0.01874782 0.030010158
