# .PCD v0.7 - Point Cloud Data file format
VERSION 0.7
FIELDS x y z normal_x normal_y normal_z curvature
SIZE 4 4 4 4 4 4 4
TYPE F F F F F F F
COUNT 1 1 1 1 1 1 1
WIDTH 642
HEIGHT 1
VIEWPOINT 0 0 0 1 0 0 0
POINTS 642
DATA ascii
-0.049721602 -0.004776198 0.017530113 -0.88927132 -0.45727566 0.009770494 0
0.049204379 -0.0045990767 0.017157797 0.50226468 -0.86408424 -0.032996129 0
0.05260136 -0.002682873 0.017391741 0.49058214 -0.87044847 -0.040604822 0
0.056225277 -0.00059721462 0.017569365 0.49999934 -0.86484218 -0.045263011 0
-0.053548299 0.0026057852 0.017656052 -0.88845265 -0.45892447 -0.0063364827 0
0.058645267 0.0008005175 0.017213738 0.50632143 -0.86051881 -0.056089684 0
0.062594414 0.0031211565 0.017412229 0.50882959 -0.85845256 -0.064432867 0
0.065456122 0.0047544483 0.017738478 0.49503738 -0.86637092 -0.065874204 0
-0.0562636 0.0079257935 0.017346898 -0.89370394 -0.44853708 -0.010378026 0
-0.054876454 0.0052479273 0.016940027 -0.89186174 -0.45187524 -0.019778527 0
0.068227135 0.0074149272 0.017571596 0.86194819 -0.50615221 -0.029243905 0
-0.058546115 0.012361986 0.017462328 -0.88819969 -0.4591361 -0.017185504 0
0.067286678 0.012543974 0.017604461 0.87949353 0.47533569 0.023389101 0
-0.061126653 0.017415993 0.017573401 -0.89166284 -0.45247549 -0.014259019 0
-0.059928127 0.015079821 0.016866628 -0.88694692 -0.46171829 -0.011890253 0
0.064117931 0.018501392 0.016840056 0.88868362 0.45833069 0.013211589 0
0.065524042 0.015861114 0.017608954 0.8787322 0.47683385 0.021430595 0
-0.063716829 0.022431053 0.017712904 -0.88847935 -0.45884117 -0.0083146608 0
0.062100213 0.022265516 0.017830107 0.88167155 0.47165352 0.014078265 0
-0.06633392 0.02749181 0.017480839 -0.89311659 -0.44956848 -0.015196128 0
0.05897858 0.028071417 0.017652024 0.88013238 0.47472802 -0.00051548943 0
0.060387794 0.025488323 0.01752823 0.88224971 0.47061282 0.012604711 0
-0.066333584 0.032264628 0.017368386 -0.84426504 0.53246862 -0.060775887 0
-0.064283319 0.034562424 0.01728572 -0.50342357 0.86297947 -0.042792737 0
0.05656521 0.032596152 0.017290805 0.88261569 0.4699719 0.010772544 0
-0.06161686 0.036091916 0.017651174 -0.48372263 0.87444413 -0.036875684 0
-0.057516038 0.038296487 0.017624214 -0.46740803 0.8834455 -0.032462273 0
-0.054568172 0.039818522 0.016917825 -0.45711356 0.88882345 -0.032249492 0
0.053689379 0.037963931 0.017601339 0.88133472 0.47235265 0.011489999 0
0.055143286 0.035246562 0.017215768 0.87552297 0.48307464 0.0099199535 0
-0.052288834 0.041002329 0.017296007 -0.4553017 0.88966167 -0.034677256 0
-0.047242805 0.04360329 0.017447693 -0.46384206 0.88539284 -0.030495154 0
-0.044748038 0.044905629 0.017162915 -0.46761504 0.8837921 -0.015738264 0
0.049948946 0.04497942 0.015664665 0.88280183 0.46973565 0.0030468919 0
0.051250037 0.042545177 0.01717137 0.88321936 0.46874943 0.014055514 0
-0.042403009 0.046153236 0.017473336 -0.46467125 0.88508368 -0.026600379 0
-0.037689172 0.048617247 0.017571852 -0.45890516 0.88795787 -0.03060795 0
0.048495673 0.047676157 0.01759864 0.87939012 0.47608671 0.0038109175 0
-0.035045668 0.050055575 0.019659813 -0.44485778 0.89493763 -0.034470506 0
-0.032641161 0.051167693 0.01739376 -0.4448944 0.8948105 -0.037192896 0
-0.027613861 0.053654898 0.017521491 -0.43933594 0.89731187 -0.042606533 0
-0.024962606 0.05492723 0.016849497 -0.44514981 0.89496416 -0.029678931 0
0.044805933 0.054577727 0.017796317 0.88436723 0.46652466 0.015792141 0
0.046285912 0.051827315 0.017208043 0.88283837 0.46967527 0.0012326108 0
-0.022556009 0.056151923 0.017659713 -0.44265148 0.89590961 -0.037492037 0
-0.017691331 0.058552045 0.017493738 -0.44494793 0.89483374 -0.035970911 0
-0.014920076 0.0599012 0.016781606 -0.4454664 0.89493692 -0.025446946 0
0.043132573 0.05783999 0.017540948 0.8859008 0.46364447 0.014617733 0
-0.012346672 0.06122702 0.017338442 -0.45105103 0.89166129 -0.038640581 0
-0.0074936254 0.063687228 0.017492628 -0.45017818 0.89223534 -0.035437115 0
-0.0047609778 0.064994723 0.015006953 -0.45540324 0.8901462 -0.01573921 0
0.039662443 0.064395986 0.017509663 0.87298375 0.48748094 0.016179146 0
0.040977065 0.061940067 0.017355504 0.88414699 0.46680054 0.019527003 0
-0.0028044265 0.066062801 0.017616211 -0.45155567 0.89155018 -0.035153821 0
0.0028374165 0.068902954 0.017448233 -0.44681025 0.89394456 -0.034983568 0
0.0050194366 0.069965176 0.017020162 -0.44469836 0.89523137 -0.028358666 0
0.037842888 0.06769111 0.01773064 0.88184202 0.47077146 0.026998142 0
0.0074873418 0.071193278 0.017667137 -0.43346813 0.90040737 -0.037040334 0
0.012605227 0.073614731 0.017619364 -0.42257509 0.90542811 -0.040376451 0
0.015230007 0.074871533 0.018299362 -0.41818959 0.90667349 -0.055323016 0
0.034535542 0.074093208 0.017734634 0.88069648 0.47183895 0.04173252 0
0.035782088 0.071640275 0.017634979 0.88885647 0.45689565 0.034358278 0
0.017790085 0.076018669 0.017500076 -0.41854525 0.90726352 -0.041144442 0
0.022394041 0.078113206 0.017680688 -0.40333501 0.91353923 -0.052601755 0
0.026035475 0.079632863 0.017530063 -0.35565326 0.93321306 -0.051225517 0
0.032715291 0.077445507 0.017430073 0.88346988 0.4677732 0.02586836 0
0.028716117 0.080634095 0.017874779 -0.3929435 0.91956168 -0.001271763 0
0.03083957 0.080900893 0.017890014 0.65766144 0.7502526 -0.067840956 0
-0.030669218 -0.041135035 0.02252776 -0.87893522 -0.46792045 0.092322074 0
-0.027580408 -0.0433245 0.022434935 -0.29377696 -0.95522457 -0.035229977 0
-0.02235317 -0.043238502 0.022360541 0.3550975 -0.93449777 -0.024895666 0
-0.017859153 -0.041170619 0.022467729 0.4395189 -0.89816886 -0.010764118 0
-0.032633722 -0.03731928 0.022214571 -0.8870331 -0.45337263 0.087324202 0
-0.01529647 -0.039901093 0.023126848 0.41907462 -0.90783292 -0.014692372 0
-0.01245635 -0.038422942 0.022535481 0.45641565 -0.88976562 0.0013355904 0
-0.0082210479 -0.036197953 0.022070186 0.46407235 -0.88579637 0.0013095605 0
-0.035707381 -0.031475 0.022483537 -0.88863999 -0.4542473 0.063073985 0
-0.034387846 -0.033946756 0.02238333 -0.87827867 -0.47319892 0.068623975 0
-0.0054810857 -0.034774832 0.022720493 0.481042 -0.87668735 0.0042198822 0
-0.0022569394 -0.033050213 0.022467583 0.47056904 -0.88232833 0.0078449687 0
0.0016602234 -0.030983003 0.022496233 0.45833305 -0.88872784 0.0096764574 0
-0.037662912 -0.02777298 0.02242762 -0.88091987 -0.46887851 0.064289995 0
0.0042455764 -0.029678309 0.022269752 0.44782636 -0.89409786 -0.0063589131 0
0.0073911655 -0.02793216 0.022585923 0.48318732 -0.87550682 -0.0042320141 0
0.01158769 -0.025634227 0.022545248 0.47801986 -0.87834901 -7.9024852e-05 0
-0.04081545 -0.021786693 0.022542724 -0.88949752 -0.45347098 0.056198277 0
-0.039505761 -0.024242107 0.023089277 -0.88035727 -0.4722878 0.043763731 0
0.013877856 -0.024394456 0.022652302 0.4743109 -0.8803547 -0.0021610486 0
0.017389625 -0.022486977 0.022628948 0.47670799 -0.87905997 -0.0017834433 0
0.020815866 -0.020612516 0.021993039 0.49412444 -0.86939114 0.00019918985 0
-0.043074116 -0.017358793 0.022659129 -0.88883942 -0.45454794 0.057885792 0
0.023340948 -0.019231651 0.022483898 0.47349396 -0.88079441 -0.0021512676 0
0.027487949 -0.01692652 0.022605032 0.51244295 -0.8587212 8.2354054e-05 0
0.0305291 -0.015234486 0.022775251 0.47638351 -0.8790381 -0.018732538 0
-0.045916192 -0.011925506 0.022120817 -0.88616055 -0.4607344 0.04942894 0
-0.04459013 -0.014482972 0.022392668 -0.8883912 -0.45553935 0.05696474 0
0.032884933 -0.013929547 0.022416767 0.48238125 -0.87581521 -0.016000472 0
0.037687156 -0.011258902 0.022375055 0.47497392 -0.8798334 -0.017115152 0
-0.048116848 -0.0076218601 0.022543035 -0.8845939 -0.46278441 0.057655487 0
0.039963353 -0.0099626528 0.022016987 0.5653761 -0.81798273 -0.10608574 0
0.042632319 -0.0085068839 0.022462931 0.48794338 -0.87239039 -0.029091721 0
0.047012933 -0.0060544796 0.022395708 0.49019569 -0.87085223 -0.03639425 0
-0.051020313 -0.0020117213 0.022639448 -0.88408792 -0.46478257 0.04863961 0
-0.049721446 -0.0044596153 0.023137709 -0.88729262 -0.45839429 0.050857466 0
0.049507566 -0.0046711196 0.022720674 0.4767634 -0.87787992 -0.044983245 0
0.052460492 -0.0030291888 0.022551702 0.48325747 -0.8746084 -0.039016221 0
0.05640576 -0.00078194117 0.02257417 0.47737181 -0.87703705 -0.054057062 0
-0.053298511 0.0023175711 0.022387626 -0.88934427 -0.45550555 0.039767783 0
0.058981542 0.00064824108 0.022482973 0.49457049 -0.8670758 -0.059828747 0
0.062567465 0.0027467429 0.022122659 0.50210816 -0.8618539 -0.071380876 0
0.065715045 0.004577009 0.022038635 0.50512052 -0.85996878 -0.072848976 0
-0.05619882 0.00800303 0.022606071 -0.88776118 -0.45772052 0.048703957 0
-0.05475371 0.0052416204 0.023132725 -0.89502317 -0.44162375 0.062465839 0
0.068311565 0.0074818768 0.022116577 0.94082087 -0.33889285 -0.002762116 0
-0.058592625 0.012617558 0.02242887 -0.88730145 -0.45897037 0.045190819 0
0.067097306 0.012587818 0.02260383 0.87913835 0.47492129 0.039566271 0
-0.061212339 0.017704271 0.022316895 -0.88680959 -0.46041238 0.039865818 0
-0.059889555 0.01526263 0.023118485 -0.89720333 -0.4383553 0.053581238 0
0.064157069 0.018196747 0.022338482 0.88462836 0.46556842 0.026051462 0
0.065291211 0.015987456 0.022875838 0.88745898 0.45875946 0.044229254 0
-0.063565783 0.022263726 0.022313723 -0.89020348 -0.4535996 0.042250365 0
0.061886191 0.022489212 0.022382563 0.88242745 0.46963522 0.027650166 0
-0.066396028 0.027704252 0.022298334 -0.88619679 -0.46160722 0.039673787 0
-0.064971678 0.025120061 0.02315221 -0.85757989 -0.51154858 0.05361649 0
0.058818851 0.028237471 0.022676671 0.8820886 0.47029853 0.027182909 0
0.060300685 0.025462797 0.022431195 0.88280481 0.46900326 0.026298784 0
-0.066831067 0.032069594 0.022655569 -0.89037859 0.45113191 -0.060877249 0
-0.064459242 0.034661286 0.021752235 -0.49698001 0.86693376 -0.037903864 0
0.056568064 0.032466274 0.022331506 0.88135886 0.47165281 0.027390447 0
-0.061804179 0.036196988 0.022554742 -0.48362815 0.87434697 -0.040264525 0
-0.057505038 0.038501885 0.022403771 -0.46673468 0.88338739 -0.042254474 0
-0.054865114 0.039890297 0.022427207 -0.46174031 0.8859145 -0.044172462 0
0.053866707 0.037478838 0.022667758 0.88166183 0.47104719 0.028051822 0
0.055118404 0.035183355 0.022145182 0.879372 0.47577167 0.018608987 0
-0.052093849 0.041333612 0.022484737 -0.46061507 0.88637465 -0.046623383 0
-0.04763376 0.043648504 0.022287043 -0.46284422 0.88486648 -0.052787699 0
-0.044960566 0.044967797 0.020860644 -0.46145102 0.88571209 -0.050765313 0
0.049981967 0.044805225 0.022278657 0.8837415 0.46731204 0.024905458 0
0.051269483 0.042377129 0.022365645 0.8827284 0.4690299 0.028309578 0
-0.045063842 0.045040645 0.023070451 -0.46145102 0.88571209 -0.050765313 0
-0.042356387 0.046441842 0.022577966 -0.46436739 0.88384205 -0.05644564 0
-0.037577409 0.048928138 0.022378711 -0.46013108 0.88586259 -0.059386879 0
0.04865909 0.047248665 0.022651231 0.87961495 0.47485226 0.028157555 0
-0.035271186 0.050148416 0.022722295 -0.45466605 0.8883366 -0.064318866 0
-0.032285783 0.051663481 0.022484906 -0.45342243 0.88864213 -0.068726391 0
-0.027891692 0.053865209 0.022505421 -0.44086486 0.89468801 -0.071913868 0
0.044798188 0.054449029 0.022658862 0.86985362 0.49266848 0.02514882 0
0.04609004 0.052042171 0.022723103 0.88388276 0.46689424 0.027586941 0
-0.02547932 0.055127021 0.023467034 -0.43519959 0.89686745 -0.078930639 0
-0.022703661 0.056379002 0.022161558 -0.43971297 0.89480215 -0.077340856 0
-0.017686961 0.058883749 0.02248056 -0.44566244 0.8917799 -0.078189127 0
0.043159109 0.057599518 0.022792734 0.88145626 0.47076112 0.037668444 0
-0.015250801 0.060193319 0.023444096 -0.44636032 0.89138544 -0.078704409 0
-0.012540769 0.061475888 0.022557911 -0.44901356 0.89036405 -0.075091042 0
-0.0077630943 0.06386403 0.022272196 -0.44851491 0.89071816 -0.073862419 0
0.039632965 0.064290583 0.022627564 0.86934602 0.49282035 0.036953896 0
0.040964123 0.061780404 0.022103895 0.89093888 0.45290357 0.033260603 0
-0.0052548 0.065222539 0.02343541 -0.44888031 0.88999212 -0.080128394 0
-0.0027143112 0.066414423 0.022352464 -0.44934946 0.89008391 -0.076392159 0
0.0020504738 0.06885241 0.022791393 -0.44597319 0.89170057 -0.077317327 0
0.037811317 0.06751921 0.022419631 0.87324625 0.48660481 0.025628328 0
0.0044555347 0.070148714 0.023919802 -0.44253522 0.89190018 -0.093148559 0
0.0074068517 0.071475387 0.022415334 -0.43919039 0.8947618 -0.080704249 0
0.012182784 0.073781416 0.022489309 -0.42683458 0.89985287 -0.089871794 0
0.034435976 0.073874131 0.022290053 0.89037371 0.45415255 0.031308122 0
0.035712395 0.07145568 0.022455437 0.88226038 0.46897566 0.040969666 0
0.01462185 0.075051129 0.023604771 -0.4165763 0.90357554 -0.10007687 0
0.017423449 0.07623855 0.02235345 -0.42150846 0.90157062 -0.097474016 0
0.022543548 0.078586109 0.022285458 -0.40476483 0.9081192 -0.10716824 0
0.025618659 0.079824671 0.021724008 -0.32793146 0.93822473 -0.11043264 0
0.03259505 0.077397063 0.022445727 0.88472819 0.4646824 0.036418933 0
0.028229639 0.080615774 0.022803843 -0.33859378 0.93956697 -0.050676253 0
0.030945523 0.08134298 0.022538982 0.72621775 0.68701398 0.024891982 0
-0.027812311 -0.045237619 0.029229715 0.38736197 -0.90999138 -0.14787318 0
-0.030360704 -0.040736906 0.026930327 -0.86381125 -0.48610541 0.13240747 0
-0.027822664 -0.043268044 0.02756468 -0.55148488 -0.8339386 -0.020269405 0
-0.022403965 -0.043322112 0.027479369 0.35452393 -0.93503922 0.0038124972 0
-0.017705528 -0.041099187 0.027673893 0.45334464 -0.89130634 0.007183033 0
-0.03193194 -0.037461694 0.027588462 -0.87526292 -0.46437791 0.13515891 0
-0.015252208 -0.039866872 0.027784655 0.42776456 -0.90388399 0.0033452809 0
-0.012527878 -0.038429134 0.027389286 0.47700241 -0.87881726 0.012199452 0
-0.00793216 -0.035963658 0.027622418 0.46256545 -0.88645053 0.015451716 0
-0.035484038 -0.031064481 0.026881736 -0.87392187 -0.46955881 0.12559892 0
-0.034131695 -0.033297975 0.02784944 -0.87217271 -0.46582201 0.14941442 0
-0.0055067688 -0.034684852 0.027824104 0.48091626 -0.87618524 0.031921998 0
-0.0026062338 -0.033154462 0.027673334 0.47012523 -0.88237691 0.019828789 0
0.0016200332 -0.030937433 0.027169416 0.45435905 -0.89062917 0.018370837 0
-0.037275139 -0.027487788 0.027580548 -0.87257206 -0.47183508 0.12644981 0
0.0042213467 -0.029638225 0.027822558 0.46299401 -0.88610953 0.02112864 0
0.0075212405 -0.027829614 0.027513735 0.47557732 -0.87955749 0.014315004 0
0.011341207 -0.025760764 0.027317794 0.47782767 -0.87845117 0.0020504571 0
-0.040581338 -0.021117562 0.02756313 -0.87700009 -0.46908391 0.10407244 0
-0.039318439 -0.023568816 0.027815053 -0.87704784 -0.45527071 0.15334861 0
0.013918737 -0.024370698 0.027278997 0.48157945 -0.87637681 0.0066996785 0
0.017619418 -0.022378404 0.027202493 0.47231451 -0.88142765 -0.0021071604 0
0.021014165 -0.02054064 0.027546657 0.47868973 -0.87796956 -0.0050647361 0
-0.042499151 -0.017486857 0.027547555 -0.88247579 -0.45593598 0.11558046 0
0.02345111 -0.019217676 0.027550137 0.47512141 -0.87987494 0.0089316582 0
0.027258556 -0.017090414 0.027603252 0.49248493 -0.87030202 -0.00575099 0
0.03062786 -0.015236107 0.026864404 0.48340997 -0.87530661 -0.012375919 0
-0.045666743 -0.011443791 0.027409876 -0.88291287 -0.45367047 0.1210292 0
-0.044367205 -0.013822989 0.027820474 -0.87832439 -0.46260816 0.12058156 0
0.03313728 -0.013884192 0.027554663 0.47826934 -0.87811428 -0.013179807 0
0.037690412 -0.011386656 0.027755421 0.47280505 -0.88075083 -0.02708018 0
0.040063299 -0.010123859 0.028013131 0.52257258 -0.8508541 0.054453623 0
-0.047824681 -0.007277471 0.027526507 -0.87731856 -0.46452728 0.12052573 0
0.042691872 -0.0086428029 0.027538655 0.47801438 -0.87777889 -0.031724393 0
0.047061116 -0.006236033 0.027345626 0.48599917 -0.87326163 -0.034914114 0
-0.050826818 -0.001647961 0.027077103 -0.88287997 -0.45617399 0.11148222 0
-0.049469244 -0.00404293 0.027896855 -0.88247067 -0.45316175 0.12605563 0
0.049619574 -0.0048166146 0.027460484 0.49659312 -0.86727124 -0.035154693 0
0.05267727 -0.0031330017 0.027290462 0.48860329 -0.87143707 -0.04317563 0
0.056638412 -0.00095669081 0.027461505 0.47842833 -0.87609482 -0.059701968 0
-0.052946519 0.0024315454 0.02731791 -0.88522798 -0.44921118 0.12075044 0
0.059101898 0.00037217105 0.027264956 0.46721032 -0.88186961 -0.063407525 0
0.062493376 0.0022175044 0.027597863 0.47994161 -0.87364805 -0.079969272 0
0.066148788 0.0043412833 0.027534297 0.55474639 -0.82805955 -0.081079207 0
-0.05586841 0.0082967356 0.02752679 -0.8814556 -0.45544302 0.12493054 0
-0.054590732 0.0056920648 0.027159527 -0.89313853 -0.43657136 0.10820816 0
0.068363085 0.007423352 0.027394604 0.97747022 -0.21025637 -0.018552352 0
-0.058176767 0.012770522 0.027719997 -0.88328075 -0.45279914 0.12160645 0
0.066759355 0.012593293 0.027514059 0.88352889 0.46129951 0.081114121 0
-0.061016701 0.018241212 0.027602667 -0.88353729 -0.45458883 0.11274255 0
-0.059663471 0.015803294 0.02830755 -0.87719506 -0.46321326 0.12634182 0
0.063876644 0.018144542 0.027577817 0.88551563 0.45885399 0.072903812 0
0.065223522 0.015565686 0.027407607 0.88449585 0.46047369 0.075040527 0
-0.063165247 0.022383619 0.027647739 -0.88441551 -0.45564386 0.10098444 0
0.061659269 0.02240416 0.027445493 0.88137615 0.46780822 0.065815449 0
-0.066108398 0.027900068 0.027336402 -0.87617213 -0.47324628 0.091435388 0
-0.064762704 0.025524532 0.028256157 -0.88187373 -0.45451686 0.12535207 0
0.058708891 0.027976645 0.027410652 0.87955105 0.47087479 0.068313904 0
0.060131226 0.025340792 0.027042419 0.88357556 0.46417269 0.061950929 0
-0.067110613 0.032502338 0.027743611 -0.88882232 0.45380127 -0.063711748 0
-0.064652391 0.03485078 0.027691223 -0.48587355 0.87244868 -0.052537702 0
0.054887101 0.034887798 0.02878565 0.85436082 0.51410991 0.07588499 0
0.056238998 0.032580469 0.027411178 0.88057077 0.46883166 0.069224261 0
-0.062334079 0.036146674 0.027723845 -0.48625201 0.87300414 -0.03771919 0
-0.057617754 0.038695391 0.027703999 -0.4697634 0.88208383 -0.035360042 0
0.053562507 0.03756462 0.027397403 0.87957841 0.47029981 0.071832381 0
-0.05500941 0.040093947 0.028112117 -0.46426383 0.88490069 -0.037547719 0
-0.052551582 0.041372206 0.027789362 -0.46379948 0.88508058 -0.039016847 0
-0.04772108 0.043888874 0.027283881 -0.46763539 0.88274693 -0.045551509 0
0.049674235 0.044692207 0.028612955 0.88177156 0.46236923 0.093239352 0
0.051091436 0.042157941 0.027627116 0.88058436 0.46810779 0.073797941 0
-0.045323577 0.045180514 0.027608104 -0.47158429 0.88062561 -0.045901 0
-0.042290382 0.046787266 0.027360655 -0.46978739 0.88127184 -0.051572662 0
-0.038035959 0.049043763 0.027337395 -0.46606806 0.88268572 -0.060385767 0
0.04829425 0.047414463 0.027675543 0.87883252 0.47132656 0.074192755 0
-0.035677642 0.050351091 0.028132536 -0.46624506 0.88321447 -0.050475433 0
-0.032458883 0.051979583 0.027576979 -0.45125109 0.89018619 -0.062777534 0
-0.028081121 0.054146651 0.027571833 -0.44476482 0.89407468 -0.053053133 0
0.044611569 0.054367539 0.027460365 0.86339045 0.50057203 0.063123338 0
0.045902967 0.051964439 0.027321458 0.88479948 0.46193478 0.061206311 0
-0.025681997 0.055383395 0.028056486 -0.4523744 0.89022845 -0.053392958 0
-0.022428792 0.056984682 0.027561571 -0.44550848 0.89272165 -0.067603327 0
-0.018439058 0.058960631 0.027471218 -0.44297582 0.89348412 -0.0738822 0
0.042862479 0.057699747 0.027400598 0.88384885 0.46418446 0.057827376 0
-0.015810475 0.060324851 0.028115345 -0.44623351 0.8922382 -0.06918557 0
-0.012636731 0.061884604 0.02769668 -0.449058 0.88996667 -0.079412363 0
-0.0081955316 0.064075619 0.02703598 -0.4508121 0.88888389 -0.081571072 0
0.039413083 0.064089634 0.02802749 0.863572 0.49696767 0.085244365 0
0.040733568 0.061713774 0.027348995 0.89422923 0.44309291 0.063425422 0
-0.0057133185 0.065415882 0.027915042 -0.44950095 0.88931793 -0.084038213 0
-0.0024440247 0.067004591 0.027249534 -0.4497335 0.88916403 -0.084421858 0
0.0015576044 0.069055267 0.0274534 -0.45188338 0.88738334 -0.091389924 0
0.037594441 0.067314319 0.027740797 0.87016952 0.48628598 0.079566993 0
0.0040814355 0.070344009 0.027502725 -0.44839719 0.88871455 -0.095531985 0
0.0077039949 0.072148576 0.027478954 -0.44206291 0.89146912 -0.099313274 0
0.011647395 0.074122794 0.027781874 -0.43622553 0.89344734 -0.10704728 0
0.034150328 0.073732167 0.027496791 0.87541026 0.47539815 0.087483898 0
0.035437275 0.071287639 0.027640518 0.89005196 0.44822079 0.083099954 0
0.014227211 0.075400583 0.027938716 -0.43475735 0.89348924 -0.1125305 0
0.017600618 0.076966882 0.027523311 -0.42779127 0.89558339 -0.12216838 0
0.022217132 0.079074867 0.0272051 -0.40847585 0.90400511 -0.12618354 0
0.032174695 0.077561684 0.027247196 0.88271618 0.45953313 0.098190591 0
0.024669273 0.080261 0.027832577 -0.3947635 0.9095003 -0.13027275 0
0.02777718 0.081056722 0.027376415 -0.37638786 0.9126094 -0.15961301 0
0.030627934 0.081238411 0.027417418 0.88738155 0.4165526 0.19758019 0
-0.027340941 -0.045076787 0.030233536 0.12088145 -0.99042547 0.066671118 0
-0.0300845 -0.040079795 0.03048683 -0.86655825 -0.47928685 0.13914302 0
-0.027392153 -0.042823438 0.032839663 -0.61290169 -0.51550144 0.59884048 0
-0.02257332 -0.042555105 0.033174455 0.30949175 -0.74176866 0.59497398 0
-0.01793896 -0.041006919 0.032320041 0.45228589 -0.87482613 0.17354164 0
-0.031126533 -0.037197448 0.03223028 -0.82603592 -0.42458358 0.37066633 0
-0.027455397 -0.037557457 0.034463286 -0.15273325 -0.057987168 0.98656482 0
-0.022538885 -0.037658717 0.034755193 -0.026567277 -0.021688126 0.9994117 0
-0.017252848 -0.037649557 0.034638606 0.042765345 -0.15537903 0.98692882 0
-0.012608387 -0.03752416 0.033400524 0.37092972 -0.72347003 0.58223903 0
-0.0084188553 -0.035963498 0.032861996 0.44843674 -0.84886897 0.27986783 0
-0.035233725 -0.030423144 0.031161057 -0.87398046 -0.47469687 0.10402425 0
-0.032717042 -0.032545116 0.033019226 -0.63139707 -0.31973019 0.7064774 0
-0.027556425 -0.032568958 0.034628794 -0.082871281 -0.030645713 0.99608886 0
-0.022682827 -0.032745495 0.034902267 -0.031606141 -0.035830487 0.99885792 0
-0.017660215 -0.034056608 0.034972582 -0.018699791 -0.051460039 0.99849993 0
-0.013819695 -0.03469906 0.034984861 -0.0018213013 -0.037993886 0.99927628 0
-0.0061588772 -0.034615435 0.032893311 0.44654179 -0.82456303 0.34741369 0
-0.0026373547 -0.03297827 0.032925244 0.44736338 -0.86699706 0.21950436 0
0.0016667581 -0.03081584 0.032480273 0.45157632 -0.88594675 0.10572207 0
-0.03644995 -0.027477145 0.031962451 -0.84340072 -0.42148399 0.33320656 0
-0.032521073 -0.027619189 0.034288656 -0.15792516 -0.067529313 0.98513925 0
-0.027814137 -0.027629852 0.034791481 -0.082221992 -0.040148307 0.99580497 0
-0.024395689 -0.028997654 0.034957495 -0.059081867 -0.036825862 0.99757367 0
0.0040404224 -0.029545814 0.033165019 0.43727311 -0.87733626 0.19766958 0
0.0078402096 -0.027586151 0.032759055 0.46006641 -0.88357353 0.087388113 0
0.011463457 -0.025701974 0.032520786 0.48036247 -0.87416512 0.071325168 0
-0.040301897 -0.020631993 0.031478252 -0.86535203 -0.46590894 0.18464738 0
-0.037969466 -0.022636784 0.032673907 -0.67006689 -0.33574125 0.66203338 0
-0.032604303 -0.022255842 0.034569915 -0.10893343 -0.052032255 0.99268639 0
-0.028825169 -0.022935105 0.034907591 -0.075218387 -0.04157155 0.99630016 0
0.013715793 -0.024488144 0.032837469 0.45034084 -0.88938206 0.078693092 0
0.017802097 -0.022306904 0.032468792 0.47283998 -0.88094735 -0.018819476 0
0.021323342 -0.02042105 0.032524824 0.47206089 -0.88154572 -0.0059761279 0
-0.041491803 -0.017793903 0.0318578 -0.81146473 -0.41749069 0.40893352 0
-0.037383672 -0.017145827 0.034207575 -0.17540874 -0.072010197 0.98185861 0
-0.032585762 -0.017816631 0.034781251 -0.097204268 -0.036818977 0.99458319 0
-0.029780921 -0.01936898 0.034973599 -0.07567963 -0.053418394 0.9957003 0
0.023539504 -0.019215642 0.03234743 0.47268113 -0.88122934 -0.0027161846 0
0.027450794 -0.017043648 0.032462083 0.50461847 -0.86295009 -0.026026174 0
0.03066442 -0.015292979 0.032395538 0.46702057 -0.88424534 -0.0014157739 0
-0.045402959 -0.010707318 0.031621076 -0.83652979 -0.44759011 0.31603962 0
-0.042671081 -0.012796428 0.033011578 -0.5181188 -0.25843808 0.81532979 0
-0.03760485 -0.012238164 0.034496278 -0.126344 -0.05113725 0.99066752 0
-0.033882059 -0.013241796 0.034865428 -0.099800199 -0.049321491 0.99378437 0
0.032853235 -0.01411356 0.031966202 0.4734242 -0.88072902 -0.013631748 0
0.037597872 -0.011561611 0.032407317 0.466034 -0.88464874 -0.014456364 0
0.040234949 -0.010115457 0.032261413 0.55155534 -0.83273304 -0.048397448 0
-0.046807729 -0.0070006913 0.032331023 -0.73062736 -0.38102806 0.56656975 0
-0.042546395 -0.0074445982 0.03405048 -0.16590294 -0.059814986 0.9843263 0
-0.037618104 -0.0075084735 0.034687415 -0.11187499 -0.034856502 0.99311078 0
-0.034595739 -0.0092668226 0.03494817 -0.10183305 -0.034051318 0.99421859 0
0.042505741 -0.0088929217 0.032381196 0.4743149 -0.87976414 -0.032257386 0
0.047021903 -0.0064740321 0.032505281 0.47517622 -0.87906748 -0.038051993 0
-0.050667986 -0.00077314075 0.031542283 -0.8412503 -0.45564452 0.29100859 0
-0.047970902 -0.0028812098 0.032821611 -0.53870398 -0.26849177 0.79856759 0
-0.042305369 -0.002501487 0.03432522 -0.12408392 -0.040785555 0.99143314 0
-0.037980556 -0.0028584488 0.034802832 -0.10706325 -0.033192184 0.993698 0
0.049796436 -0.0049231718 0.032025758 0.4935165 -0.86862648 -0.0439259 0
0.052340325 -0.0035815625 0.032455858 0.48044041 -0.87565422 -0.049057964 0
0.057070713 -0.0010345187 0.032505188 0.47375458 -0.87912869 -0.051859472 0
-0.05192329 0.0027415552 0.032114886 -0.75360829 -0.38502544 0.53275704 0
-0.047458336 0.0025762506 0.033888265 -0.14120327 -0.061096951 0.9880935 0
-0.04250937 0.0027024813 0.034490611 -0.11014643 -0.033162873 0.99336201 0
-0.038475562 0.002460273 0.034898367 -0.090704709 -0.016205307 0.99574602 0
0.059527151 0.00026879489 0.032423738 0.49968749 -0.86527544 -0.0401338 0
0.062366497 0.0017543965 0.032504238 0.46045262 -0.88613409 -0.052436259 0
0.066466734 0.0041027633 0.032676462 0.59933174 -0.79786098 -0.064956069 0
-0.055502817 0.0088349311 0.031408124 -0.84980077 -0.45245954 0.27040556 0
-0.05273908 0.0074238973 0.033018045 -0.42226264 -0.20056801 0.88400614 0
-0.047636762 0.0075531183 0.034105454 -0.10512334 -0.035644453 0.99382019 0
-0.042403091 0.0074659791 0.034614719 -0.089658253 -0.013876624 0.9958759 0
-0.039075166 0.007534497 0.034892522 -0.070074193 -0.0034986185 0.99753565 0
0.068353049 0.0074774628 0.032642778 0.9983924 0.012554104 0.055271 0
-0.057072815 0.01277293 0.032023981 -0.75662035 -0.38143018 0.53107125 0
-0.052537061 0.012768563 0.033754505 -0.10771046 -0.032521371 0.99365026 0
-0.047880221 0.012346377 0.034206994 -0.091459721 -0.015236133 0.99569231 0
-0.042390496 0.012679892 0.034643237 -0.071231388 0.0075980318 0.99743092 0
-0.038581606 0.012357348 0.034910761 -0.072667517 0.0052032131 0.99734265 0
0.064884752 0.014716911 0.034084659 0.87907654 0.45981261 0.12568489 0
0.06620995 0.012621826 0.032388508 0.87708998 0.46604106 0.11627045 0
-0.06064783 0.01852352 0.031324845 -0.87165755 -0.45825821 0.17381765 0
-0.057555936 0.017467318 0.033090256 -0.31586406 -0.14414966 0.93779033 0
-0.052315917 0.017748365 0.033872105 -0.087772883 -0.0045481515 0.99613011 0
-0.047673702 0.017369509 0.034240156 -0.071436383 0.0048970454 0.99743313 0
-0.042525657 0.017252157 0.034581825 -0.065944232 0.011716092 0.99775457 0
-0.038181715 0.017860292 0.034876071 -0.079143591 0.023791624 0.99657923 0
0.063724741 0.017421212 0.03248835 0.88359457 0.45395669 0.11482076 0
0.065030769 0.015039017 0.031885009 0.87907666 0.45981264 0.1256849 0
-0.062134437 0.022874378 0.032114174 -0.66855496 -0.32382029 0.66945851 0
-0.057480402 0.022398511 0.033454213 -0.077208392 -0.0073774508 0.9969877 0
-0.052446209 0.02220718 0.033820812 -0.08139284 0.027295316 0.99630827 0
-0.0475302 0.022308212 0.034185037 -0.067019701 0.0280164 0.99735826 0
-0.042493071 0.022569897 0.03448692 -0.058443401 0.033760231 0.99771971 0
-0.037743397 0.022644555 0.03478647 -0.067269936 0.024117408 0.99744326 0
-0.034626696 0.023450971 0.034970321 -0.074099623 0.022744318 0.9969914 0
0.059718493 0.024615156 0.033810463 0.86849606 0.47679651 0.13557163 0
0.061191317 0.022227883 0.032568689 0.87507617 0.46841618 0.12177014 0
-0.065899566 0.028895698 0.031667523 -0.80760843 -0.40988967 0.42398015 0
-0.062937729 0.027215084 0.032623537 -0.34160206 -0.15153809 0.92754745 0
-0.057283673 0.027349357 0.033399388 -0.083822884 0.035178617 0.9958595 0
-0.052358087 0.027564401 0.033728994 -0.052409656 0.020756336 0.99840993 0
-0.047541976 0.027403457 0.033986025 -0.054220855 0.036521275 0.99786085 0
-0.042406056 0.027479423 0.034275711 -0.057097167 0.054196727 0.99689645 0
-0.037536841 0.027411791 0.034607578 -0.073967122 0.058570515 0.99553919 0
-0.03351818 0.027669828 0.034900609 -0.076309055 0.047990873 0.99592865 0
0.058298059 0.027607106 0.032524791 0.87388104 0.4671959 0.13438705 0
-0.066548705 0.03233159 0.031695761 -0.79099447 0.17195383 0.58716244 0
-0.062675916 0.032710142 0.032782387 -0.087553442 0.12506098 0.98827845 0
-0.057563134 0.032294929 0.033204895 -0.059451867 0.041160394 0.99738216 0
-0.052486062 0.032571185 0.033499639 -0.058338638 0.057119086 0.99666148 0
-0.047707893 0.032300238 0.033809513 -0.0590722 0.055741459 0.99669617 0
-0.042578712 0.03238444 0.034059457 -0.049837098 0.042724714 0.99784315 0
-0.037471697 0.032545168 0.034343619 -0.065212667 0.050452184 0.9965952 0
-0.032411251 0.032504816 0.034736432 -0.081519492 0.05249624 0.99528825 0
-0.029288057 0.033735435 0.034935299 -0.081573017 0.060893618 0.99480546 0
0.054686237 0.034348778 0.032535382 0.87032557 0.47409645 0.13328901 0
0.05602181 0.031872772 0.032501962 0.87497431 0.46580836 0.13206962 0
-0.062109683 0.036055062 0.031657916 -0.42667645 0.80317909 0.41575313 0
-0.057389423 0.037701286 0.032074329 -0.36327523 0.63983005 0.67723596 0
-0.052501947 0.037573904 0.033214644 -0.072584391 0.090879209 0.99321318 0
-0.047557794 0.03782592 0.033486456 -0.05046013 0.056898788 0.99710399 0
-0.042281859 0.037313394 0.033754829 -0.046449497 0.071391799 0.9963662 0
-0.037206762 0.037380211 0.034049947 -0.070719168 0.070496447 0.99500203 0
-0.032506857 0.037455868 0.034433823 -0.086644411 0.061420005 0.99434412 0
-0.027771818 0.037851293 0.034836225 -0.08962743 0.052425392 0.99459457 0
0.052857395 0.037764769 0.032522298 0.87417549 0.46645513 0.13504404 0
-0.055071484 0.040174112 0.031310279 -0.39894122 0.91604555 -0.04130974 0
-0.052310109 0.041295987 0.031761039 -0.4475109 0.82052499 0.35563016 0
-0.047589906 0.042874847 0.032438986 -0.31815889 0.55431414 0.76909745 0
-0.042445242 0.042525385 0.033438027 -0.034777451 0.046346452 0.99831992 0
-0.03715729 0.042495534 0.033729021 -0.078831464 0.054068673 0.99542063 0
-0.032581259 0.042433415 0.034127764 -0.088368967 0.060277376 0.99426234 0
-0.027737096 0.042349089 0.034574799 -0.093841687 0.059065022 0.99383348 0
-0.024197619 0.042749345 0.034896165 -0.097800143 0.043238312 0.99426639 0
0.049516566 0.04390515 0.032715328 0.87326574 0.46399924 0.14870003 0
0.050788924 0.041476175 0.032887485 0.86651236 0.47998631 0.1370014 0
-0.045267537 0.045282107 0.031313095 -0.48559117 0.87378842 0.026365472 0
-0.042524491 0.046522636 0.031913761 -0.45417711 0.84014595 0.29644227 0
-0.03744217 0.047944341 0.032776505 -0.29512951 0.49355814 0.81810695 0
-0.032316975 0.047531843 0.033849627 -0.097497545 0.04504605 0.99421579 0
-0.027430996 0.047554266 0.034346297 -0.10471089 0.046291772 0.99342477 0
-0.023015115 0.047717068 0.034797762 -0.099398777 0.049569249 0.99381226 0
0.047618918 0.04757721 0.032359704 0.87248409 0.46629366 0.14608841 0
-0.035816338 0.050331742 0.031371471 -0.46774501 0.88345909 0.026730776 0
-0.032268804 0.051645689 0.032303616 -0.42570442 0.78803045 0.44472867 0
-0.027611321 0.053168129 0.033190768 -0.33620805 0.57898223 0.74279451 0
-0.02266171 0.052720334 0.034532096 -0.10084361 0.077057824 0.99191362 0
-0.018834757 0.053151716 0.034880362 -0.097809978 0.068110444 0.99287164 0
0.04439358 0.053620528 0.032719046 0.87424952 0.46035728 0.15413958 0
0.045693904 0.051311307 0.032064751 0.87908524 0.45381296 0.14581826 0
-0.025581365 0.055444233 0.032154012 -0.45559749 0.86475194 0.21127006 0
-0.02215693 0.056860536 0.032763671 -0.44169575 0.81061602 0.38445619 0
-0.017930802 0.057995357 0.033625223 -0.33305702 0.57001293 0.75110471 0
-0.013682971 0.058900036 0.034933206 -0.082562163 0.07755322 0.99356383 0
0.042354088 0.057524063 0.032469708 0.85659331 0.49067792 0.15963382 0
-0.015744772 0.060545772 0.032108884 -0.45737857 0.88730454 0.059122056 0
-0.012432329 0.062059697 0.032876641 -0.45241645 0.85310733 0.25986007 0
-0.00845287 0.064268738 0.032522775 -0.46082407 0.87907296 0.12195031 0
0.039091147 0.063572071 0.032499857 0.86860657 0.46588185 0.16875051 0
0.040584333 0.060939465 0.031935547 0.85230511 0.4992018 0.15612039 0
-0.0060755187 0.065524846 0.03235219 -0.45242235 0.89152789 0.022182705 0
-0.002459032 0.067373112 0.032508396 -0.46266508 0.8839249 0.067954555 0
0.0013482125 0.069349512 0.032356326 -0.45529458 0.89020902 0.015321534 0
0.036869168 0.06759508 0.03245344 0.86604267 0.48006761 0.13966054 0
0.0037848924 0.070629478 0.032463368 -0.46224087 0.88641113 -0.024669476 0
0.0076384749 0.072615191 0.032625996 -0.45499465 0.89022136 -0.022044063 0
0.011268297 0.074440584 0.032487452 -0.44632581 0.89372534 -0.045257322 0
0.033872452 0.073121853 0.03228943 0.86889774 0.47753817 0.13028431 0
0.035339646 0.070434406 0.032200906 0.86211032 0.49041075 0.12752698 0
0.013587646 0.075645573 0.032838102 -0.45247006 0.88978517 -0.059608053 0
0.017441556 0.077532306 0.032461662 -0.43712416 0.8940317 -0.098131403 0
0.021299135 0.079362534 0.032282092 -0.41438526 0.90081286 -0.12969537 0
0.031537388 0.077389531 0.032610964 0.87777883 0.45660672 0.1449642 0
0.023765657 0.080586657 0.032838311 -0.4036594 0.90443784 -0.13802661 0
0.027899705 0.081957266 0.032359056 0.067211986 0.98498142 -0.15904137 0
0.03009598 0.080191031 0.032077078 0.86377943 0.49576232 0.090027034 0
-0.021237606 -0.030682676 0.035040703 -0.04391579 -0.043876354 0.99807125 0
-0.017158575 -0.031895354 0.035082895 -0.014132985 -0.045431647 0.99886751 0
-0.012434692 -0.032486532 0.035105843 -0.0086455457 -0.049778935 0.99872291 0
-0.0078237969 -0.03196853 0.035155214 -0.0012584738 -0.055894349 0.99843585 0
-0.002784943 -0.030833563 0.035210535 0.028528864 -0.12829477 0.99132556 0
0.0008019674 -0.030319022 0.035122257 0.17834494 -0.39346191 0.90187627 0
-0.025592366 -0.025810793 0.035023365 -0.058986746 -0.056172863 0.99667704 0
-0.022330673 -0.027563732 0.035127882 -0.0435404 -0.042186961 0.99816054 0
-0.017532662 -0.027681302 0.035269249 -0.02207295 -0.048834037 0.99856293 0
-0.012537114 -0.027455507 0.035352077 -0.0066921753 -0.050399661 0.99870664 0
-0.0074661095 -0.027334787 0.035394806 -0.0085267341 -0.056697283 0.99835497 0
-0.002380027 -0.027671907 0.035401147 -0.00095193135 -0.056152988 0.99842173 0
0.0023373512 -0.027268635 0.035416156 0.015951544 -0.10789104 0.99403471 0
0.0072504934 -0.026304631 0.035408083 0.12229028 -0.29131255 0.94877928 0
0.010588927 -0.025442978 0.035214614 0.29659164 -0.58193302 0.75722349 0
-0.026722932 -0.021681543 0.035121288 -0.069988839 -0.03739465 0.99684662 0
-0.022184331 -0.022679782 0.035320442 -0.04357345 -0.037369624 0.99835104 0
-0.017605398 -0.022469001 0.0354876 -0.024222132 -0.04282172 0.99878907 0
-0.012319555 -0.022697264 0.035579983 -0.012508078 -0.045317974 0.99889433 0
-0.0074483468 -0.02234338 0.035660807 -0.011802369 -0.052931089 0.99852842 0
-0.0025976317 -0.022479305 0.035698384 -0.0062927911 -0.054456927 0.99849629 0
0.0025018677 -0.022605035 0.035722572 -0.0078360895 -0.06384448 0.9979291 0
0.0076144557 -0.022344062 0.035764832 -0.004496783 -0.058668274 0.99826747 0
0.012339352 -0.022417966 0.035729181 0.039741695 -0.16792485 0.9849984 0
0.016787644 -0.021725906 0.035655655 0.16000684 -0.36955479 0.91532892 0
0.020895971 -0.020426253 0.035425045 0.39763841 -0.78362387 0.47730207 0
-0.030556714 -0.01588013 0.035040867 -0.080894232 -0.034509271 0.9961251 0
-0.027517786 -0.017401807 0.03521977 -0.070082292 -0.038296368 0.99680585 0
-0.022365546 -0.017581454 0.035506945 -0.044989578 -0.037425056 0.99828613 0
-0.017672857 -0.017724892 0.035686303 -0.033223588 -0.040654562 0.99862075 0
-0.012388623 -0.017426135 0.035827931 -0.021288965 -0.044260412 0.99879318 0
-0.0073441714 -0.01753295 0.035919655 -0.015670085 -0.049529389 0.99864972 0
-0.0026986275 -0.017417151 0.035982892 -0.013139241 -0.056442607 0.99831939 0
0.0024910378 -0.01737446 0.036040355 -0.0034197008 -0.056348994 0.99840528 0
0.0074300473 -0.017672561 0.036037814 -0.0032790371 -0.056955468 0.99837136 0
0.012320724 -0.017514713 0.036066249 -0.0056684832 -0.057673801 0.99831945 0
0.01756553 -0.017796226 0.03609835 -0.013257663 -0.058257576 0.99821359 0
0.022492187 -0.017654883 0.036029194 0.10393967 -0.27551144 0.95566207 0
0.027450653 -0.016249804 0.035897758 0.30638388 -0.60169685 0.73762441 0
0.030212563 -0.015374015 0.035400309 0.4274886 -0.79145247 0.43687126 0
-0.03162894 -0.012371253 0.035112739 -0.082916722 -0.045738388 0.99550629 0
-0.027477613 -0.012296089 0.035414152 -0.062738106 -0.039648566 0.99724209 0
-0.022778599 -0.012356556 0.035669062 -0.049347024 -0.033319663 0.99822575 0
-0.017525418 -0.012762967 0.035871178 -0.033764187 -0.033586837 0.99886525 0
-0.012707384 -0.012148212 0.036038522 -0.025367565 -0.037946362 0.99895781 0
-0.0074854912 -0.012372424 0.036152784 -0.024071731 -0.040818725 0.99887651 0
-0.0025086429 -0.012927823 0.036220644 -0.017196652 -0.048291299 0.9986853 0
0.0024938353 -0.012424203 0.036301225 -0.0047735772 -0.051690675 0.99865168 0
0.0076399646 -0.012284417 0.036338989 -0.0067247865 -0.051933747 0.9986279 0
0.012421645 -0.012455021 0.036366858 -0.011566883 -0.060040031 0.99812889 0
0.017527711 -0.012434102 0.036432218 -0.01007159 -0.059948482 0.99815059 0
0.022820273 -0.012656216 0.036479618 -0.018969974 -0.059000943 0.99807775 0
0.027364388 -0.012393611 0.036591433 -0.011429871 -0.069184415 0.99753851 0
0.032581531 -0.012605716 0.036362015 0.17916495 -0.40116131 0.89831483 0
0.037163436 -0.011225259 0.036034789 0.3561534 -0.71266395 0.60437149 0
-0.035106257 -0.0054798345 0.035039175 -0.11399636 -0.021886023 0.99324012 0
-0.032222487 -0.00772152 0.035224218 -0.084453367 -0.028577028 0.99601752 0
-0.027692057 -0.0074327267 0.035556976 -0.060646731 -0.024590764 0.99785632 0
-0.022694465 -0.0073803016 0.035820872 -0.046896376 -0.025533358 0.99857336 0
-0.017157907 -0.0077075255 0.036024213 -0.033304486 -0.025129326 0.9991293 0
-0.012518617 -0.007583722 0.036182385 -0.037921064 -0.023210429 0.99901116 0
-0.0076692416 -0.0074601984 0.03636172 -0.032851055 -0.040919036 0.9986223 0
-0.002333103 -0.0073583671 0.036488689 -0.016532457 -0.042560473 0.99895716 0
0.0024432242 -0.0076873279 0.036535643 -0.010024367 -0.046121292 0.99888551 0
0.0072730705 -0.0073557924 0.036599975 -0.011663035 -0.052950922 0.9985289 0
0.012548747 -0.0073689697 0.036661107 -0.011742296 -0.055824935 0.99837154 0
0.017721217 -0.0076059066 0.036717951 -0.012044784 -0.054958422 0.99841601 0
0.022503821 -0.0073040361 0.036796335 -0.013494211 -0.056954503 0.99828559 0
0.027399363 -0.0075501734 0.036849201 -0.014289658 -0.05069175 0.99861211 0
0.032365579 -0.0076018274 0.036923837 -0.01536701 -0.05315531 0.99846804 0
0.037594449 -0.0075259535 0.036983032 0.0095916176 -0.085451484 0.99629623 0
0.042401969 -0.0076547847 0.03660927 0.25144449 -0.5197283 0.81649137 0
0.047309052 -0.0060020271 0.036154002 0.42219901 -0.80669558 0.4135097 0
-0.035987027 -0.0012611314 0.035058971 -0.085111693 -0.021285949 0.996144 0
-0.032509085 -0.0025776112 0.035313226 -0.080203287 -0.011572234 0.99671137 0
-0.027340353 -0.0027000934 0.035677351 -0.060415898 -0.018866457 0.99799502 0
-0.022862488 -0.0023224852 0.035928726 -0.047883607 -0.01799651 0.99869078 0
-0.017592859 -0.0024545095 0.036133468 -0.037202314 -0.025977997 0.99897003 0
-0.012552673 -0.0024260827 0.036335584 -0.044502944 -0.036322203 0.99834877 0
-0.0073479819 -0.00260356 0.036551252 -0.034955774 -0.034325778 0.99879915 0
-0.0024105506 -0.0026397668 0.036677673 -0.018067559 -0.03493743 0.99922615 0
0.0021930907 -0.0027126486 0.036751892 -0.014809144 -0.04003083 0.99908864 0
0.0074299206 -0.0023912268 0.036842898 -0.014840533 -0.046853781 0.99879152 0
0.01272364 -0.0024836366 0.036919855 -0.012363847 -0.047308512 0.99880385 0
0.017518565 -0.0025459745 0.036968552 -0.013344504 -0.046716243 0.99881911 0
0.022444947 -0.0025442177 0.037036613 -0.011845293 -0.048168238 0.99876899 0
0.027541291 -0.0025956645 0.037088603 -0.012697087 -0.046382982 0.99884301 0
0.032363124 -0.002462236 0.037167966 -0.016241832 -0.045219664 0.99884498 0
0.037497666 -0.0026674166 0.037230134 -0.013781476 -0.047748748 0.99876428 0
0.042568695 -0.0027931298 0.037307855 -0.021925267 -0.047511019 0.99863005 0
0.047569286 -0.0027465567 0.037348177 0.01281358 -0.10472049 0.9944191 0
0.052347284 -0.0025496723 0.036791954 0.28886285 -0.60271102 0.7438398 0
0.056633838 -0.0010011753 0.036601048 0.42400321 -0.78942317 0.44388327 0
-0.036087021 0.0026384506 0.035099529 -0.074353486 -0.0038024699 0.99722469 0
-0.032320034 0.0024630702 0.035368182 -0.078413889 -0.0095338831 0.99687529 0
-0.027433652 0.0022142059 0.035738233 -0.064415492 -0.0072669503 0.99789679 0
-0.022428913 0.002495667 0.036022879 -0.051909592 -0.01064275 0.99859506 0
-0.01760764 0.0024383115 0.03625397 -0.046468832 -0.021197291 0.99869478 0
-0.012454968 0.0023350404 0.036487203 -0.042825483 -0.023635006 0.99880302 0
-0.0077195307 0.0028394654 0.036689054 -0.035628997 -0.020751126 0.99914962 0
-0.002573892 0.0026911146 0.036835257 -0.023725968 -0.026056273 0.99937886 0
0.0025790695 0.0026762658 0.036951933 -0.020010686 -0.030947054 0.99932069 0
0.0074500698 0.0023858277 0.037033994 -0.017504141 -0.031728141 0.99934328 0
0.012394615 0.0024691301 0.037118629 -0.014466946 -0.035222575 0.99927479 0
0.017607577 0.0024764042 0.037198003 -0.016113529 -0.041120347 0.99902421 0
0.022312075 0.0023297239 0.037258673 -0.011088196 -0.042629026 0.99902952 0
0.02741692 0.0025250695 0.037319988 -0.012880598 -0.044473842 0.99892747 0
0.032432042 0.0026273127 0.037398186 -0.01394038 -0.045037858 0.99888808 0
0.037301648 0.0026898382 0.03746713 -0.016350241 -0.04269987 0.99895412 0
0.042513818 0.0028877591 0.03754444 -0.010574453 -0.038814228 0.99919051 0
0.047221411 0.0024366854 0.03758873 -0.014989353 -0.039755959 0.99909693 0
0.052538559 0.0025381027 0.037673015 -0.021544347 -0.028652968 0.99935716 0
0.057476178 0.0025638929 0.037708569 0.008004698 -0.089835696 0.99592441 0
0.062189896 0.0025423048 0.03698238 0.3172285 -0.67768431 0.66340792 0
0.066554993 0.0042781509 0.036867116 0.46848598 -0.8153522 0.34017873 0
-0.036140703 0.0073137232 0.035091519 -0.076429628 -0.004019544 0.99706686 0
-0.03232706 0.0074888426 0.035407908 -0.078843944 -0.0004663821 0.99688691 0
-0.027464675 0.007690236 0.035721332 -0.060358807 0.0041898605 0.99816787 0
-0.022374623 0.0074560698 0.036047257 -0.061196234 -0.00056926982 0.99812561 0
-0.017536726 0.0074941157 0.036328312 -0.05531121 -0.0058397893 0.99845207 0
-0.012457249 0.0074993852 0.036572549 -0.04321453 -0.01147086 0.99899995 0
-0.0073409304 0.007513877 0.036778603 -0.037127964 -0.013631006 0.99921757 0
-0.0024938744 0.00738056 0.036941044 -0.028703654 -0.019286985 0.99940187 0
0.0023967784 0.0073873852 0.037074845 -0.028094225 -0.023983702 0.99931753 0
0.0076024593 0.0075559523 0.037196547 -0.02182458 -0.02687359 0.99940056 0
0.012578741 0.0073830956 0.037295077 -0.019607147 -0.032438282 0.99928147 0
0.017688734 0.0075076274 0.037386447 -0.014347744 -0.034781381 0.99929196 0
0.022725573 0.0078588799 0.037482344 -0.016492752 -0.035942711 0.99921775 0
0.027578268 0.0075175399 0.037537958 -0.010262591 -0.039954837 0.99914879 0
0.032308508 0.007438472 0.037589267 -0.014117731 -0.037197348 0.99920815 0
0.037197098 0.0074340743 0.037653103 -0.012327941 -0.034977227 0.99931204 0
0.042501017 0.0074003572 0.037710588 -0.012219639 -0.035038613 0.99931127 0
0.047850322 0.0076201586 0.037777737 -0.013072911 -0.027865849 0.9995262 0
0.052605096 0.0075254431 0.037831753 -0.010161352 -0.030096112 0.99949539 0
0.057490036 0.007827796 0.037903003 -0.016979652 -0.017793415 0.99969757 0
0.062669002 0.0075703487 0.038036104 -0.041354913 -0.0031386856 0.99913955 0
0.06739971 0.0072757029 0.037149843 0.7014479 0.10999085 0.70418245 0
-0.03644675 0.012091441 0.035083029 -0.079555251 0.0020377601 0.99682844 0
-0.032636143 0.012527003 0.035350114 -0.068027332 0.015872844 0.99755716 0
-0.027607275 0.012437874 0.035696656 -0.075452834 0.0043212269 0.99713999 0
-0.022685504 0.012528613 0.036035694 -0.060326688 0.0066116033 0.99815679 0
-0.017412091 0.012619468 0.036324613 -0.053655948 0.0064866873 0.99853837 0
-0.012208374 0.012538112 0.036604077 -0.052444875 0.0046723345 0.99861288 0
-0.0074699158 0.012281474 0.036823284 -0.041681401 -0.0075955982 0.99910206 0
-0.0026887534 0.012728063 0.037008099 -0.036358122 -0.0073602982 0.99931175 0
0.0023534703 0.012560088 0.037171375 -0.02957456 -0.011950106 0.9994911 0
0.0075805588 0.012484697 0.037313625 -0.023718987 -0.01978345 0.99952292 0
0.012151232 0.012402206 0.037412435 -0.017997524 -0.020284723 0.9996323 0
0.017637121 0.012642007 0.037535496 -0.022353215 -0.025271889 0.9994306 0
0.022518858 0.012535104 0.037624523 -0.019478228 -0.027680844 0.99942702 0
0.027648214 0.012499512 0.037707541 -0.017425159 -0.028226718 0.99944973 0
0.032215487 0.012630114 0.037765466 -0.0060486328 -0.028603496 0.99957252 0
0.037456077 0.012482229 0.037811756 -0.011390925 -0.028724609 0.99952239 0
0.042431053 0.012335674 0.037864953 -0.010887805 -0.026342247 0.99959373 0
0.04747244 0.012664224 0.037899449 0.00020818294 -0.01643631 0.99986488 0
0.052276094 0.012385931 0.037916992 -0.0066843317 -0.0034415163 0.99997175 0
0.057479169 0.012139458 0.037924968 -0.0020777527 0.0017069809 0.99999642 0
0.062832437 0.012617489 0.037680704 0.22709253 0.14836435 0.96250552 0
0.06579785 0.011839201 0.036410775 0.77178931 0.47864473 0.41861725 0
-0.036062025 0.016967271 0.035064559 -0.065760396 0.028161397 0.99743795 0
-0.032484517 0.01748237 0.035282817 -0.072535947 0.018105695 0.99720144 0
-0.027571689 0.017195752 0.035644904 -0.062228624 0.013975639 0.99796408 0
-0.022487087 0.01785082 0.035964407 -0.064829662 0.018757382 0.99772006 0
-0.017256431 0.017413726 0.036290832 -0.060557395 0.0085648578 0.998128 0
-0.012474478 0.0173644 0.036580853 -0.055289857 0.0036382119 0.99846369 0
-0.0077921175 0.017472211 0.036807176 -0.047813162 0.0073762354 0.99882901 0
-0.0022627688 0.01743958 0.037050366 -0.038159054 0.00053481845 0.99927157 0
0.0019839364 0.017512083 0.037207913 -0.03322538 -0.0088268118 0.9994089 0
0.0074379249 0.01765573 0.037375946 -0.030029897 -0.0097403042 0.99950159 0
0.012744674 0.017267389 0.037510335 -0.022512166 -0.014629453 0.99963951 0
0.017283032 0.017108448 0.037625488 -0.025629727 -0.020341195 0.99946445 0
0.022174494 0.017413871 0.03773028 -0.02066404 -0.020820621 0.99956965 0
0.027425295 0.017395299 0.037832089 -0.013938472 -0.02010362 0.99970067 0
0.032673828 0.017605079 0.037889596 -0.0062487982 -0.0237967 0.99969727 0
0.037338793 0.01729288 0.03793171 -0.013996054 -0.020735031 0.99968708 0
0.042439856 0.017560741 0.037981939 -0.0053785588 -0.017508306 0.99983227 0
0.047633879 0.017542237 0.037984978 0.0052269669 -0.01085936 0.9999274 0
0.052603681 0.017334308 0.037939917 0.0038678567 -0.00052363152 0.99999237 0
0.057510767 0.017474927 0.037870511 0.015828451 0.011037095 0.9998138 0
0.062307991 0.017530657 0.036710389 0.67193896 0.35955298 0.64747185 0
-0.032257657 0.022256723 0.03516278 -0.071269304 0.031624813 0.99695563 0
-0.027690426 0.022530386 0.035507403 -0.077366844 0.035165586 0.99638236 0
-0.022449529 0.022355076 0.035863787 -0.05965345 0.025621587 0.99789029 0
-0.01774119 0.022312757 0.036199272 -0.072889939 0.012631398 0.99726003 0
-0.012308773 0.022588883 0.036535852 -0.055971168 0.015011632 0.99831957 0
-0.0074486141 0.022512479 0.036784492 -0.04954049 0.010166419 0.99872035 0
-0.002566471 0.02264725 0.037013404 -0.04442247 0.00014687711 0.99901283 0
