# .PCD v0.7 - Point Cloud Data file format
VERSION 0.7
FIELDS x y z
SIZE 4 4 4
TYPE F F F
COUNT 1 1 1
WIDTH 379
HEIGHT 1
VIEWPOINT 0 0 0 1 0 0 0
POINTS 379
DATA ascii
-0.01018935 -0.010135588 -2.0266925e-06
-0.0054388233 -0.011441606 -5.2045998e-05
0.0010142939 -0.010377908 -2.0269468e-05
-0.010335629 -0.0051265201 -1.5085655e-05
-0.0049337363 -0.0049738311 -0.00018133702
0.0047506057 -0.0046701622 -0.0002002447
0.014427329 -0.0028118151 -0.00014172209
0.021638872 -0.00098279084 -4.3433927e-05
-0.010171436 0.0030285926 -7.8194707e-06
-0.0049045105 0.0049347542 -0.00020193814
0.00499572 0.004923603 -0.0003126802
0.015015855 0.0050313747 -0.00031094425
0.024876453 0.0052507115 -0.00021167574
0.032236528 0.0073945136 -7.6672419e-05
-0.010077592 0.012588759 -4.369846e-06
-0.0047860439 0.014926042 -0.00016844024
0.0050046644 0.015092261 -0.00029450233
0.014914171 0.01484898 -0.00033984464
0.025004251 0.014924205 -0.00028936451
0.03310398 0.014535538 -0.00010070439
-0.060565084 0.029033827 -1.3302817e-05
-0.059574753 0.029205119 -7.9603915e-06
-0.0033107428 0.02428868 -8.5424537e-05
0.0050822655 0.025001423 -0.00017932261
0.015113623 0.0249501 -0.00023492839
0.02493054 0.024798609 -0.00018981697
0.03139944 0.02281367 -5.4647349e-05
-0.060832296 0.031507261 -3.4951659e-05
-0.059707239 0.030516608 -9.2020591e-06
-0.0009799035 0.030631473 -1.0413791e-05
0.0059431414 0.032426804 -5.7352358e-05
0.015279691 0.033966564 -8.6266133e-05
0.022876378 0.032886304 -6.9865753e-05
-0.030210756 -0.040438242 0.0092788069
-0.024941646 -0.042380173 0.0052336017
-0.018411074 -0.040779322 0.0059040408
-0.032487672 -0.034163479 0.0059196628
-0.025397014 -0.035219021 0.001382691
-0.0145411 -0.036020014 0.0028254092
-0.0053438968 -0.033385027 0.0045108865
0.0013661224 -0.030689165 0.0061634192
-0.040552564 -0.020976702 0.0082966629
-0.035638709 -0.024985146 0.0041248775
-0.024978727 -0.024910619 0.0011578669
-0.015100018 -0.024987038 0.00048053096
-0.0049391971 -0.025068911 0.0007019263
0.0052725468 -0.025896812 0.0033157212
0.014455715 -0.023092644 0.0050625284
0.020717086 -0.02042578 0.0070443545
-0.042839978 -0.01450996 0.0055988636
-0.034988917 -0.015234111 0.0020402926
-0.025046358 -0.014996974 0.0013820574
-0.014992466 -0.015044331 0.00033505866
-0.0050600911 -0.016294872 0.00013867901
0.0052258032 -0.015005053 0.00042261579
0.01501052 -0.014957177 0.0010076233
0.024985002 -0.015749456 0.003899205
0.034062162 -0.012296959 0.0056650876
-0.050599422 -0.0011138179 0.0080652982
-0.045870576 -0.0049858494 0.0037272817
-0.035004843 -0.0049994569 0.0019368397
-0.025004307 -0.0049828412 0.0014964603
-0.015351168 -0.0049494766 0.00035821582
0.0078152856 -0.0092949076 3.5475914e-05
0.015654523 -0.0075226319 0.00017239779
0.025153365 -0.0054122885 0.00040051984
0.035423957 -0.0053762165 0.0013840431
0.044787228 -0.0049790824 0.0043287575
0.052750792 -0.0015777913 0.0059614014
-0.052932963 0.0055206888 0.0049611568
-0.045031644 0.0048939507 0.001086565
-0.034974925 0.0049504149 0.0016964803
-0.024876619 0.004973019 0.001405375
-0.015101979 0.0051245857 0.00037395165
0.028765207 0.00063923467 3.5969446e-05
0.035995152 0.004124138 0.00013815508
0.044929992 0.0048899273 0.00044033493
0.055526026 0.004221756 0.002605272
0.06374386 0.0062513994 0.0056986143
-0.060649108 0.018603284 0.0071622324
-0.055989034 0.014746238 0.0030550414
-0.045006048 0.015098301 0.00091442629
-0.034963597 0.014947372 0.0015593698
-0.024833065 0.014985168 0.0012495705
-0.014932291 0.014925686 0.00036251999
-0.0094651189 0.018315654 1.9948915e-05
0.037863385 0.015834654 7.7690143e-05
0.045000613 0.015038072 0.00046709931
0.055023573 0.01508434 0.0017721495
0.063531958 0.014455933 0.0058248159
-0.063126452 0.02518414 0.0044808006
-0.054808471 0.024930043 0.0002386152
-0.04501934 0.024981022 0.0008332479
-0.035078954 0.025099203 0.0013973453
-0.025071528 0.025010459 0.0010492723
-0.014963967 0.024958063 0.00033613708
-0.0078274067 0.02597159 7.0322916e-05
0.029357689 0.029590899 2.2736109e-05
0.035908595 0.025496468 0.00023902142
0.044987388 0.024986571 0.0011598128
0.055674743 0.025129262 0.0042872899
0.060868915 0.021722673 0.0073960456
-0.063660331 0.033517133 0.0043854606
-0.055461761 0.036065906 0.0024557514
-0.045134582 0.034990754 0.00076455332
-0.035020355 0.03492621 0.0012009365
-0.024952326 0.034950666 0.00087699771
-0.015008034 0.035037227 0.00045880082
-0.0051176995 0.035037331 0.00018480189
0.0044442355 0.037001166 8.9062654e-05
0.014279143 0.038809475 2.7234322e-05
0.026182899 0.036418289 0.0001285145
0.034978643 0.035031211 0.00068524492
0.045095559 0.035041094 0.0021401681
0.053189147 0.034572762 0.0058487668
-0.05166268 0.040869582 0.0054242029
-0.044686653 0.043860823 0.0043469449
-0.035590094 0.045951828 0.0027859535
-0.025011638 0.04509813 0.0010256942
-0.01498208 0.044955112 0.00079041906
-0.0048616175 0.044959474 0.0005955192
0.005056689 0.04498557 0.00037665188
0.01496297 0.045030806 0.00021775614
0.025066847 0.045116499 0.00039237837
0.035042174 0.045084156 0.0013272461
0.045660175 0.04515845 0.0044739246
0.050646011 0.041316025 0.007552396
-0.032129955 0.051074736 0.0055407016
-0.024723545 0.053882588 0.0044363644
-0.015547443 0.056083515 0.0029530886
-0.0049650311 0.054899555 0.001203996
0.0049727815 0.055093631 0.0009310476
0.014985296 0.054934107 0.00065750314
0.024960868 0.055059578 0.00085521775
0.035071798 0.05502959 0.0021214762
0.043067046 0.054543585 0.0059115449
-0.01215108 0.061043337 0.0056596966
-0.0047640111 0.063931301 0.0047299308
0.0044540609 0.065886043 0.0032262707
0.014920175 0.064991258 0.0013431126
0.02497936 0.064905718 0.0014095336
0.035637945 0.065099873 0.0045271474
0.040560529 0.061077919 0.0075214412
0.0077848807 0.071032636 0.0060866615
0.015306944 0.07386364 0.0049334695
0.024654448 0.076067276 0.0037177717
0.03268851 0.074485287 0.0058256621
0.028387444 0.080941103 0.0063792397
0.030336669 0.080490753 0.0075718802
-0.030821405 -0.041485962 0.014955606
-0.024932725 -0.043138895 0.014876197
-0.017948365 -0.04097103 0.015287289
-0.034130655 -0.035140477 0.014872238
-0.013069127 -0.038503889 0.015016091
-0.0048753358 -0.034292702 0.01499594
0.0017032058 -0.03085806 0.015081842
-0.04099603 -0.021804092 0.014799549
-0.038422748 -0.026833151 0.015059031
0.006650866 -0.028220939 0.014968986
0.015039909 -0.023686511 0.014953339
0.020883331 -0.020499893 0.01491025
-0.044515211 -0.014896214 0.014906913
0.025927994 -0.017699337 0.014997192
0.034883119 -0.012653243 0.015276168
-0.051099073 -0.0019644108 0.014984879
-0.048484009 -0.0070689451 0.01497703
0.039782424 -0.0098536927 0.013757955
0.04499501 -0.0069094738 0.015087786
0.053523961 -0.0020113096 0.015025325
-0.054655768 0.0050091175 0.014996316
0.05849364 0.00091706018 0.014656953
0.065199248 0.005329242 0.015085382
-0.061187327 0.017695189 0.014992495
-0.058611806 0.012689259 0.014960333
0.065678447 0.014962405 0.014969691
-0.064888179 0.025050694 0.014997643
0.058804721 0.027686205 0.014604677
0.061519191 0.022808833 0.015262491
-0.064096496 0.033959061 0.01497569
-0.05704014 0.038427766 0.015004164
0.055010267 0.034931067 0.01491296
-0.052016649 0.041073985 0.015214738
-0.045108303 0.044695377 0.015035919
-0.037485465 0.048643902 0.015050132
0.048499353 0.047169153 0.014727784
0.051119037 0.04230373 0.015339545
-0.032475557 0.051204924 0.014920915
-0.024982382 0.054907192 0.015026295
-0.017335374 0.058707971 0.015019391
0.044393983 0.055068739 0.014975159
-0.012362367 0.061214685 0.015113627
-0.0050420221 0.064900585 0.015022095
0.0026251469 0.068708859 0.014850765
0.038262371 0.066694111 0.014886764
0.040895112 0.061757047 0.015264138
0.0076146163 0.071174547 0.015048682
0.014923283 0.07466346 0.015006467
0.023500904 0.078512438 0.014876589
0.033776384 0.075097397 0.015100943
0.028469989 0.080623545 0.015245317
0.030651301 0.080769107 0.015182625
-0.030509936 -0.040864285 0.023997171
-0.02540662 -0.04311303 0.024983263
-0.017868631 -0.041082129 0.024834255
-0.033492308 -0.035049319 0.025049547
-0.012807953 -0.038517725 0.024996344
-0.0050210757 -0.03446871 0.024867496
0.0017756291 -0.030893926 0.025052382
-0.040716987 -0.021406401 0.024555922
-0.03807747 -0.026379338 0.025160333
0.0067607779 -0.028211268 0.025145572
0.01499919 -0.023771394 0.024924114
0.021001652 -0.020521164 0.024949593
-0.044072542 -0.014873859 0.025023546
0.026039178 -0.017720485 0.025029436
0.035135876 -0.012719095 0.025043922
0.04011663 -0.010066157 0.027847171
-0.050952442 -0.001673934 0.024773626
-0.048300087 -0.0067411335 0.025069911
0.039969347 -0.0099662226 0.021806924
0.045050483 -0.0072394563 0.024888009
0.054126281 -0.0022116434 0.024971446
-0.054305531 0.0048824241 0.024882987
0.059058126 0.00055573985 0.024363047
0.065440655 0.0048885318 0.025075756
-0.06106396 0.017906275 0.024634635
-0.058468591 0.012986268 0.025247624
0.065543145 0.015079675 0.025099618
-0.064750172 0.025051823 0.02494383
0.058852684 0.027804397 0.025201922
0.061540034 0.022840764 0.024734735
-0.0645658 0.034154668 0.025082231
-0.057487171 0.038591802 0.024863981
0.055027034 0.034961365 0.02507179
-0.052460853 0.041278783 0.025149532
-0.045016967 0.045194667 0.025034349
-0.037883744 0.048879806 0.024860671
0.048454221 0.047129795 0.024977436
0.051172249 0.042194225 0.024886053
-0.032780569 0.051504366 0.025133016
-0.025016358 0.05543524 0.025008302
-0.017969897 0.058954783 0.024560936
0.044262037 0.055070531 0.024845613
-0.012933558 0.061528642 0.025086081
-0.0050232681 0.065501831 0.025041031
0.0020871598 0.069027938 0.024605565
0.03810332 0.06649974 0.025114892
0.040742677 0.061498258 0.024800545
0.0070562321 0.071535446 0.0251932
0.014903786 0.075370558 0.024963111
0.022636121 0.078940064 0.02457072
0.033603162 0.074954905 0.025055597
0.027533131 0.080780737 0.025777519
0.030624829 0.080816753 0.024122871
-0.024961855 -0.042423937 0.032641154
-0.018029109 -0.040875334 0.032480329
-0.032329436 -0.034077372 0.032471668
-0.025103411 -0.035030238 0.034576602
-0.014767339 -0.035524927 0.034240633
-0.0054379534 -0.033347469 0.033464503
0.0014800273 -0.030785993 0.03219837
-0.04038303 -0.020589428 0.031128293
-0.034998074 -0.024755429 0.033429641
-0.024989164 -0.024931811 0.035055771
-0.015070789 -0.025037721 0.035395648
-0.0049787685 -0.025097648 0.035514545
0.0050828001 -0.025546281 0.034638997
0.014505743 -0.023145594 0.0338002
0.020914497 -0.020574637 0.032844897
-0.042530797 -0.014366836 0.03243484
-0.035099983 -0.015015455 0.034553044
-0.024989534 -0.015069574 0.035412394
-0.0149951 -0.015005582 0.03582193
-0.0049509448 -0.014979848 0.036046386
0.0050492869 -0.015133255 0.036162544
0.01494557 -0.014955232 0.036252785
0.025148269 -0.015598179 0.035020988
0.034607753 -0.012536365 0.034016594
0.040211938 -0.010110041 0.033026803
-0.050499264 -0.0010741983 0.031351421
-0.045000337 -0.0049730577 0.03324553
-0.035053115 -0.0050480417 0.034960628
-0.024808045 -0.0049749198 0.035690762
-0.014990808 -0.004974368 0.036145706
-0.0049805259 -0.004924845 0.036452439
0.0049331435 -0.0050203796 0.036663167
0.014992008 -0.0051086275 0.036796834
0.025043095 -0.0050567412 0.03692745
0.034988649 -0.0050032493 0.037060924
0.044772234 -0.0056457571 0.035185367
0.054073039 -0.0021996724 0.03426503
-0.05278321 0.0057816361 0.03239676
-0.044984601 0.0050255978 0.034231987
-0.035037573 0.0049139219 0.035135068
-0.024926048 0.0049506105 0.035826903
-0.014996528 0.0049733045 0.036370218
-0.0051075486 0.0050287377 0.036748346
0.0049515837 0.005048065 0.037027072
0.014925416 0.0050226431 0.037222285
0.025064636 0.0050262744 0.03737716
0.034985676 0.005104729 0.037518252
0.044860505 0.0050731408 0.037645459
0.055431072 0.0046187355 0.037376571
0.064831458 0.0052314377 0.03516135
-0.060682729 0.018808218 0.031279609
-0.055133585 0.015154215 0.033071961
-0.045037765 0.015001447 0.034380656
-0.035030179 0.014944663 0.035087381
-0.024969146 0.015097639 0.035782784
-0.014958159 0.015046257 0.036408793
-0.0050125443 0.014965191 0.036879346
0.0050194492 0.014903565 0.037211612
0.015022651 0.015052386 0.037482031
0.024874382 0.015000919 0.03767734
0.034939386 0.014981613 0.037823595
0.045045007 0.015065903 0.037899878
0.055171832 0.015076115 0.037871756
0.063863732 0.014640586 0.034918051
-0.062838875 0.025627637 0.032186221
-0.055046156 0.024989611 0.033563435
-0.045044545 0.025061905 0.034215938
-0.035049435 0.02499098 0.034870856
-0.025017681 0.025009446 0.035610482
-0.015079857 0.024986267 0.036280941
-0.0048806858 0.025038008 0.036852341
0.0049376572 0.02506116 0.037272412
0.015063348 0.024965249 0.037585326
0.02497324 0.024971742 0.037822895
0.034927938 0.024967765 0.037953716
0.044917244 0.02512317 0.03793741
0.055699512 0.025435779 0.03631698
0.061083581 0.021949131 0.033309888
-0.063270546 0.033438805 0.032103688
-0.055189941 0.035256695 0.032956284
-0.04492826 0.034957863 0.033772044
-0.035060529 0.035044961 0.034426894
-0.024918342 0.035051707 0.035266113
-0.015099548 0.034934934 0.036032658
-0.0050149038 0.034979567 0.036682513
0.0048541627 0.035108197 0.037210293
0.015011 0.035047095 0.037584793
0.024891306 0.035043437 0.037822518
0.034994297 0.034914672 0.03790918
0.045059688 0.034921974 0.037755828
0.053455655 0.034555938 0.034530692
-0.052376024 0.041119944 0.031755414
-0.04438369 0.043758955 0.032639876
-0.035193663 0.045354065 0.033597007
-0.024996582 0.044943027 0.034708034
-0.014995432 0.044870246 0.03562995
-0.0050419979 0.045020856 0.036410265
0.0050415518 0.044975203 0.037037525
0.015060869 0.044946875 0.037472747
0.024925586 0.045044146 0.037692495
0.035027143 0.045074631 0.037721328
0.045768082 0.0450898 0.035828143
0.050786134 0.041359905 0.03284511
-0.032761127 0.051436517 0.032121282
-0.024523035 0.054199316 0.033179414
-0.01530272 0.055423886 0.03465382
-0.0050037717 0.054984815 0.035931785
0.0048845038 0.055018581 0.036661815
0.01506782 0.054990359 0.037231404
0.024962826 0.055026691 0.037511248
0.035050817 0.055031944 0.037408851
0.042931356 0.054542445 0.034297254
-0.013037596 0.061537106 0.032756228
-0.0046940618 0.064438544 0.033941273
0.0045822361 0.065487042 0.035600986
0.015051232 0.065047331 0.036786899
0.024982046 0.065003477 0.037210058
0.035643946 0.064924061 0.035286807
0.040490456 0.06078279 0.032008696
0.0066675907 0.071710616 0.033275384
0.015396372 0.074759796 0.034611687
0.024641192 0.07570298 0.036130227
0.032468215 0.074436605 0.03381063
0.026717709 0.081103034 0.033366613
0.030193904 0.080409557 0.031251997
