# .PCD v0.7 - Point Cloud Data file format
VERSION 0.7
FIELDS x y z
SIZE 4 4 4
TYPE F F F
COUNT 1 1 1
WIDTH 371
HEIGHT 1
VIEWPOINT 0 0 0 1 0 0 0
POINTS 371
DATA ascii
-0.07117857 -0.05093028 -0.0015159098
-0.065018266 -0.052127879 -0.0019276802
-0.055001933 -0.051862359 -0.0016297
-0.044887822 -0.051327575 -0.0017159275
-0.035228353 -0.050821491 -0.0016654006
-0.025155714 -0.050509509 -0.001241072
-0.015780082 -0.050259627 -0.0010464876
-0.0094561502 -0.050088357 -0.00031248102
-0.07423225 -0.044623766 -0.0017842016
-0.065087788 -0.044975832 -0.0012487542
-0.055070993 -0.045103371 -0.0011172794
-0.04499653 -0.045016803 -0.0010835059
-0.035011604 -0.045132238 -0.0012257479
-0.025199445 -0.045216348 -0.0013766936
-0.014879262 -0.045109149 -0.0014352365
-0.0049895993 -0.045452826 -0.0014249388
0.0046357391 -0.044118609 -0.0013219725
0.011028998 -0.041733351 -0.00065332756
-0.075592481 -0.03495476 -0.0016053828
-0.065017261 -0.035074126 -0.00074818241
-0.054928109 -0.035105627 -0.00038205128
-0.045036402 -0.034988996 -0.00023013081
-0.035001069 -0.035954587 -0.00019313165
-0.024879923 -0.035172526 -0.00019447252
-0.014880962 -0.03507217 -0.00035555064
-0.0051335795 -0.035144668 -0.00058677502
0.0050882711 -0.034979481 -0.00093176466
0.012703508 -0.034323581 -0.00096669968
-0.080434635 -0.023395518 -0.0005981893
-0.075390577 -0.025109883 -0.0013202134
-0.065079853 -0.024996048 -0.0007963177
-0.054975029 -0.024882767 -0.00033413619
-0.045120519 -0.024823377 -0.00010884385
-0.037052978 -0.021833085 -3.6358811e-05
-0.02297426 -0.024032107 -5.0519633e-05
-0.015000436 -0.025036113 -0.00019578073
-0.0049553025 -0.025085652 -0.00053876528
0.005075403 -0.024948729 -0.0010186874
0.012788614 -0.024943501 -0.0017455501
-0.080461748 -0.017396972 -0.00046104222
-0.074913524 -0.015036757 -0.00091642753
-0.065074317 -0.0150137 -0.00092718704
-0.055049267 -0.015047999 -0.000595077
-0.044889148 -0.015109043 -0.00042208339
-0.035060465 -0.015047973 -0.00038021195
-0.025059419 -0.014909919 -0.00041932418
-0.014799495 -0.014911425 -0.00052813377
-0.0048624622 -0.014965904 -0.00080070843
0.0051310328 -0.014963402 -0.0014003774
0.012323242 -0.015199982 -0.001966814
-0.072692357 -0.0079505276 -0.00073440949
-0.064579576 -0.0061898879 -0.0011365657
-0.054796901 -0.0053803357 -0.0015111794
-0.045123059 -0.0051528993 -0.0015282858
-0.034999494 -0.0047474513 -0.0014782842
-0.024953909 -0.0045553488 -0.0014738076
-0.015231317 -0.0044964068 -0.0015324748
-0.0050020772 -0.0049981032 -0.0015442207
0.0046674428 -0.0052359123 -0.0019192885
0.011239219 -0.0076584634 -0.0017465515
-0.012936054 0.00022032007 -0.0011657027
-0.0045864345 0.00062840566 -0.0014275811
0.00099644635 0.00052267156 -0.0015251304
-0.071505487 -0.050951604 0.0050972872
-0.064838201 -0.052992646 0.0050630393
-0.055100784 -0.052865442 0.0048840619
-0.044917785 -0.052126564 0.0049254838
-0.034990143 -0.051466472 0.0049790503
-0.025076872 -0.05089923 0.0050840648
-0.015151474 -0.050383873 0.0050680414
-0.0084276609 -0.050068419 0.0048480523
-0.076677203 -0.045264143 0.0049301921
-0.01123728 -0.049960844 0.0014723887
-0.0040107588 -0.049764454 0.0050197877
0.0051667034 -0.047603071 0.005037026
0.011748703 -0.042504288 0.0051449779
-0.080235764 -0.032324333 0.0057063778
-0.079570644 -0.037016742 0.0044191224
-0.040197019 -0.030358609 3.3345859e-06
-0.034467746 -0.031058868 4.5646506e-05
-0.028699437 -0.030858329 1.9563362e-05
0.014777387 -0.035144929 0.0049268226
-0.080715828 -0.02498666 0.0050969282
-0.040413361 -0.027886814 9.1528791e-06
-0.034491379 -0.025942199 5.6376994e-05
-0.026902778 -0.02580397 3.3930082e-05
0.014873036 -0.024976712 0.005009009
-0.080682211 -0.017090937 0.0050806124
-0.078877427 -0.012012039 0.0047726645
0.013750644 -0.014894782 0.0049743336
-0.074048698 -0.0066372026 0.0050812769
-0.064973809 -0.0029596107 0.0049542394
-0.054950848 -0.0022723717 0.0049973079
-0.044929743 -0.0017932322 0.0050103506
-0.03501749 -0.0012136996 0.0049953493
-0.02498075 -0.00046423057 0.0049887402
-0.019067848 -9.551394e-05 0.0028069548
0.0064588888 -0.0024697988 0.0050270897
0.011561594 -0.0077310037 0.0047984254
-0.014490448 0.00025334061 0.0053242161
-0.0049644187 0.00086610083 0.0050214361
0.0012681871 0.00046580777 0.004963283
-0.07152769 -0.050861143 0.015076725
-0.065039545 -0.052852556 0.014919414
-0.05508339 -0.052879963 0.015005806
-0.044906426 -0.052126553 0.0149377
-0.035065554 -0.051402647 0.014953946
-0.025107389 -0.050746761 0.014983324
-0.015284563 -0.050235242 0.014895002
-0.009696153 -0.050013527 0.011041827
-0.076827832 -0.045267679 0.015106025
-0.010528289 -0.049974393 0.017778367
-0.0049328725 -0.049691543 0.015082909
0.0052067079 -0.04776556 0.015018347
0.01192061 -0.042646114 0.015063586
-0.08026205 -0.033063799 0.015022089
-0.079772256 -0.037978452 0.014798626
0.014793442 -0.035105076 0.01509864
-0.080849394 -0.025023315 0.015036636
0.014989041 -0.024894143 0.015058155
-0.080709435 -0.017151084 0.01490918
-0.078962453 -0.012027494 0.015036369
0.013951873 -0.014820587 0.015077857
-0.0742523 -0.0065305359 0.014976791
-0.06497176 -0.0029608419 0.015038738
-0.054813933 -0.00229499 0.015040411
-0.044953 -0.0018297517 0.01507445
-0.034957383 -0.0012819016 0.015029786
-0.024917493 -0.0005460548 0.014957539
-0.018458888 -0.00011104858 0.016126456
0.0063802707 -0.0023964888 0.015023694
0.011398728 -0.0076444973 0.014954594
-0.013842716 0.00025670044 0.01461934
-0.0050379434 0.00078957394 0.015086472
0.0011720173 0.00038089268 0.014906583
-0.071550481 -0.050884828 0.024938265
-0.065029345 -0.052914996 0.024976084
-0.055049632 -0.052862007 0.024928775
-0.045006752 -0.052074615 0.024893211
-0.034914788 -0.051350836 0.024953732
-0.024933064 -0.05073737 0.024999639
-0.015724143 -0.050224505 0.025233041
-0.076774448 -0.045391981 0.024953477
-0.010722831 -0.049959902 0.024373889
-0.0049969745 -0.049648635 0.02500039
0.0052637793 -0.047828201 0.024958346
0.012038934 -0.042671189 0.02479641
-0.080278553 -0.033435006 0.025092272
-0.079808235 -0.038343117 0.024819449
0.014915217 -0.035019036 0.025031826
-0.080855533 -0.025054293 0.024947444
0.015023426 -0.024907196 0.025076173
-0.080690116 -0.017337782 0.024905648
-0.079093233 -0.012274847 0.025077241
0.013987491 -0.014901709 0.02505015
-0.074375562 -0.0066391975 0.024961269
-0.065033376 -0.0030113321 0.0249491
-0.054929525 -0.0023287553 0.024981191
-0.045106422 -0.0018705099 0.025071971
-0.034974393 -0.0013406004 0.02508579
-0.025026143 -0.00070240087 0.025001794
-0.017265763 -0.00017327015 0.02512268
0.0061108605 -0.0023055272 0.024999127
0.011407445 -0.0076749991 0.024794348
-0.012296243 0.00017542925 0.024760457
-0.0049364828 0.00061722851 0.025029672
0.00093760277 0.00032013134 0.024992535
-0.07149297 -0.050922506 0.034905802
-0.065035574 -0.053003676 0.035017062
-0.054991856 -0.05291833 0.034963608
-0.045007203 -0.052185342 0.035213608
-0.035162453 -0.051482983 0.034946833
-0.025116796 -0.050848067 0.035052136
-0.015084414 -0.050273094 0.035130382
-0.0095075741 -0.050025661 0.037886642
-0.076749809 -0.045481645 0.03508959
-0.0102605 -0.049987424 0.031462174
-0.004808824 -0.049726341 0.034799185
0.0054343571 -0.047864851 0.035026252
0.012057192 -0.042742543 0.035136279
-0.080313571 -0.033404272 0.035031054
-0.079751492 -0.038483847 0.035178006
0.015008138 -0.035008878 0.034985233
-0.080859259 -0.024887199 0.035150338
0.015016329 -0.024987722 0.0350058
-0.08062233 -0.017179035 0.034996618
-0.078998372 -0.012130694 0.034875397
0.013907325 -0.01483887 0.034910377
-0.074172355 -0.006499846 0.034938883
-0.064953066 -0.0030082078 0.034891739
-0.054954395 -0.0023479792 0.03496277
-0.044894438 -0.0018580296 0.034921825
-0.035028577 -0.0013609965 0.035106212
-0.024988689 -0.00074120332 0.034992103
-0.016883938 -0.00021091952 0.035144363
0.0061295349 -0.0023660001 0.03490448
0.011403333 -0.0077123712 0.034963049
-0.011822858 0.00013585348 0.03457211
-0.0049689235 0.00049746712 0.034982044
0.00084255438 0.00020592794 0.034782663
-0.071421541 -0.050965976 0.045053765
-0.065051712 -0.053064685 0.04492908
-0.054934442 -0.053029135 0.045025468
-0.0450585 -0.052325297 0.044965595
-0.034923751 -0.051637094 0.045059565
-0.025136465 -0.051016536 0.044971965
-0.015061455 -0.050447434 0.045057345
-0.0082194507 -0.050098538 0.045907248
-0.076704338 -0.045476355 0.044986449
-0.0034445676 -0.049823917 0.044603512
0.0050075655 -0.048220117 0.044896469
0.012112308 -0.042866148 0.044952344
-0.080300093 -0.032887928 0.044717588
-0.07976643 -0.037819341 0.045072991
0.015051233 -0.035011739 0.04493428
-0.080808207 -0.024974192 0.044958707
0.014980672 -0.024948614 0.045036085
-0.080435537 -0.017428005 0.044893481
-0.079045855 -0.012336817 0.045149025
0.013909793 -0.014794157 0.044864703
-0.074240483 -0.0066119288 0.044928808
-0.065080941 -0.0030288384 0.045050073
-0.054974884 -0.0023487008 0.045003228
-0.044886336 -0.0018478689 0.044984169
-0.03519753 -0.0013630438 0.045056056
-0.025037229 -0.00080586068 0.045025792
-0.016221471 -0.00024524069 0.045230087
0.0060101021 -0.0023994448 0.04495737
0.011443335 -0.0076921089 0.044729516
-0.011268891 7.9159094e-05 0.044495467
-0.0050482722 0.0004486705 0.0450752
0.00074107479 0.00015191421 0.044960547
-0.071460359 -0.05099294 0.055029254
-0.065027624 -0.053068116 0.054893494
-0.054946911 -0.053128991 0.054977797
-0.045022503 -0.052477129 0.054974679
-0.03490958 -0.051823925 0.055075452
-0.025029998 -0.051190995 0.054918177
-0.014971613 -0.050632026 0.054913279
-0.0064137382 -0.050191551 0.05562428
-0.076838233 -0.045337416 0.054936387
-0.0017296395 -0.049899165 0.053821009
0.0051947278 -0.048264399 0.055037286
0.012090573 -0.043088548 0.055055153
-0.080245383 -0.032616902 0.055180393
-0.079732031 -0.03757133 0.055046622
0.015013168 -0.035153728 0.055076376
-0.080766469 -0.024954027 0.054953169
0.0149228 -0.024990296 0.055065088
-0.080520973 -0.017165298 0.05497878
-0.079004757 -0.012192484 0.054776143
0.013951016 -0.015092785 0.054918583
-0.074194238 -0.0065419055 0.055086866
-0.065140024 -0.0030198125 0.055036958
-0.05488712 -0.0023081817 0.054918636
-0.044941187 -0.001828004 0.05491662
-0.034939982 -0.001311679 0.054972794
-0.025075737 -0.00079234503 0.055097725
-0.015638413 -0.00026361819 0.05501648
0.0058156899 -0.0023293265 0.055020254
0.011576587 -0.0077841463 0.054925177
-0.010664133 4.0763553e-05 0.054830447
-0.0049236566 0.00033590954 0.05494611
0.00061379012 0.00011453954 0.054322224
-0.071466431 -0.050995778 0.064972818
-0.06494458 -0.053117011 0.065061837
-0.055022169 -0.053217679 0.064979099
-0.045054879 -0.052672222 0.064897113
-0.035038102 -0.052056801 0.064954028
-0.025101455 -0.051455535 0.065080963
-0.015089765 -0.050883356 0.065023206
-0.005372039 -0.050360456 0.065146536
0.00032391708 -0.050036173 0.068737991
-0.076787651 -0.045406483 0.065051615
-0.00067923433 -0.049872972 0.062440172
0.0054469579 -0.048302177 0.064923927
0.01214007 -0.043056663 0.064892292
-0.080209143 -0.032642059 0.064889789
-0.079712383 -0.037696742 0.065083586
0.015081475 -0.035143893 0.064965196
-0.080699585 -0.025178192 0.064936668
0.014912548 -0.024832005 0.064929202
-0.080569625 -0.017233631 0.065119162
-0.079165846 -0.012267587 0.065101005
0.013928331 -0.015030833 0.064960636
-0.074224412 -0.006482726 0.065149829
-0.064949386 -0.0028178869 0.065069087
-0.055076875 -0.0021661175 0.064906262
-0.044985685 -0.001688972 0.065048419
-0.035096873 -0.0011466525 0.065044492
-0.025071388 -0.00063804619 0.064951956
-0.016345404 -0.0001879676 0.064497381
-0.00095040107 -0.00013502256 0.068815194
0.0056107324 -0.0022738215 0.065118626
0.011568843 -0.0078524901 0.065068498
-0.011799532 8.5057232e-05 0.066411942
-0.0052296282 0.00029326676 0.06485337
0.00029999559 8.3292514e-05 0.062606297
-0.072970293 -0.051941819 0.076506011
-0.064899117 -0.053876132 0.075984597
-0.055094682 -0.05393998 0.075812861
-0.045121171 -0.053579021 0.07591249
-0.034965441 -0.053163886 0.075876556
-0.025001515 -0.052734666 0.075802349
-0.015004851 -0.052322634 0.075871654
-0.0050290562 -0.05179397 0.075682677
0.0037367849 -0.051252719 0.076771706
-0.080929317 -0.042600032 0.077784173
-0.076203533 -0.045410886 0.075607814
-0.065012977 -0.045003071 0.076228648
-0.054878812 -0.044949986 0.075870968
-0.045020621 -0.044963337 0.075709671
-0.035170872 -0.044951018 0.075643249
-0.024804093 -0.044731539 0.075764157
-0.015163119 -0.045058679 0.076256387
-0.0050092209 -0.044967376 0.077031501
0.0056887865 -0.046252366 0.075873978
0.013054505 -0.044051658 0.076049216
-0.08142864 -0.034667112 0.076506019
-0.07570982 -0.035389174 0.075749606
-0.064932585 -0.035082247 0.075868204
-0.055009253 -0.035069324 0.075513825
-0.04506278 -0.035140987 0.075300097
-0.034918845 -0.035070822 0.075214207
-0.024801372 -0.034772683 0.075873516
-0.015125095 -0.034941729 0.075255431
-0.0046988106 -0.035247225 0.076161422
0.0051967781 -0.034946375 0.07673268
0.015196234 -0.035016615 0.076004796
-0.081869639 -0.02497378 0.076055154
-0.074991532 -0.024860781 0.076387204
-0.06496302 -0.02509493 0.075880744
-0.054943275 -0.024939734 0.075528488
-0.044972587 -0.025026862 0.075215824
-0.035108026 -0.024976619 0.075031884
-0.024612051 -0.025202956 0.075332515
-0.01567968 -0.024546819 0.075548492
-0.0050481111 -0.024779744 0.075414643
0.0050919121 -0.024890846 0.07686542
0.015249127 -0.025029344 0.075971812
-0.081591904 -0.015560724 0.076430328
-0.075620987 -0.014538436 0.076097608
-0.065047286 -0.015010092 0.07617373
-0.054923464 -0.015026079 0.075791195
-0.044912126 -0.015014733 0.075526066
-0.03516091 -0.015010681 0.075367272
-0.024981299 -0.01486492 0.075264543
-0.014424114 -0.015393548 0.075774342
-0.0054935217 -0.014701819 0.076052524
0.0050595626 -0.01511986 0.076412387
0.014638162 -0.014997073 0.075889274
-0.080571033 -0.0090327691 0.078341998
-0.074615911 -0.0057282397 0.075938158
-0.065201871 -0.0033926708 0.075908534
-0.055037595 -0.003133443 0.075563803
-0.045033749 -0.0031053615 0.07532078
-0.03520925 -0.0032702584 0.074950963
-0.025016246 -0.003631413 0.074813083
-0.015173043 -0.0047788927 0.075607195
-0.0048983567 -0.0049170824 0.076232702
0.0056279995 -0.0037877122 0.07538487
0.012343404 -0.0064511043 0.076178171
-0.062094532 0.00018892334 0.078409702
-0.054283634 0.00041165602 0.078355007
-0.044673722 0.00063607941 0.078097753
-0.034686428 0.0007807808 0.077739045
-0.024880758 0.0010611834 0.077412583
-0.014854721 0.0011851649 0.076034524
-0.0050237067 0.0013687589 0.075811103
0.0031874829 0.00098066288 0.076673515
-0.081977539 -0.035780329 0.080044836
