# .PCD v0.7 - Point Cloud Data file format
VERSION 0.7
FIELDS x y z
SIZE 4 4 4
TYPE F F F
COUNT 1 1 1
WIDTH 290
HEIGHT 1
VIEWPOINT 0 0 0 1 0 0 0
POINTS 290
DATA ascii
-0.026486926 -0.051405199 -2.0199028e-05
-0.026786653 -0.045050159 -7.1414303e-05
-0.030189691 -0.033612072 -2.3228495e-05
-0.027992826 -0.035906535 -6.0134214e-05
0.012664576 0.058321308 -8.0538457e-06
0.017438009 0.06272956 -1.5152216e-05
0.020805262 0.065433145 -2.2879154e-05
-0.022733118 -0.092323683 0.0077679311
-0.015880235 -0.092678905 0.0073671336
-0.030728433 -0.081525214 0.0091469316
-0.025135554 -0.084819287 0.0057023591
-0.014501698 -0.085134961 0.0052471561
-0.0094615705 -0.083409332 0.0088260937
-0.032283932 -0.074265338 0.0073467307
-0.025341619 -0.07518094 0.00284498
-0.014800111 -0.075016208 0.0035745332
-0.008773447 -0.074677959 0.0078257937
-0.033884875 -0.064754009 0.0057076039
-0.025071638 -0.065073654 0.00099713658
-0.014827425 -0.065054297 0.0025836804
-0.0084750047 -0.065004431 0.0073093008
-0.034841076 -0.054992549 0.0048086327
-0.024792125 -0.055254564 0.00026773618
-0.014880259 -0.055065118 0.0023875453
-0.0087299393 -0.055044223 0.0073335897
-0.04008228 -0.041804384 0.0098087499
-0.035604127 -0.044894148 0.0042604795
-0.024098793 -0.044994447 0.00027866755
-0.014927539 -0.044977479 0.0027185001
-0.0089992415 -0.044978879 0.007706889
-0.040266875 -0.034542654 0.0095745791
-0.035718154 -0.035138648 0.0038364453
-0.023513496 -0.034646351 0.00034685081
-0.014801367 -0.0350229 0.0030770933
-0.0090169134 -0.034955841 0.0078298962
-0.0401535 -0.028007843 0.0096274028
-0.035622243 -0.025022015 0.0041808123
-0.024974296 -0.024916463 0.00036898287
-0.014820886 -0.025002545 0.0032359343
-0.0084683923 -0.024816766 0.0077963015
-0.034839679 -0.015139664 0.0047018621
-0.02492002 -0.014958773 0.00050639169
-0.014831789 -0.015020667 0.0029475517
-0.0077508665 -0.014814347 0.0073821074
-0.033823684 -0.0052304803 0.0056088283
-0.025162803 -0.0048692455 0.00071324682
-0.014899004 -0.0050448552 0.0024093636
-0.0067226635 -0.004804315 0.0068382798
-0.03234233 0.0045626671 0.0067870687
-0.025376841 0.0051580598 0.0014988648
-0.01489634 0.004978972 0.0015988556
-0.0052766972 0.0051633618 0.0061007231
-0.031049734 0.013241897 0.0085536279
-0.025576174 0.01517454 0.0035277084
-0.014958533 0.015113584 0.00090432994
-0.0048193084 0.014850978 0.0041210479
0.0014882124 0.016349994 0.0080091478
-0.024285052 0.02470821 0.0054652528
-0.015128602 0.02509767 0.00079433393
-0.0049646576 0.025077103 0.0021847317
0.0041073952 0.025508944 0.0065638525
-0.022081275 0.033997018 0.0076152417
-0.015412846 0.035177186 0.0023718236
-0.0048099919 0.03477316 0.00091904099
0.0052345181 0.034794405 0.0037878391
0.012624851 0.036451813 0.0075027719
-0.020398756 0.040663674 0.0096174832
-0.014461686 0.044494506 0.0055444059
-0.0051674442 0.045091998 0.00076223136
0.0050029578 0.044958379 0.0011092143
0.015265007 0.044943005 0.0045752157
0.022540597 0.047633749 0.0074708336
-0.011627204 0.052185815 0.0081619136
-0.0050906888 0.055129796 0.0043239971
0.0048989598 0.055069841 0.00044937554
0.015149002 0.054854292 0.00090864662
0.02521541 0.054820828 0.0039489516
0.03293493 0.057364613 0.0068685068
-0.0022832127 0.06239786 0.0076454785
0.0049695428 0.065077789 0.0043377546
0.014637612 0.06535279 0.00084771169
0.025144903 0.064949751 0.00061245606
0.035414923 0.064439408 0.0034384904
0.044509623 0.067254804 0.0060387058
0.051394869 0.069619253 0.0058333636
0.0078866128 0.071445264 0.0082795937
0.015487523 0.073769286 0.0059419405
0.024870193 0.075480267 0.0041797506
0.03506216 0.07588397 0.0039822925
0.045132123 0.076254249 0.004507455
0.055018663 0.074428201 0.0043920963
0.063323453 0.075184152 0.004838923
0.027473453 0.080420502 0.0091074323
0.032976083 0.08035475 0.0090985028
0.056303803 0.080303289 0.0063133682
0.062264886 0.080479935 0.006554551
-0.023979798 -0.093278907 0.014924786
-0.014736499 -0.093718819 0.015153763
-0.0099163065 -0.090214662 0.012168878
-0.031356238 -0.082665838 0.014748906
-0.028643604 -0.087510012 0.015314761
-0.010954422 -0.088149391 0.018331982
-0.0087887533 -0.084482864 0.014529726
-0.034886103 -0.07494799 0.014927289
-0.0074303076 -0.075095735 0.015087659
-0.038217813 -0.065090083 0.014981005
-0.0068587256 -0.064971685 0.015004578
-0.040633217 -0.053867757 0.016100669
-0.03937567 -0.056789678 0.012907754
-0.0070260707 -0.05500127 0.014906702
-0.04142154 -0.044930402 0.015048304
-0.039832719 -0.048697341 0.010423409
-0.0071886056 -0.045106757 0.014986431
-0.041963592 -0.034948144 0.014973439
-0.006964108 -0.035004187 0.01499577
-0.04176734 -0.025012169 0.014993801
-0.039875217 -0.021274863 0.010282432
-0.0061212848 -0.024992332 0.014948027
-0.041112494 -0.015278016 0.01602917
-0.039341014 -0.013676956 0.011416947
-0.004726171 -0.014945774 0.015000272
-0.04036276 -0.0081212725 0.017545538
-0.038675118 -0.0042697755 0.014324863
-0.0028166247 -0.0050054253 0.015050583
-0.036718652 0.0050033242 0.014867526
-0.0010416653 0.0031992828 0.013909508
0.00094253576 0.0073046447 0.016361561
-0.033828251 0.014977803 0.014905869
-0.029895134 0.019742761 0.010037714
0.0035857272 0.015037701 0.014973764
-0.03140603 0.023662547 0.01622967
-0.028751854 0.02696076 0.012890785
0.00776084 0.0238865 0.014414193
0.011055768 0.028418666 0.016259722
-0.025917077 0.035067227 0.014850755
0.0099893957 0.030042108 0.010236414
0.015224446 0.035059109 0.015039882
-0.021955667 0.043404773 0.015902763
-0.018448872 0.047430031 0.013626955
0.019281957 0.040843964 0.013724343
0.023771288 0.045652021 0.015176975
-0.014117071 0.05471731 0.015142906
-0.0089074597 0.058920521 0.011459576
0.028792379 0.051264063 0.015115018
0.033387978 0.05625492 0.014852174
-0.010394607 0.060432106 0.017797235
-0.0048501077 0.065024555 0.015002809
0.0012276012 0.068848237 0.011328705
0.038351495 0.062149242 0.01571729
0.042934828 0.066962592 0.014259712
-0.00023371093 0.07023561 0.017468549
0.0051290789 0.073277839 0.015206154
0.01443459 0.07809183 0.014631439
0.020996194 0.079733096 0.010878503
0.037959214 0.077755675 0.016811484
0.044837046 0.07511875 0.014208488
0.054443803 0.075360999 0.011783633
0.062511615 0.076089367 0.010881223
0.019182004 0.080177665 0.016386414
0.025229027 0.080939002 0.015078058
0.033101588 0.080690481 0.014429949
-0.021887956 -0.091023877 0.020747397
-0.017061932 -0.091247521 0.020888885
-0.030610276 -0.08103355 0.020905115
-0.024623213 -0.084645882 0.022896463
-0.015027962 -0.084647357 0.023027193
-0.0097259786 -0.08141131 0.020393796
-0.032778859 -0.074046314 0.022982445
-0.02521663 -0.075172298 0.026561825
-0.014628204 -0.075045474 0.025709627
-0.0090269605 -0.074250937 0.021368155
-0.034712084 -0.064827703 0.025021151
-0.02583806 -0.065991893 0.029116413
-0.014163999 -0.065354995 0.02731264
-0.0085002594 -0.064652182 0.022137759
-0.040309861 -0.05216065 0.021086652
-0.036474168 -0.055344734 0.026279528
-0.029244699 -0.059023321 0.029811962
-0.012819704 -0.055266749 0.027712081
-0.0083262939 -0.054829344 0.022769116
-0.040868085 -0.044364925 0.022447461
-0.038166292 -0.045442522 0.027471263
-0.01198771 -0.045308594 0.028192418
-0.0081705367 -0.044822074 0.023259597
-0.041294526 -0.034894444 0.023270691
-0.038791869 -0.035305459 0.028256113
-0.011268022 -0.035553515 0.028766492
-0.0079137208 -0.034864958 0.023941029
-0.04126155 -0.025205672 0.023201739
-0.038910288 -0.024721548 0.028225763
-0.010584962 -0.0266286 0.029326539
-0.0072800894 -0.024835514 0.024801675
-0.040803034 -0.015543115 0.022420527
-0.038576797 -0.014683564 0.027411982
-0.005789889 -0.014957681 0.025218436
-0.040181465 -0.0087168468 0.02099994
-0.037909836 -0.0047600111 0.025416924
-0.0035641785 -0.0050765555 0.025259603
-0.035784807 0.0050849044 0.025215514
-0.0015480475 0.003644119 0.02654775
0.0010615264 0.0070863222 0.023157405
-0.033107691 0.014840208 0.025002595
-0.02951386 0.0187032 0.029365139
-0.00038911295 0.011158965 0.029361088
0.0034426481 0.015277635 0.024988966
-0.031212499 0.023071932 0.023030264
-0.028304918 0.026183441 0.026600001
0.0074434886 0.024341661 0.025695594
0.010977005 0.028267037 0.022797018
-0.025128191 0.03502297 0.025148485
0.0092030326 0.031283822 0.029198691
0.014138112 0.035253495 0.02490967
-0.021767113 0.04298079 0.023655023
-0.018107926 0.046820447 0.026375128
0.017989622 0.043017261 0.026909146
0.02251102 0.046685509 0.02393619
-0.013737494 0.054505795 0.024590667
-0.0087684598 0.058649573 0.028089629
0.026274031 0.054306839 0.026073206
0.031722158 0.057715241 0.022554953
-0.010313405 0.060287483 0.021173019
-0.0046110088 0.064575128 0.024669552
0.0019740816 0.068858363 0.027521575
0.026645623 0.065347031 0.02871405
0.03452903 0.065220676 0.023896035
0.040051069 0.068466932 0.020096656
-5.6474837e-05 0.070041277 0.020275293
0.0056900857 0.072594546 0.024506919
0.015169184 0.076235719 0.025588024
0.024957085 0.075768165 0.026234042
0.034074195 0.07452818 0.02275105
0.025229992 0.080364116 0.021178292
0.030947352 0.080096021 0.020221876
-0.022620482 -0.062103905 0.030373123
-0.018750427 -0.06232404 0.030391231
-0.031465735 -0.052339803 0.030469969
-0.024802793 -0.054901965 0.031249827
-0.017782839 -0.054519959 0.03103172
-0.032959588 -0.044525631 0.03125079
-0.025058681 -0.04495943 0.032646384
-0.016813714 -0.044780359 0.031699967
-0.033837106 -0.034796584 0.031893436
-0.025128016 -0.034950897 0.0337185
-0.0160046 -0.034718331 0.032327458
-0.034114927 -0.02499056 0.03218947
-0.025137881 -0.024854952 0.034385283
-0.015089082 -0.02479391 0.032885466
-0.0099838516 -0.020096967 0.03002899
-0.033767018 -0.01504665 0.032346949
-0.025033159 -0.014926985 0.034748487
-0.014760855 -0.014951956 0.033935193
-0.0091344314 -0.013259521 0.030732725
-0.032978076 -0.0052770884 0.03222277
-0.025085453 -0.0049807224 0.03489048
-0.014819245 -0.0050811791 0.035019059
-0.0079585947 -0.0043581212 0.031832684
-0.031860035 0.0044071223 0.031652421
-0.02515474 0.0050980854 0.034639657
-0.015017476 0.0049818475 0.03576979
-0.0062605594 0.0054811174 0.032911595
-0.030601732 0.011933103 0.030797407
-0.025263589 0.014999084 0.033664115
-0.014926827 0.015080392 0.035923824
-0.0047991797 0.014899626 0.034109421
0.00090304913 0.017783146 0.030905295
-0.023847666 0.024615452 0.032821398
-0.014960825 0.025025874 0.035618495
-0.0047310954 0.024887329 0.0356397
0.0028945974 0.025690146 0.032433759
-0.021680726 0.033638678 0.031714991
-0.01519392 0.03508734 0.034486026
-0.0049716602 0.035103794 0.035923608
0.0050171432 0.035061266 0.033985123
0.011363376 0.037965674 0.031060476
-0.013973165 0.044578038 0.032654747
-0.0049898233 0.045099296 0.035137858
0.0050299694 0.044881921 0.035098717
0.013830217 0.045645352 0.03238548
-0.011449524 0.051811777 0.031297639
-0.0048201079 0.054926012 0.033200059
0.0049919691 0.055010486 0.034467082
0.015136369 0.054791927 0.033015374
0.021678654 0.056412108 0.030828815
-0.0022264742 0.062040776 0.031301115
0.0051884898 0.064561889 0.032305766
0.015016269 0.065189376 0.031992532
0.021957267 0.064168744 0.030593088
0.0086594187 0.07067918 0.030417312
0.014483645 0.071126349 0.030495856
0.0202711 0.070069037 0.030034192
