# .PCD v0.7 - Point Cloud Data file format
VERSION 0.7
FIELDS x y z
SIZE 4 4 4
TYPE F F F
COUNT 1 1 1
WIDTH 96
HEIGHT 1
VIEWPOINT 0 0 0 1 0 0 0
POINTS 96
DATA ascii
-0.00029096717 0.011915836 -6.2357331e-06
0.00050974713 0.013036792 -1.4932776e-05
-0.020736467 -0.0014667524 0.0092087965
-0.014912275 -0.0026156632 0.0073628956
-0.0049906098 -0.002238184 0.0066579231
0.0031635666 -0.00132606 0.0078741526
-0.020757582 0.004455186 0.0088998033
-0.015228341 0.0050422708 0.0044701239
-0.0049635102 0.0047490387 0.0012971857
0.0052077691 0.0045938208 0.0034947582
0.013181299 0.0063494081 0.0070403563
-0.02025771 0.012656377 0.0095268143
-0.015388096 0.014985468 0.0053691273
-0.0051433593 0.014991203 0.0006950174
0.0051509826 0.014997936 0.00086505833
0.014907782 0.015094253 0.0056189764
-0.013985022 0.024322238 0.0066791172
-0.0051829517 0.025274431 0.00273211
0.0051577021 0.025225874 0.0022497785
0.013812221 0.024525849 0.0067540593
-0.010481817 0.030371653 0.0094343303
-0.0042480296 0.031993836 0.0074701915
0.0048552402 0.032322925 0.0068934886
0.011609917 0.031361986 0.0088952584
-0.021914667 -0.0030550018 0.015019782
-0.015123401 -0.0058813058 0.014983981
-0.0049784402 -0.0047308775 0.014927956
0.0050814319 -0.0025260253 0.015000463
0.010587182 -0.00035853678 0.017165255
-0.022515547 0.0049554887 0.014921066
0.0097224731 0.00018045981 0.010798886
0.015635325 0.0045197699 0.01497099
-0.021727566 0.014959659 0.014874391
-0.019931031 0.019276623 0.01026042
0.019424673 0.012915602 0.01377074
0.020757245 0.016856227 0.016080489
-0.020961903 0.022353821 0.016351946
-0.017304905 0.02679692 0.014137805
0.018540848 0.026429214 0.012990132
0.020758064 0.023721229 0.016719868
-0.012391181 0.032092523 0.015794581
-0.0051393271 0.035436343 0.014843835
0.0049126623 0.035986561 0.014920535
0.014320765 0.033088714 0.015400122
-0.021222925 -0.0016378642 0.022229355
-0.015083122 -0.0036578684 0.024866739
-0.0049875681 -0.0042707669 0.024982724
0.0050327647 -0.0022595276 0.024918417
0.010468809 -0.00031560651 0.022933474
-0.022117235 0.0050759483 0.024845731
-0.018967701 0.0014259045 0.028855359
0.009684369 0.00013297371 0.029385958
0.015181595 0.0044769635 0.024965527
-0.021820715 0.014958437 0.025000665
-0.019797215 0.019468257 0.029301193
0.01902494 0.013964777 0.026670923
0.020701202 0.016275464 0.022577338
-0.020876888 0.022205872 0.022830896
-0.017754555 0.026201723 0.025727289
0.018451925 0.026292967 0.026647747
0.020603403 0.023632914 0.022687718
-0.012786534 0.032703009 0.024644943
-0.0050706794 0.036549985 0.025245337
0.0050019878 0.036615387 0.025134835
0.014117237 0.033260129 0.02458784
-0.012325032 -0.0013638171 0.031855654
-0.0049725301 -0.0019120651 0.03321559
0.0035773257 -0.0011327262 0.032513365
-0.020626303 0.0080955466 0.03114724
-0.015214712 0.0049435911 0.035165418
-0.0053173336 0.0027185585 0.038046606
0.0058795186 0.0028680349 0.036957599
0.013046611 0.0060585551 0.033965036
-0.020679092 0.013337838 0.031565912
-0.017310169 0.015233431 0.036338452
0.0097094551 0.019456821 0.039867785
0.014993399 0.015020626 0.035202075
-0.014780667 0.025098665 0.035008248
-0.0055128331 0.028951138 0.038934648
0.0062522576 0.027519712 0.038474176
0.014053079 0.024710499 0.034331214
-0.011288552 0.031028287 0.032319568
-0.0047170585 0.032488436 0.034240518
0.0046456521 0.033002637 0.033820812
0.01164557 0.031582884 0.031823758
-0.011033489 0.0089870039 0.040424533
-0.0046558292 0.0076890425 0.041330505
0.0042165713 0.0077653318 0.041433807
0.010067992 0.0098986449 0.040048447
-0.011975347 0.015246057 0.041205544
-0.0051176222 0.014925602 0.043827686
0.0050755413 0.014949374 0.042959783
0.010756706 0.014199492 0.040456995
-0.011593319 0.022888115 0.041174356
-0.004829478 0.024124339 0.042546559
0.0043283217 0.023566196 0.042252008
