# .PCD v0.7 - Point Cloud Data file format
VERSION 0.7
FIELDS x y z
SIZE 4 4 4
TYPE F F F
COUNT 1 1 1
WIDTH 268
HEIGHT 1
VIEWPOINT 0 0 0 1 0 0 0
POINTS 268
DATA ascii
0.0067966995 -0.021060821 -6.096065e-05
0.010221781 -0.02010092 -2.770193e-05
0.0075910841 -0.018355113 -7.8270961e-05
0.014438114 -0.014739196 -9.3050054e-05
0.016798861 -0.0092896288 -1.855801e-05
-0.011008945 -0.03063653 0.0091837049
-0.0043985993 -0.031716958 0.0076992698
0.0048868186 -0.032089144 0.0072772196
0.012787161 -0.031210773 0.0084277168
-0.021322833 -0.021641402 0.0083080921
-0.014688864 -0.024593852 0.0055785584
-0.0051224558 -0.025335662 0.0026511718
0.0048886728 -0.025720319 0.0017913256
0.015180679 -0.025407644 0.0040833829
0.022940323 -0.023122976 0.0072956742
-0.023385255 -0.01459454 0.0061798482
-0.015167712 -0.01509069 0.001421313
-0.0049603549 -0.01473977 0.0019466984
0.0045239194 -0.013922006 0.0016394326
0.015512411 -0.015306835 0.00043889784
0.025096584 -0.014954285 0.004643837
0.030385641 -0.011908867 0.0093887588
-0.024430569 -0.0050148619 0.0054595852
-0.014908569 -0.0049078148 0.0011390079
-0.0051278104 -0.0049339524 0.0051553082
0.0052456837 -0.0051363902 0.005834992
0.014740948 -0.0048532151 0.00087286806
0.025509715 -0.004993198 0.0034156227
0.030806979 -0.0048098559 0.0087997494
-0.02370825 0.0047014481 0.0058762887
-0.015267611 0.0051179575 0.00079523097
-0.0049509783 0.0047971206 0.0025950922
0.0048348485 0.0048920214 0.0029371963
0.014889127 0.004914579 0.0010923309
0.02532446 0.0050024395 0.0051505468
0.03045856 0.0018364238 0.0093108146
-0.021893267 0.01311479 0.0077703591
-0.015206143 0.01515508 0.0044178939
-0.0050311354 0.015369444 0.0022170527
0.0049336134 0.015216876 0.0020016744
0.015181925 0.01540448 0.0038364392
0.023184394 0.013509789 0.0073430287
-0.012786169 0.021244437 0.0084885275
-0.0048328652 0.022152046 0.0074751582
0.0049583637 0.022268694 0.007399647
0.013613776 0.021435751 0.0082148584
-0.020207487 -0.030098073 0.019415673
-0.014117371 -0.032496169 0.015681857
-0.0050393273 -0.035625406 0.014912661
0.0048799193 -0.036219615 0.014928257
0.014992096 -0.033544388 0.015083621
0.021529075 -0.031093096 0.017161952
-0.023447311 -0.024350163 0.015576908
-0.017930128 -0.02839865 0.012726706
0.019234493 -0.029505027 0.010872986
0.025970515 -0.025646159 0.014585349
0.030840429 -0.021336801 0.017859509
-0.030522821 -0.012055995 0.018394031
-0.027809991 -0.015595734 0.014324844
0.029295649 -0.018540874 0.011377923
0.032458417 -0.014715992 0.015312018
-0.031229112 -0.0047163502 0.016800171
-0.029031031 -0.0051170359 0.011876727
0.033738226 -0.0049782922 0.014934998
-0.031015474 0.0040808264 0.017612809
-0.028406061 0.005674548 0.012948184
0.029355358 0.0086156428 0.010927816
0.032699969 0.0048552877 0.015121935
-0.030191803 0.010341321 0.01962265
-0.025281167 0.015112497 0.014927406
-0.019348079 0.019514149 0.010784522
0.019831443 0.019809788 0.010203933
0.026582621 0.016192298 0.014024159
0.031139888 0.012371512 0.017466402
-0.02163648 0.021227732 0.017141929
-0.015053699 0.024206784 0.014971986
-0.0050313878 0.026943197 0.014794345
0.0050388845 0.027143542 0.014923917
0.015115666 0.02499906 0.014924046
0.022478897 0.021956129 0.016518611
-0.0015348027 -0.040181577 0.029003134
0.0029058154 -0.040240914 0.028708676
-0.021478068 -0.031224374 0.0258334
-0.015092014 -0.035232384 0.024884775
-0.0052692308 -0.038750432 0.024683492
0.0055291723 -0.039027315 0.024307031
0.015137156 -0.036470946 0.024912655
0.023186415 -0.032291252 0.025452273
-0.030350266 -0.02069542 0.02830339
-0.026248787 -0.025445452 0.024870081
0.02803335 -0.027802819 0.024385454
0.031992164 -0.023062212 0.025528995
-0.031895928 -0.014614956 0.0253953
-0.029398017 -0.018728295 0.021829877
0.035337109 -0.015105599 0.02497001
-0.03376098 -0.0050334614 0.024992356
0.03673489 -0.0049949684 0.025012374
-0.03334184 0.0050285608 0.025012067
0.035680134 0.0050742291 0.024928385
-0.031390063 0.012591751 0.026244085
-0.028163858 0.017015321 0.024075394
0.029024266 0.01884298 0.023235261
0.032455541 0.0143003 0.025324434
-0.023358924 0.02267997 0.025443591
-0.01534424 0.027548088 0.024846556
-0.0070271445 0.029569551 0.021407753
0.0078266049 0.029753551 0.020752814
0.01610977 0.028464569 0.024150839
0.024508944 0.023784768 0.025230188
-0.010702641 0.030234229 0.028576346
-0.0046222345 0.031159803 0.025850866
0.0048711793 0.031378567 0.025346776
0.0123341 0.030681312 0.027442798
-0.0031414193 -0.040500633 0.03527014
0.0045843017 -0.040680367 0.035200138
0.010009793 -0.040007539 0.038759321
-0.022587836 -0.032266654 0.035206884
-0.015117826 -0.036918171 0.035002392
-0.0079703638 -0.03949549 0.034427341
0.0091945818 -0.039771885 0.032946598
0.014990071 -0.037859168 0.034957942
0.023960929 -0.032974523 0.035137605
-0.031033961 -0.02195539 0.035683397
-0.027615346 -0.02698781 0.034641825
0.02883899 -0.028767422 0.034768276
0.032729235 -0.02384368 0.035240903
-0.033675946 -0.015080556 0.0349993
0.036758546 -0.015187565 0.034985404
-0.035579264 -0.0049812216 0.035079185
0.038134549 -0.0050720838 0.034944355
-0.03545567 0.00500326 0.034965191
0.037144653 0.0050294232 0.034927987
-0.032484617 0.014171855 0.035178211
-0.029149435 0.019059448 0.034186371
0.029955259 0.019887393 0.030574223
0.033351526 0.015213039 0.034886204
-0.024435189 0.023508638 0.035100419
-0.016613586 0.028441595 0.034775816
0.018680573 0.029390372 0.034412846
0.025274239 0.024894318 0.035140462
0.03029103 0.020338811 0.036254525
-0.011666946 0.030589551 0.035275266
-0.0050785043 0.032258559 0.035019271
0.0049666483 0.03301527 0.034858257
0.013695664 0.031403553 0.035232831
-0.003007652 -0.040344123 0.04389992
0.0041234549 -0.040471647 0.0445159
-0.023026891 -0.032525361 0.045032669
-0.015180917 -0.03705091 0.04498649
-0.0070449845 -0.039505687 0.046011511
0.0082642362 -0.039677572 0.046964407
0.015137706 -0.037544474 0.045027394
0.023665089 -0.03265015 0.044919327
-0.031336926 -0.022324206 0.044952471
-0.028057545 -0.027515326 0.045033369
0.02852083 -0.028459553 0.045529865
0.03247254 -0.023597471 0.044867564
-0.034207661 -0.01503313 0.045020558
0.036479633 -0.015104636 0.044949006
-0.03606005 -0.0050427075 0.044969976
0.03796329 -0.0049847886 0.044941984
-0.036005661 0.0050441884 0.045027226
0.036901668 0.0050999764 0.044993069
-0.03277329 0.014396212 0.044959709
-0.029355751 0.019269124 0.045475621
0.029847989 0.019862723 0.049397375
0.03322491 0.015206868 0.045107838
-0.02444743 0.023560094 0.044974089
-0.016648537 0.028371856 0.045332339
0.018517965 0.029317806 0.045586664
0.025257429 0.02492276 0.045043536
0.030233216 0.02036313 0.043175373
-0.011783573 0.030531073 0.044570211
-0.0050809123 0.032149311 0.045020346
0.0049716583 0.032852646 0.045038834
0.013669931 0.03133627 0.044757105
-0.02236772 -0.031744037 0.054373678
-0.015093663 -0.035367087 0.055055551
-0.0049038404 -0.038136009 0.054989092
0.0050136657 -0.038346663 0.055023186
0.015122437 -0.035631578 0.05514016
0.022428934 -0.031823166 0.054143321
-0.030910205 -0.021668078 0.053424772
-0.027241517 -0.026285417 0.055679206
0.027230669 -0.026891181 0.055619773
0.031475943 -0.022158192 0.054039013
-0.033044282 -0.015012627 0.055151086
-0.029883124 -0.019773394 0.059608422
0.034478571 -0.015172856 0.055030435
-0.034893569 -0.0050545335 0.055142861
0.036220409 -0.004992825 0.055028491
-0.034479618 0.0050209067 0.055070452
0.035062417 0.0050438312 0.055168647
-0.031901821 0.013192705 0.054131642
-0.027819373 0.017523512 0.056071199
0.028702822 0.018264435 0.05679686
0.032151829 0.013946503 0.054376617
-0.02320876 0.022392571 0.054448377
-0.015191279 0.026776055 0.0552518
-0.0056444458 0.029016355 0.057710826
0.0057268143 0.029122485 0.058316853
0.015795624 0.027890978 0.055716373
0.02425346 0.023577806 0.054588959
-0.010610059 0.030195598 0.051044028
-0.0044585816 0.030894035 0.052986491
0.0047185286 0.031155787 0.053505164
0.012061452 0.030626645 0.051850237
-0.020579511 -0.03031403 0.060793623
-0.014324796 -0.032202106 0.062702343
-0.0048367428 -0.033549637 0.063920565
0.0049936161 -0.033621289 0.064017668
0.014340466 -0.032355476 0.062874936
0.020561079 -0.030524509 0.060647123
-0.02382366 -0.024343383 0.063300975
-0.015083828 -0.025203615 0.066965014
-0.0048974911 -0.025093116 0.068028942
0.0050226091 -0.02505192 0.068555184
0.015188511 -0.025463251 0.068020739
0.024261372 -0.024239298 0.063957684
0.030193033 -0.020432895 0.060398351
-0.030951245 -0.01340323 0.061471935
-0.025406901 -0.015169045 0.065483086
-0.015119307 -0.014923755 0.067405276
-0.0049786917 -0.014978361 0.065986209
0.0049653305 -0.014916805 0.067168862
0.012701922 -0.015232333 0.069500349
0.026012937 -0.01560677 0.067444906
0.031646077 -0.013947111 0.062540732
-0.031682424 -0.004866452 0.062120851
-0.025201749 -0.005059496 0.066395782
-0.014928525 -0.0050696046 0.066432096
-0.0048084087 -0.0048185145 0.064130247
0.0049690432 -0.0050613666 0.065231234
0.011667003 -0.0050176396 0.06922406
0.027617272 -0.0051411432 0.068385236
0.032498479 -0.0050323447 0.063322991
-0.031395644 0.0044144695 0.061705135
-0.025371375 0.0051476476 0.065787576
-0.015002633 0.0049236515 0.067190409
-0.0049016168 0.0049821138 0.066724852
0.0048934687 0.0047751456 0.06799297
0.011511832 0.0033564717 0.069665067
0.026358955 0.0056296531 0.067547761
0.031831108 0.0043724375 0.062526606
-0.030481337 0.010698115 0.06048103
-0.024341395 0.014423949 0.063377269
-0.015169797 0.015260136 0.066865273
-0.0049984776 0.015068264 0.068442062
0.0047401148 0.015352852 0.069252938
0.015360471 0.01599939 0.068498217
0.024817368 0.014837049 0.064630784
0.030612689 0.011518938 0.060947347
-0.021006316 0.020724423 0.060868431
-0.014209071 0.022798272 0.063014679
-0.0048081954 0.024437653 0.064220265
0.0050099622 0.024628585 0.064532869
0.014613415 0.02351049 0.063660719
0.022024307 0.021485208 0.061645325
0.014778915 -0.020645045 0.070060313
0.016399091 -0.014778011 0.070415899
0.0215244 -0.012530621 0.070405774
0.01680788 -0.0050289072 0.07076405
0.022625118 -0.0049435729 0.070724323
0.0088587301 0.0094311479 0.070158184
0.01553877 0.005313905 0.070695765
0.021874474 0.0033378047 0.070548855
0.008383817 0.011207094 0.070145361
0.014013738 0.011326589 0.070257291
