# .PCD v0.7 - Point Cloud Data file format
VERSION 0.7
FIELDS x y z
SIZE 4 4 4
TYPE F F F
COUNT 1 1 1
WIDTH 147
HEIGHT 1
VIEWPOINT 0 0 0 1 0 0 0
POINTS 147
DATA ascii
-0.011008437 0.022179009 -1.4746401e-05
-0.021669831 -0.00071349816 0.0092319343
-0.014965836 -0.0013244069 0.0086139208
-0.0078801578 -0.00075103657 0.0091698123
-0.031340297 0.0078148916 0.0086946767
-0.024812734 0.0051784012 0.006298549
-0.015052882 0.0047896057 0.0043460708
-0.0050286413 0.0049383687 0.0056450004
0.0031371426 0.007224367 0.0077770017
-0.032370429 0.015145283 0.0077376841
-0.025166156 0.014901716 0.0032320619
-0.01500319 0.014945503 0.00077789678
-0.0048888465 0.014985579 0.0014027512
0.0051594065 0.014888342 0.0053718239
0.011066384 0.016972287 0.0088688256
-0.031518131 0.02326072 0.0083754919
-0.025282606 0.025221823 0.004467329
-0.015219784 0.025184002 0.00076416309
-0.0048902594 0.025107831 0.00098373962
0.0051161847 0.025026396 0.0042804726
0.01160142 0.024847792 0.0085885143
-0.023447217 0.033620302 0.0073208492
-0.015178698 0.035258006 0.004404041
-0.0050157369 0.035174381 0.0034647658
0.0047766273 0.034697216 0.0065020118
0.010715433 0.031518091 0.0092280274
-0.013399657 0.041814379 0.0083514554
-0.0050987089 0.042591222 0.0077054771
0.0021545393 0.041370314 0.0087319398
-0.031628542 -0.0012313909 0.017981412
-0.024719924 -0.0029829065 0.015221479
-0.015050251 -0.0050898953 0.014819616
-0.0051552625 -0.0033404357 0.01510361
0.0014154746 -0.00090233394 0.017557982
-0.03442565 0.00512882 0.015102622
-0.028377218 0.0011599648 0.011322404
-0.0013455887 0.00073630904 0.011026113
0.0057324488 0.0039895014 0.014418163
0.011328844 0.0082898326 0.016811684
-0.037155859 0.01496814 0.014901705
0.0095206313 0.010617783 0.010540462
0.014194552 0.014996812 0.0148389
-0.035279173 0.025113029 0.014822342
-0.02975495 0.029664828 0.010244416
0.015942786 0.025083547 0.014772651
-0.032113358 0.033036321 0.016500546
-0.02703499 0.036724076 0.013394766
-0.019983795 0.039954241 0.010177066
0.0087046847 0.038353521 0.011399463
0.013434269 0.034729216 0.0154516
-0.023183372 0.042429782 0.016249575
-0.015190695 0.045925409 0.014705294
-0.0050193644 0.04769421 0.014813274
0.0048807668 0.044287588 0.015115859
0.011152941 0.041191988 0.01820516
-0.0067522726 0.050033506 0.019813964
-0.034190729 -0.0030472602 0.025485344
-0.025027379 -0.0052423561 0.024907773
-0.015058351 -0.0071016825 0.025002735
-0.0049028387 -0.0053858147 0.024994465
0.0022455228 -0.0015591132 0.02513491
-0.038281072 0.004873659 0.024944186
0.0072782654 0.002413016 0.024948491
0.01206151 0.0073733837 0.025139464
-0.040264521 0.01605016 0.026543735
-0.039594311 0.013839494 0.023225669
0.016657397 0.014892095 0.024969507
-0.040108912 0.020644473 0.026975883
-0.038452834 0.02536126 0.02484029
0.018931361 0.02508188 0.024930364
-0.033402458 0.034427632 0.025004938
-0.029259767 0.039278634 0.024820339
0.016766626 0.0351393 0.024937369
-0.024378857 0.043456212 0.025013275
-0.015656132 0.048495259 0.024937151
-0.001712205 0.049691264 0.02246098
0.0050897277 0.047022611 0.024985591
0.012483632 0.042305887 0.024899246
-0.010787135 0.050179899 0.025244461
-0.0055075269 0.050511964 0.025410581
-0.033004146 -0.001900882 0.032632686
-0.024928173 -0.0033635322 0.035000399
-0.015013463 -0.0054284153 0.035144422
-0.0050014011 -0.0037927756 0.035083842
0.0017661884 -0.0011195587 0.033287212
-0.03545944 0.0048589921 0.035172839
-0.029378882 0.00060183607 0.039427757
-0.00046276095 0.00033407364 0.039668281
0.0062660696 0.0033681875 0.035771299
0.011582108 0.0080487728 0.033971015
-0.040011827 0.018149449 0.03007598
-0.038493168 0.014951693 0.03516433
0.015068627 0.014858637 0.035184365
-0.037327435 0.025173053 0.035125177
0.017107818 0.024909291 0.035168719
-0.032729264 0.033667292 0.034509052
-0.02811747 0.038252585 0.036331262
0.009664461 0.039588254 0.0395342
0.0148799 0.035135154 0.035065692
-0.023594329 0.042521894 0.034445804
-0.01494331 0.046424232 0.035155885
-0.0049092486 0.047947951 0.035915226
0.0051319869 0.045213532 0.035189886
0.011557498 0.041567214 0.033145305
-0.0053076469 0.050247386 0.030947376
-0.022782354 -0.0011184672 0.041742172
-0.014917289 -0.0017783105 0.042358186
-0.0067436881 -0.0012151425 0.041430522
-0.031823248 0.0073420629 0.042156097
-0.025213029 0.0046732854 0.045660753
-0.014967249 0.0038103156 0.047586378
-0.0047301068 0.0045790863 0.045994837
0.0037465033 0.0065635461 0.042992808
-0.033576462 0.015121784 0.043802641
-0.026980359 0.014532136 0.048622124
-0.0017588736 0.01158251 0.04941288
0.0055019078 0.014564737 0.046526518
0.011646942 0.01618568 0.041835334
-0.032894786 0.024490478 0.04315253
-0.02624579 0.025791021 0.047851179
-0.019683953 0.029644437 0.049889211
-0.00050195953 0.029648973 0.049870759
0.0059456215 0.02525676 0.047866613
0.012442169 0.025076834 0.04275129
-0.030897381 0.031246079 0.041164588
-0.024526626 0.034567818 0.044238042
-0.015523151 0.036241475 0.047388557
-0.0045496626 0.035941195 0.048121616
0.0050985878 0.03512923 0.045479808
0.01178577 0.033260532 0.041940868
-0.021251766 0.040756233 0.040879801
-0.01435213 0.042119853 0.042399798
-0.0049875677 0.042773411 0.042949859
0.0033538183 0.041943252 0.041991487
-0.020546548 0.0095189204 0.050160836
-0.014747549 0.0088710655 0.050426867
-0.0086548273 0.0093496889 0.050341852
-0.022141837 0.015638536 0.050692897
-0.015066806 0.015016828 0.051788583
-0.0053884159 0.015436186 0.051358584
0.00092900265 0.018436369 0.050313987
-0.02185238 0.023313407 0.050633471
-0.015107993 0.025031185 0.051812414
-0.0049692453 0.024993768 0.051547743
0.0011529265 0.023489607 0.050406653
-0.013674501 0.031484693 0.050579149
-0.0068373806 0.031334445 0.050510209
