# .PCD v0.7 - Point Cloud Data file format
VERSION 0.7
FIELDS x y z
SIZE 4 4 4
TYPE F F F
COUNT 1 1 1
WIDTH 173
HEIGHT 1
VIEWPOINT 0 0 0 1 0 0 0
POINTS 173
DATA ascii
-0.016574966 -0.00027536284 -1.4827069e-05
-0.016698277 0.00034638855 -1.9192959e-05
-0.011972141 0.011479315 -4.223442e-05
-0.030996842 -0.011152113 0.008985742
-0.024434155 -0.013421347 0.0069916039
-0.015011355 -0.014532669 0.0060855066
-0.0059639686 -0.013176829 0.0075207176
6.2413346e-05 -0.010212645 0.0098174298
-0.033291429 -0.0044459021 0.0071599078
-0.02514001 -0.0051518856 0.0027458211
-0.014988138 -0.005090462 0.0012744524
-0.004835214 -0.0051117041 0.0047759474
0.0018449913 -0.0030676955 0.0087637808
-0.034587931 0.0050456868 0.006240359
-0.025079466 0.0050004376 0.0013556471
-0.014953488 0.0050274455 0.00039658
-0.0048698671 0.0048202048 0.0022836267
0.0047210106 0.0052085053 0.006552177
-0.034242723 0.014691538 0.0068757334
-0.025092348 0.015093089 0.0027058367
-0.015111059 0.015237223 0.0008667935
-0.0049010669 0.015082429 0.0018247016
0.0048044519 0.014795531 0.0063666105
-0.032076683 0.022086991 0.0084660407
-0.024671298 0.02420024 0.0067185531
-0.014938544 0.025226535 0.0054770405
-0.0053063235 0.024812641 0.0062781852
0.0026049004 0.022516955 0.0080699045
-0.013329596 0.030201979 0.009736266
-0.0095340442 0.030056356 0.0098557593
-0.023353001 -0.021375692 0.017255589
-0.014880084 -0.022187224 0.015793849
-0.0069012675 -0.021433562 0.017109843
-0.033757564 -0.013783423 0.015626274
-0.026256707 -0.017819604 0.013326777
-0.014977586 -0.019333052 0.010950832
-0.0035893046 -0.017389709 0.013457543
0.0024944115 -0.013579863 0.016055342
-0.041071512 -0.003072584 0.017389087
-0.037809223 -0.0060660248 0.013601231
0.0055366699 -0.0051827091 0.01431356
0.011209438 -0.0016465685 0.017802622
-0.041938387 0.0051779272 0.015900997
-0.039303642 0.0044849766 0.01107101
0.0090204272 0.002321433 0.011095433
0.012655979 0.0052580046 0.015355396
-0.041725785 0.014494373 0.016271284
-0.038801063 0.016323617 0.011780269
0.0091155218 0.017473187 0.01112903
0.01267805 0.014660279 0.015489901
-0.040555604 0.020925751 0.018536363
-0.034994863 0.025021246 0.015100743
-0.026477477 0.028697472 0.012121976
-0.018986095 0.029734975 0.010303809
-0.002435931 0.029023152 0.011256858
0.0056611984 0.025660068 0.014462783
0.011171731 0.021783056 0.017785341
-0.030431397 0.030216141 0.019205913
-0.024147052 0.031768341 0.016430115
-0.015010905 0.033048958 0.014976459
-0.0053751091 0.032502998 0.015459066
0.0017495438 0.031003799 0.017758796
-0.030665008 -0.020469327 0.026837099
-0.025034962 -0.022786658 0.024937429
-0.014958605 -0.024815589 0.025041228
-0.0049109622 -0.023004921 0.024927121
0.00057176547 -0.02046993 0.027138159
-0.040169723 -0.010224553 0.027563293
-0.035707112 -0.015473046 0.02489214
-0.029661458 -0.019833606 0.020561809
-0.00042423929 -0.019745655 0.020742536
0.0044398298 -0.015309068 0.024982458
-0.042297084 -0.0050069927 0.025125301
-0.03967588 -0.009435215 0.021456454
0.0080475817 -0.0075973221 0.024524715
0.012383124 -0.003113575 0.025131879
-0.044419181 0.0050048265 0.024934515
0.015655886 0.0049562575 0.025024654
-0.043530904 0.015014836 0.024972655
0.015487463 0.015065665 0.024937397
-0.041017909 0.021577554 0.025192574
-0.036440678 0.02675833 0.024817765
0.0081552221 0.028170515 0.024371697
0.012265243 0.023288943 0.025287615
-0.031227726 0.030792829 0.02565534
-0.025093576 0.033652797 0.025008081
-0.014980662 0.036002323 0.024938418
-0.004897608 0.035321105 0.025046654
0.0032370298 0.032068696 0.025222654
-0.030506568 -0.020378001 0.032516122
-0.024950154 -0.022650585 0.034959357
-0.015029779 -0.024547776 0.034997538
-0.0055421251 -0.022603408 0.034595586
0.00039368967 -0.020379534 0.031118495
-0.040106606 -0.01014154 0.031036254
-0.035287984 -0.015241851 0.03503295
-0.029231399 -0.019548021 0.038879558
-0.0015035847 -0.017641308 0.038066804
0.0029874295 -0.014531376 0.034300331
-0.041946258 -0.0044860467 0.034678541
-0.039265461 -0.008678087 0.037906457
-0.0013081989 -0.0055266786 0.03898206
0.0055008731 -0.0058648158 0.036036428
0.011941174 -0.0024560869 0.033915166
-0.043849699 0.0050375317 0.035072416
0.014646538 0.0048908326 0.035170496
-0.042592697 0.014907751 0.034890331
-0.039643269 0.019240128 0.039107487
0.014806861 0.015081552 0.035094965
-0.040695917 0.021035179 0.032732587
-0.036036342 0.025853513 0.035377745
-0.029822851 0.029832104 0.039807234
0.0075988262 0.027829567 0.035909411
0.011915 0.023046229 0.034471661
-0.031146405 0.030790854 0.0336201
-0.025087394 0.033332702 0.035058733
-0.015057871 0.035706393 0.035064101
-0.0048724264 0.034832168 0.035084985
0.0028665252 0.03178978 0.034355856
-0.022838647 -0.021058472 0.041763268
-0.015168563 -0.021527929 0.042444929
-0.0081813103 -0.020842399 0.041212201
-0.032901008 -0.013216326 0.043482587
-0.025734503 -0.016437635 0.046271361
-0.014511231 -0.017283319 0.047429562
-0.005443017 -0.014561544 0.044170257
-0.040713735 -0.0019708429 0.041288078
-0.036168914 -0.0055207517 0.045698356
-0.029839218 -0.0097224964 0.049805414
-0.0048478902 -0.0046574008 0.04460375
0.004375088 -0.001142852 0.041747231
0.010018946 -0.00015593223 0.040024374
-0.041223366 0.005191402 0.042226877
-0.037890214 0.0048787873 0.04723822
-0.0023356183 0.00058781676 0.046114657
0.0059052603 0.0038286897 0.046446066
0.01159575 0.0061205225 0.042283852
-0.04085815 0.012763741 0.041589491
-0.036846515 0.015609101 0.046025954
0.0076461886 0.015547273 0.047625508
0.011846429 0.014572296 0.042746693
-0.03337083 0.023653854 0.044100314
-0.026064791 0.02742576 0.046830449
-0.015255242 0.028942132 0.048925366
-0.0039763516 0.027833831 0.047716189
0.0046548145 0.024658114 0.044755455
0.010653212 0.021118302 0.041069601
-0.023461189 0.031468324 0.042721134
-0.014998767 0.032436427 0.044045739
-0.0056150225 0.031948708 0.043061569
0.0009505832 0.030489758 0.040917121
-0.023550969 -0.011946248 0.051441502
-0.015593753 -0.01245734 0.051531728
-0.0094122468 -0.010675226 0.050469942
-0.0318399 -0.0033107703 0.051445533
-0.025178172 -0.0051351571 0.054106545
-0.014953711 -0.0050661392 0.055036698
-0.007473914 -0.0038250082 0.052470814
-0.032813717 0.0051593897 0.052278697
-0.025066392 0.0050505172 0.056268509
-0.015005526 0.004977548 0.057720572
-0.0048543746 0.0047751251 0.054908026
0.002261607 0.0067432141 0.051579095
-0.032160569 0.01405934 0.051607922
-0.025115823 0.015143652 0.055102352
-0.015037381 0.01505149 0.057138495
-0.0049544047 0.015045566 0.055473976
0.0027343647 0.014693437 0.051837735
-0.03032672 0.020594815 0.050288256
-0.024234345 0.022809815 0.052011583
-0.014939067 0.02414508 0.052914146
-0.0055287248 0.023246879 0.052213293
0.0011667333 0.021108324 0.050691988
