# .PCD v0.7 - Point Cloud Data file format
VERSION 0.7
FIELDS x y z
SIZE 4 4 4
TYPE F F F
COUNT 1 1 1
WIDTH 247
HEIGHT 1
VIEWPOINT 0 0 0 1 0 0 0
POINTS 247
DATA ascii
-0.032483 0.0053530876 -2.6265154e-05
-0.028902449 0.051823728 -3.5740311e-05
-0.051386785 -0.011300046 0.008928122
-0.044404928 -0.013467441 0.0072053489
-0.035014898 -0.014797329 0.006319569
-0.02532948 -0.014017856 0.0067482302
-0.017464368 -0.012040865 0.0084969942
-0.0537664 -0.0045367791 0.007128871
-0.045194212 -0.0051997369 0.0031138051
-0.035021629 -0.005068826 0.0014127912
-0.024830544 -0.0050408994 0.0021655702
-0.015135115 -0.0048126886 0.0061621927
-0.0094928592 -0.0016049985 0.0094590429
-0.054836597 0.0050571179 0.0062232502
-0.045169041 0.0049913847 0.0015590962
-0.035262428 0.0048918002 0.00022275485
-0.024842646 0.0051023099 0.0008169334
-0.014712542 0.0050169011 0.0047212546
-0.0091218669 0.0048396448 0.0090790493
-0.053852107 0.014631731 0.0071127634
-0.04505264 0.01502132 0.0027564992
-0.035039835 0.014922292 0.0010723429
-0.024906503 0.014974757 0.0019187706
-0.01508202 0.014736688 0.0062034219
-0.0095599536 0.011259704 0.0096003134
-0.051557127 0.02343378 0.0085880803
-0.045204453 0.025038827 0.0052356478
-0.035090718 0.024988396 0.0024856629
-0.024902318 0.024951542 0.0035191735
-0.017058609 0.024667211 0.0075200535
-0.044512011 0.034822777 0.0063204854
-0.035068061 0.034953091 0.0024095755
-0.024880169 0.034986358 0.0031193001
-0.017437784 0.035177507 0.0074934498
-0.043380857 0.044864818 0.0064149923
-0.035215899 0.044954818 0.0017606074
-0.024927743 0.044962432 0.0015217463
-0.016942721 0.045142092 0.0064768665
-0.042110763 0.054479823 0.0071707205
-0.035269316 0.055256594 0.0021437076
-0.024744429 0.05526574 0.00145734
-0.016987234 0.054922309 0.0062669641
-0.040388327 0.060420733 0.0092835091
-0.034449611 0.062176343 0.0064820526
-0.025535636 0.062468138 0.0066084289
-0.018634601 0.061091427 0.0084013613
-0.050519865 -0.020402389 0.019447204
-0.044046827 -0.022141954 0.016780872
-0.03485667 -0.023463981 0.015374334
-0.0253349 -0.022978606 0.016048398
-0.018046878 -0.021301305 0.018167643
-0.060172983 -0.010221876 0.01929817
-0.054345392 -0.014305719 0.015500057
-0.046171039 -0.018022096 0.012494178
-0.035769358 -0.019569883 0.01048239
-0.02365993 -0.018675728 0.011414853
-0.014427761 -0.015543665 0.0145259
-0.0088188741 -0.011796291 0.017720532
-0.06170743 -0.0041040811 0.016609762
-0.058160808 -0.0065404288 0.012504443
-0.010962714 -0.0081924824 0.01108883
-0.00671804 -0.0047296579 0.015162366
-0.062554151 0.0050948076 0.015238371
-0.059613764 0.0048834337 0.010448537
-0.0051250495 0.0049549448 0.01494389
-0.061775431 0.014080564 0.016749412
-0.058335014 0.016360605 0.012448666
-0.010850668 0.017945444 0.0110509
-0.0068840035 0.014676215 0.01523986
-0.060212154 0.020541672 0.019460244
-0.055374354 0.025000956 0.014686164
-0.049965225 0.029848199 0.010094714
-0.012168125 0.02581617 0.013504374
-0.0087853391 0.023293333 0.017710395
-0.051690325 0.034184519 0.016155733
-0.049051721 0.036306329 0.011839612
-0.012881208 0.03495482 0.014884377
-0.050193414 0.040405028 0.018817507
-0.047720797 0.045059837 0.01490961
-0.012992797 0.045006037 0.01491322
-0.044299718 0.054987807 0.015109196
-0.014023839 0.055092894 0.014917653
-0.041014384 0.061154578 0.015060942
-0.035033341 0.064247169 0.015012275
-0.025119588 0.065202564 0.014730982
-0.017712902 0.061991811 0.015158779
-0.034084622 -0.030522892 0.028534655
-0.028994307 -0.030251682 0.029158469
-0.052053567 -0.021766935 0.025796166
-0.045155205 -0.025775127 0.025024246
-0.035350021 -0.028335698 0.023802299
-0.024724247 -0.027357055 0.024751374
-0.016106898 -0.02293456 0.025312457
-0.06089332 -0.011469162 0.025815101
-0.057005942 -0.016397374 0.024591286
-0.011480945 -0.018378794 0.023812395
-0.0075415866 -0.013696801 0.02539438
-0.06375014 -0.0050339182 0.024959974
-0.003266887 -0.0051147933 0.024890875
-0.065535456 0.0049483231 0.024879951
-0.0014510954 0.005057971 0.025059089
-0.063888207 0.015197859 0.024830556
-0.0031618294 0.015180433 0.024914496
-0.061072532 0.021950042 0.025753789
-0.057962082 0.026746256 0.024563523
-0.010130272 0.029806128 0.020503053
-0.0070212618 0.025058566 0.025066696
-0.053113256 0.034741785 0.024887722
-0.049520534 0.039313145 0.028319648
-0.011178732 0.036122859 0.024703531
-0.009473701 0.03159862 0.026494829
-0.050234448 0.040539172 0.021723431
-0.046889693 0.045167819 0.025323566
-0.013514737 0.045065805 0.025100619
-0.042623587 0.054193761 0.024103357
-0.036519341 0.057433501 0.027954061
-0.023568382 0.057945106 0.02873555
-0.016359784 0.05457589 0.024716275
-0.040499147 0.060570288 0.021162013
-0.034468137 0.062670045 0.023763565
-0.025238395 0.063143969 0.024245419
-0.018492915 0.061339349 0.022123346
-0.040956177 -0.030324571 0.035646826
-0.034928713 -0.031369317 0.034983609
-0.027586812 -0.030826069 0.03520881
-0.052482244 -0.022420544 0.034847412
-0.045938909 -0.027605586 0.034881815
-0.022656476 -0.028600352 0.034755219
-0.015317586 -0.023656731 0.035131
-0.060909521 -0.011605847 0.034524072
-0.057574209 -0.01659208 0.035223648
-0.010461391 -0.019495677 0.035066236
-0.0068643056 -0.014676506 0.035003617
-0.063731968 -0.0050340616 0.034971531
-0.0021845482 -0.0052139736 0.034996506
-0.065584503 0.0049386458 0.035028424
-0.00055128284 0.004893031 0.034990989
-0.064177968 0.015048766 0.034987681
-0.0020037631 0.015066519 0.0350582
-0.061277736 0.021996835 0.034504849
-0.057562485 0.026965011 0.035273906
-0.010150475 0.029824046 0.039786045
-0.0061306423 0.025036443 0.035088152
-0.052648965 0.032904182 0.034481
-0.047230914 0.037470281 0.036173385
-0.020398833 0.039669573 0.039681681
-0.013394982 0.035885688 0.035744265
-0.0093273902 0.031190228 0.033331666
-0.04316204 0.043581169 0.033805247
-0.035400029 0.045784548 0.036580056
-0.02440919 0.045816116 0.036774926
-0.01737453 0.044045705 0.033063531
-0.040313739 0.050606836 0.030486384
-0.034219097 0.053254683 0.031927615
-0.025489027 0.053549487 0.032118395
-0.0192507 0.050995998 0.030594399
-0.040674478 -0.030134618 0.040477563
-0.034198746 -0.030534076 0.042205248
-0.028327884 -0.030484911 0.041744746
-0.051499512 -0.021516079 0.042847425
-0.04528686 -0.025651412 0.045170709
-0.035465337 -0.028650288 0.046953265
-0.024367493 -0.027095716 0.045688849
-0.016608346 -0.022547826 0.044340204
-0.060241669 -0.010502852 0.0406508
-0.055311993 -0.015070334 0.045186974
-0.049427658 -0.019335555 0.049210496
-0.012220768 -0.017805405 0.046422578
-0.0076383576 -0.013353342 0.044403501
-0.061624184 -0.0040837373 0.043578792
-0.058762316 -0.0066987816 0.047605079
-0.0040498981 -0.0049827378 0.045144554
-0.062757023 0.0049524121 0.045227312
-0.059930429 0.00042625851 0.049796965
-0.0023953947 0.004998825 0.045056172
-0.061997365 0.014281211 0.044278745
-0.058892306 0.0174959 0.04790834
-0.0040108557 0.015134201 0.045162026
-0.060493298 0.020808896 0.041284557
-0.055060126 0.025035156 0.044910245
-0.048018448 0.028736506 0.048263066
-0.012537107 0.027543807 0.046901524
-0.0075411741 0.02361487 0.044245075
-0.051176492 0.030993089 0.041579131
-0.044465289 0.033926897 0.044401858
-0.035352178 0.036410876 0.045913856
-0.024562968 0.036216192 0.04572868
-0.01613814 0.033086736 0.043987714
-0.040057216 0.040107638 0.040082134
-0.033607326 0.041192491 0.041277066
-0.026629891 0.041354883 0.04127102
-0.043077901 -0.02216037 0.051890362
-0.034890819 -0.023650598 0.053145368
-0.025809346 -0.022663634 0.052463904
-0.019131199 -0.020615177 0.050710812
-0.052140784 -0.012928686 0.05236508
-0.045340035 -0.015246271 0.055702947
-0.035149544 -0.016774902 0.057932109
-0.024493076 -0.015936663 0.057198185
-0.015700852 -0.014281376 0.053894848
-0.0093394751 -0.010980281 0.050723825
-0.054352339 -0.0047755418 0.054675307
-0.048187055 -0.0075221709 0.058936842
-0.020449365 -0.0097228186 0.05982361
-0.013624479 -0.0058747344 0.057518821
-0.0079297833 -0.0042854128 0.052834854
-0.060359064 0.0063482122 0.050561886
-0.055883061 0.0049749692 0.055746678
-0.011945558 0.0050548213 0.058567584
-0.0070640291 0.0049798489 0.053719815
-0.060191404 0.010542291 0.05030863
-0.054721322 0.014688448 0.054653585
-0.04768344 0.017615952 0.058641907
-0.020687152 0.019250672 0.059700716
-0.013847681 0.015707962 0.057369251
-0.0078519713 0.014271193 0.052637238
-0.052155126 0.022068489 0.052075163
-0.044811014 0.02479754 0.054697793
-0.035192117 0.026155708 0.056756139
-0.024726897 0.025629845 0.056507673
-0.015817942 0.023944594 0.053482555
-0.0093646813 0.020849789 0.050672408
-0.041432973 0.030557834 0.050710313
-0.034580965 0.031479672 0.051681954
-0.025937116 0.031410512 0.051576383
-0.019532513 0.030295674 0.050393622
-0.041297715 -0.010986016 0.06054746
-0.034865282 -0.011830512 0.060993414
-0.027037958 -0.011417229 0.060724307
-0.050197411 -0.00069750735 0.060111161
-0.044221409 -0.0043336293 0.061810013
-0.035044461 -0.005159629 0.063525818
-0.025101468 -0.0050894469 0.062705904
-0.01792655 -0.0031938134 0.060991466
-0.0505604 0.0054077362 0.060374171
-0.045146711 0.0049864277 0.062882341
-0.035061304 0.0049320478 0.064971261
-0.024957322 0.0049472414 0.064145133
-0.017012056 0.0047515118 0.061461397
-0.05027286 0.010666762 0.060162384
-0.04423514 0.01405673 0.06178157
-0.03502173 0.015145747 0.06325756
-0.025085965 0.015031271 0.062609516
-0.018108914 0.012917927 0.06094547
-0.040808834 0.020326691 0.060207989
-0.03426769 0.02104046 0.060619961
-0.027086755 0.020785075 0.060441177
