# .PCD v0.7 - Point Cloud Data file format
VERSION 0.7
FIELDS x y z
SIZE 4 4 4
TYPE F F F
COUNT 1 1 1
WIDTH 140
HEIGHT 1
VIEWPOINT 0 0 0 1 0 0 0
POINTS 140
DATA ascii
-0.02015576 0.01741867 -1.0541748e-05
-0.018085891 0.0165936 -4.9406208e-05
0.0029013017 0.019095426 -6.283931e-05
-0.018505409 0.020499153 -1.6605878e-05
0.0025319839 0.023282982 -5.7023513e-05
-0.021162024 -0.00069987884 0.00893577
-0.014706501 -0.0019460685 0.0076217572
-0.0063323765 -0.0016808101 0.0079940287
-0.030494856 0.0089612566 0.0092019411
-0.024579735 0.0054620523 0.0058489274
-0.015159818 0.0047816322 0.0023361945
-0.0047647497 0.0047638789 0.0040875929
0.0048658201 0.0055253687 0.0056308699
0.012210338 0.0074501531 0.0075257299
-0.031583522 0.015524435 0.0078424439
-0.025435312 0.014909547 0.0024221065
-0.014099624 0.01475155 0.00061996689
-0.0050637191 0.015014289 0.0020359703
0.0051469672 0.014654542 0.00098837714
0.014178044 0.015154839 0.0055957842
-0.031428486 0.024062013 0.0080533801
-0.02535142 0.025149073 0.0030355733
-0.014840117 0.024953762 0.00090261776
-0.0050990609 0.024879087 0.0011784363
0.0062456252 0.025687719 0.00085175573
0.014059907 0.02481146 0.0055223298
-0.030147985 0.030232076 0.0097763026
-0.023956634 0.033995241 0.0065676374
-0.015156804 0.035328973 0.0032542003
-0.0048789578 0.035250358 0.0022563296
0.0050937207 0.035089698 0.0046498151
0.011869052 0.032487016 0.0076517905
-0.020178881 0.040183388 0.0098111806
-0.014013594 0.041485604 0.0080663627
-0.0051300665 0.041922498 0.007503103
0.0022650121 0.040969606 0.008526695
-0.023288138 -0.0024699175 0.015565622
-0.015042658 -0.0056345412 0.014903292
-0.0047645383 -0.0046466817 0.014866508
0.0041390504 -0.0010351496 0.017118735
0.010218964 -9.7424127e-05 0.019494295
-0.031592797 0.0071038576 0.015570167
-0.027979817 0.0023080599 0.014185522
-0.0003192806 0.00053175702 0.010673543
0.0056706099 0.0010121234 0.012500571
0.014463634 0.005098436 0.01523918
-0.03439635 0.014950387 0.014959754
0.018753806 0.014239936 0.013990773
0.020288814 0.017267112 0.018087026
-0.034121495 0.025122449 0.014913652
0.01840739 0.025595328 0.014527793
0.020183789 0.021529868 0.018095255
-0.031460684 0.032193426 0.016030062
-0.026962891 0.036965702 0.014171956
0.0089004319 0.039090272 0.01240163
0.013694923 0.03474582 0.015252473
-0.022382885 0.041364405 0.016034067
-0.015155075 0.044123676 0.014861538
-0.0049773091 0.045372099 0.014891551
0.0045625647 0.042611156 0.015269033
0.01000705 0.040009875 0.019244771
-0.023749603 -0.0030781573 0.024825728
-0.014999473 -0.006911742 0.025081294
-0.004766095 -0.0064981892 0.02498927
0.0047262092 -0.0020482324 0.025022492
0.010582539 -0.00031141599 0.024315817
-0.031686768 0.0067775515 0.024629731
-0.028624637 0.0019672811 0.025512004
0.015545822 0.0044760914 0.02495103
-0.034624856 0.014884448 0.025077892
0.019473057 0.013757033 0.026514551
0.020324966 0.016422275 0.023152482
-0.03456293 0.0250546 0.025099678
0.018704429 0.025650183 0.025402144
0.020222127 0.021270383 0.022207698
-0.031623729 0.032642577 0.024729796
-0.027588079 0.03753946 0.025495956
0.0092641395 0.039368983 0.027517967
0.013946193 0.034944881 0.02480985
-0.022649022 0.041607812 0.024583954
-0.015121424 0.044878859 0.025051706
-0.0049575237 0.045944307 0.025053315
0.0047542048 0.042815413 0.024742141
-0.02223889 -0.0017828846 0.03318017
-0.015020548 -0.0041701333 0.03510768
-0.0047967155 -0.0042887987 0.035157051
0.0035490617 -0.0012489409 0.033234924
-0.030757926 0.0083654234 0.03166078
-0.026092611 0.0044473764 0.03566625
-0.019360194 0.00045522803 0.039482173
-0.00029271113 0.00019777362 0.039706275
0.0064482079 0.001503752 0.037285455
0.013476596 0.005600634 0.034503423
-0.031828713 0.01534185 0.033587918
-0.028876081 0.014177096 0.038437806
0.016615797 0.014872598 0.035238523
-0.031747241 0.024492783 0.033388853
-0.028616933 0.026040789 0.03802589
0.015658911 0.025091466 0.035116106
-0.030597694 0.031033562 0.031230213
-0.025170498 0.035110623 0.034923498
-0.017142624 0.038837649 0.038199317
-0.0018196537 0.039528903 0.03941479
0.0064071119 0.037165869 0.036241405
0.012357351 0.032846637 0.03386401
-0.021120369 0.040730048 0.031345624
-0.014487336 0.042246465 0.034120373
-0.0050793774 0.042725354 0.034971405
0.002818187 0.041423485 0.032949004
-0.012956209 -0.0010117461 0.04107859
-0.0061928574 -0.0010796705 0.041182186
-0.02232432 0.006968128 0.04193401
-0.014953351 0.0049737692 0.045006067
-0.0048976289 0.0047449283 0.045947984
0.0045013311 0.0060330215 0.043406554
0.010791282 0.0085897641 0.040845711
-0.024169741 0.015251334 0.043772519
-0.017204877 0.0140185 0.048563119
-0.0016524063 0.011021649 0.049517125
0.0056726574 0.014747283 0.046907566
0.011905767 0.015289828 0.0419905
-0.023895964 0.024637025 0.043704893
-0.016457936 0.026293952 0.04833968
-0.0040453617 0.028538661 0.049206823
0.0053538023 0.02527651 0.046306361
0.011646215 0.023874875 0.041748408
-0.021970242 0.032245543 0.041681148
-0.014651723 0.034481622 0.043933712
-0.0050729318 0.035155453 0.044477049
0.0038798123 0.033229936 0.042763669
0.010092395 0.030205697 0.040170655
-0.0069194152 0.040074524 0.040099237
-0.010340388 0.0099231908 0.050072357
-0.0084936153 0.0097835409 0.050137773
-0.012826054 0.015893433 0.051083826
-0.0052137976 0.015215461 0.051551338
0.0010008083 0.017258512 0.050433476
-0.012740873 0.023281645 0.051005017
-0.0052927542 0.02373746 0.05139238
0.00066361 0.021603582 0.050367597
