# .PCD v0.7 - Point Cloud Data file format
VERSION 0.7
FIELDS x y z normal_x normal_y normal_z curvature
SIZE 4 4 4 4 4 4 4
TYPE F F F F F F F
COUNT 1 1 1 1 1 1 1
WIDTH 658
HEIGHT 1
VIEWPOINT 0 0 0 1 0 0 0
POINTS 658
DATA ascii
-0.027258717 -0.012790098 0.15761608 -0.018094337 -0.99716288 0.073067114 0
-0.02264767 -0.012815967 0.15749145 0.01822478 -0.99749929 0.068286091 0
-0.017832713 -0.012670012 0.15728132 0.052046895 -0.99677199 0.0611296 0
-0.01277316 -0.012393771 0.15707383 0.069154501 -0.99558049 0.063538253 0
-0.008370555 -0.0119974 0.15813845 0.083821334 -0.99504578 0.053458903 0
-0.0021798445 -0.011490722 0.1576544 0.091676623 -0.99438626 0.052833263 0
0.0024385229 -0.011052221 0.15726236 0.10197092 -0.99347389 0.051103037 0
0.0074054301 -0.010546116 0.15725985 0.10189732 -0.99359161 0.048914459 0
0.010994698 -0.010134995 0.15742734 0.12375645 -0.9910357 0.050325725 0
-0.050517198 -0.0058163353 0.15632312 -0.82556206 -0.53274792 0.18608315 0
-0.048009459 -0.0084691346 0.15778716 -0.70269161 -0.69177842 0.16633436 0
0.013449884 -0.0097878827 0.157533 0.15470865 -0.98644745 0.054650687 0
0.017608646 -0.0088687642 0.15753794 0.29678264 -0.95338207 0.054613907 0
0.021561336 -0.0069091688 0.15780783 0.60399354 -0.79435378 0.06476 0
-0.05168293 -0.00276352 0.15791912 -0.90149069 -0.38044709 0.20633592 0
0.024518941 -0.0037994091 0.1581098 0.83158183 -0.55131388 0.067265779 0
0.025688283 -0.0017683416 0.15743586 0.89794976 -0.43519267 0.065526605 0
-0.053365301 0.0024696467 0.15746301 -0.95531261 -0.20331949 0.2145673 0
0.027193546 0.0024607019 0.15785573 0.96702069 -0.24401553 0.072989568 0
-0.054163076 0.0074402904 0.15718493 -0.97133827 -0.083726242 0.22246784 0
0.02804818 0.0074960375 0.15752405 0.99186158 -0.10743486 0.068325929 0
-0.054286368 0.012662284 0.15717523 -0.97186363 0.03904691 0.23228526 0
0.028231099 0.012450523 0.15771289 0.9974615 0.027249373 0.065787531 0
-0.053763639 0.017669739 0.15752578 -0.96496451 0.13260959 0.22640273 0
0.027783338 0.01716689 0.15782049 0.98712111 0.14353782 0.070631653 0
-0.052797657 0.022498654 0.15762751 -0.9465633 0.24155535 0.21370281 0
0.026435502 0.022627378 0.15772651 0.93004966 0.36162922 0.065053321 0
-0.051219586 0.027101353 0.15752852 -0.88899815 0.40775874 0.20836261 0
-0.049633753 0.029444819 0.1591983 -0.81698382 0.54193527 0.1970875 0
0.023439279 0.027714211 0.15766031 0.75883782 0.64800626 0.065215871 0
0.025120119 0.025419867 0.15810618 0.86322021 0.50067198 0.064641029 0
-0.047475718 0.032479096 0.1573828 -0.66414791 0.72916806 0.16498959 0
-0.043917973 0.034715369 0.1585422 -0.38482463 0.91629612 0.11095632 0
-0.0058877966 0.03488791 0.15830125 0.11781015 0.99169242 0.051642694 0
-0.0024120731 0.034515582 0.15739118 0.12400621 0.99116862 0.046982694 0
0.0027412996 0.033843677 0.15730751 0.13404892 0.99009502 0.041744888 0
0.0078838179 0.033119563 0.15753636 0.13038854 0.99049592 0.043779328 0
0.01238959 0.032524675 0.15749159 0.14679682 0.98824972 0.042582572 0
0.017394055 0.031513773 0.15762301 0.2783936 0.95898277 0.053376406 0
0.020377832 0.030377591 0.15752618 0.5022108 0.86251634 0.062047496 0
-0.041696396 0.03548833 0.15692931 -0.19640048 0.97765595 0.074938364 0
-0.037772518 0.03594102 0.15707782 -0.080624685 0.99494445 0.059876192 0
-0.032406799 0.036261935 0.15766431 -0.042041458 0.99650168 0.072227448 0
-0.027535722 0.036323488 0.15791065 0.0018165923 0.99731344 0.073229536 0
-0.022794092 0.036293734 0.15713096 0.034130402 0.99692696 0.07051076 0
-0.017979771 0.036037911 0.15740652 0.063528672 0.99584782 0.065202169 0
-0.012624387 0.03563242 0.15735905 0.086432382 0.99446255 0.059781145 0
-0.0082552535 0.035205387 0.15720442 0.10698499 0.99286532 0.05265544 0
-0.045096606 -0.010159864 0.16152394 -0.48602551 -0.86473691 0.12652804 0
-0.04219491 -0.011261637 0.16239467 -0.29646888 -0.95041519 0.093899883 0
-0.037217394 -0.012010352 0.16261064 -0.080140971 -0.99546319 0.05128821 0
-0.032974727 -0.012343298 0.16249278 -0.04689515 -0.99775231 0.047864936 0
-0.027476758 -0.012461173 0.16248544 -0.0041268514 -0.99870425 0.050722864 0
-0.022395253 -0.012452565 0.16231667 0.010772894 -0.99814105 0.059985977 0
-0.017500473 -0.012324306 0.16241027 0.038457707 -0.9968555 0.069283091 0
-0.012646838 -0.01204685 0.16275083 0.057260431 -0.99690616 0.053845808 0
-0.0075267777 -0.011714786 0.16226089 0.082318492 -0.99516076 0.053654619 0
-0.0025877773 -0.011279511 0.16238414 0.089145027 -0.99526322 0.038786005 0
0.0027990919 -0.010747908 0.16253082 0.1084132 -0.99296886 0.047533162 0
0.0070050671 -0.01029085 0.16280523 0.10035334 -0.99372375 0.049420327 0
0.010218415 -0.010059087 0.16098668 0.1108067 -0.99246579 0.052284654 0
-0.047418911 -0.0078266542 0.16217466 -0.72765982 -0.64492643 0.23362571 0
-0.044425752 -0.0099754026 0.16481924 -0.47951883 -0.85771722 0.185426 0
0.0095307287 -0.0099771963 0.16355495 0.12903501 -0.99034989 0.0505674 0
0.012961023 -0.0096027646 0.16217887 0.15292048 -0.98692757 0.050884582 0
0.017439393 -0.0086168461 0.162791 0.30622613 -0.95004833 0.060279407 0
0.02191231 -0.006212811 0.16254537 0.65036064 -0.75613075 0.072783433 0
-0.051081546 -0.0015481538 0.16193093 -0.89654291 -0.29066229 0.33425474 0
-0.049599066 -0.00337893 0.16382325 -0.85002583 -0.34040368 0.40197185 0
0.024108991 -0.0039120135 0.16228172 0.80254424 -0.59073943 0.083364822 0
0.025528643 -0.0013038198 0.16234435 0.90774608 -0.41329625 0.071995221 0
-0.051603772 0.0022848195 0.16287707 -0.89275581 -0.17140913 0.41666055 0
0.026781913 0.0023278957 0.16262174 0.96400261 -0.25506085 0.075119711 0
-0.052395314 0.0075039021 0.16262883 -0.90803587 -0.069448538 0.41309533 0
0.027720429 0.0076969946 0.16262262 0.99177265 -0.10606658 0.071672402 0
-0.052565388 0.012338524 0.16242249 -0.90749514 0.040596694 0.41809627 0
0.027936174 0.012324396 0.16221458 0.99676532 0.022303583 0.077210464 0
-0.052046753 0.017556828 0.16269316 -0.90008891 0.1017862 0.42365023 0
0.027436392 0.01746106 0.16208215 0.98214507 0.17294638 0.074030936 0
-0.051258039 0.022416404 0.16261442 -0.89230072 0.21366718 0.39767542 0
-0.049799353 0.024391597 0.16462611 -0.85810262 0.22939645 0.4593879 0
0.024905229 0.024813378 0.16468763 0.85918975 0.5032053 0.092613958 0
0.026040765 0.022755645 0.16207649 0.92982769 0.36039501 0.074403472 0
-0.05052802 0.026257398 0.16168296 -0.894131 0.33103198 0.30157503 0
-0.049196903 0.028251369 0.16264769 -0.84103215 0.43407238 0.32287186 0
0.022856524 0.027759267 0.16268982 0.73188168 0.67613631 0.084787562 0
0.025004938 0.025209511 0.16133191 0.88521296 0.46027777 0.06739758 0
-0.046883803 0.031819366 0.16228625 -0.70440757 0.67276764 0.22626002 0
-0.043544803 0.034317859 0.16242714 -0.43905672 0.88746178 0.14014579 0
-0.0075467201 0.034828171 0.16318837 0.10160004 0.9937526 0.046187419 0
-0.0022406827 0.034254741 0.16255975 0.12203638 0.99157369 0.043458872 0
0.0025214967 0.03365086 0.16248441 0.12921301 0.99065578 0.043646302 0
0.0077390028 0.032928184 0.16298606 0.13620271 0.99007779 0.03456543 0
0.012512244 0.032280229 0.16264178 0.15786737 0.98647749 0.044044465 0
0.017544074 0.031202732 0.16247535 0.30816448 0.94972849 0.055232059 0
0.020265251 0.030055929 0.16263348 0.51284534 0.85553241 0.071091101 0
-0.041202523 0.035229433 0.16186513 -0.222068 0.97154003 0.082436338 0
-0.037675712 0.0356027 0.16257317 -0.079053849 0.99494272 0.061962765 0
-0.032133587 0.035876803 0.16273627 -0.032967083 0.99599743 0.083079778 0
-0.027591247 0.036017302 0.16218588 -0.0033329308 0.99668247 0.081320167 0
-0.022424372 0.035917509 0.16259846 0.028516958 0.99697363 0.072321452 0
-0.017574921 0.035714749 0.16227871 0.057878651 0.99654913 0.059496604 0
-0.01235615 0.035291549 0.16303426 0.084855981 0.99496096 0.053405471 0
-0.0089517254 0.035100568 0.16065298 0.103253 0.993146 0.054770924 0
-0.041703179 -0.010879378 0.16692397 -0.424694 -0.88886982 0.17188796 0
-0.038113669 -0.011872484 0.1679161 -0.18905221 -0.98183179 0.016300188 0
-0.032140832 -0.01220798 0.16761424 -0.0011796146 -0.99600548 -0.089284256 0
-0.027251273 -0.012221049 0.1674287 0.0012317019 -0.99972802 0.023288336 0
-0.02295175 -0.01220274 0.16796541 0.012305481 -0.99836516 0.055817038 0
-0.017290257 -0.012080423 0.16730233 0.042712748 -0.99861795 0.030624358 0
-0.012650141 -0.011844169 0.16732408 0.054833338 -0.99831545 0.018962847 0
-0.0075981533 -0.011501936 0.16720358 0.09209007 -0.99532455 0.029128376 0
-0.0021591212 -0.011029503 0.16760434 0.091075912 -0.99516922 0.036652885 0
0.0026545238 -0.010593556 0.16724068 0.11420052 -0.99313402 0.025358327 0
0.0066223661 -0.010172606 0.16704039 0.10888588 -0.99340338 0.035966065 0
-0.046210159 -0.0068118721 0.16702408 -0.7690773 -0.48779133 0.4130131 0
-0.044015735 -0.0089580771 0.16789149 -0.6619128 -0.65899599 0.35720554 0
0.0092401132 -0.0098348614 0.16783881 0.12099342 -0.99209499 0.033288963 0
0.012192974 -0.0094541935 0.16757849 0.1508593 -0.98754418 0.044698618 0
0.017575663 -0.0082913935 0.16733873 0.3409248 -0.93811554 0.060905933 0
0.021436494 -0.0061767246 0.16700526 0.63257468 -0.7699753 0.083590448 0
-0.048142213 -0.0024534431 0.16717562 -0.83750761 -0.29315245 0.46113193 0
0.023845023 -0.0034158786 0.16742447 0.8257429 -0.55794632 0.082731955 0
0.025372053 -0.00059228536 0.16764744 0.91793072 -0.38647422 0.089670964 0
-0.050479461 0.0039904532 0.16565053 -0.87475324 -0.12397383 0.46844134 0
-0.048926644 0.0023812812 0.16807453 -0.87568432 -0.16293129 0.45456606 0
0.026434748 0.0025259599 0.16760348 0.96313608 -0.25200674 0.09413527 0
-0.050632894 0.0078315344 0.1661147 -0.88207686 -0.065544114 0.46652371 0
-0.049351223 0.0074182111 0.16857046 -0.8943339 -0.066308603 0.44245908 0
0.027292268 0.0076828343 0.16769253 0.99311125 -0.088862658 0.076377481 0
-0.050713982 0.012708926 0.16603376 -0.88294011 0.043513253 0.46746483 0
-0.049274623 0.012342983 0.16892549 -0.89795452 0.041270409 0.43814886 0
0.027477955 0.012292292 0.16758157 0.99686933 0.01492752 0.077644557 0
-0.050404511 0.017420208 0.1659271 -0.8789466 0.097377203 0.46687317 0
-0.049308065 0.017626448 0.16800264 -0.8898136 0.10107974 0.44498843 0
0.026948946 0.017764371 0.16754381 0.98252976 0.16300522 0.089803681 0
-0.050136756 0.02097109 0.16551052 -0.86675352 0.1743598 0.46726549 0
-0.048650593 0.022394745 0.16770032 -0.8689388 0.20140125 0.45208728 0
0.02465098 0.024557902 0.16853116 0.88400215 0.45995438 0.083558582 0
0.025901631 0.021960493 0.16724856 0.93316787 0.34789702 0.09036275 0
-0.047118034 0.027428456 0.16759817 -0.82121199 0.34276322 0.45620635 0
-0.044921197 0.02935441 0.1699333 -0.79337806 0.38851923 0.46861935 0
0.01975482 0.029822521 0.16917942 0.50183064 0.86167973 0.075326547 0
0.022498596 0.027614085 0.16740991 0.73214501 0.67668974 0.077812195 0
-0.045975275 0.030885044 0.16635188 -0.74615979 0.54789031 0.37823507 0
-0.042938858 0.033276707 0.16736907 -0.58320659 0.75821382 0.29151627 0
-0.039760605 0.034894373 0.16922012 -0.4484804 0.86809862 0.2127679 0
-0.010956243 0.034885511 0.16817574 0.07306549 0.99489951 0.069544606 0
-0.0072949645 0.034613982 0.16760272 0.098552063 0.994169 0.04376566 0
-0.0026693696 0.034115419 0.16750583 0.11619385 0.99260497 0.035131518 0
0.0020869377 0.033516955 0.16750859 0.12909426 0.99112105 0.031841412 0
0.0070461268 0.032844007 0.16778161 0.13513806 0.9903146 0.031852957 0
0.012440207 0.032079272 0.16760747 0.15958007 0.98629528 0.0419029 0
0.017628802 0.030893972 0.16743268 0.34072962 0.93827516 0.059524193 0
-0.040154018 0.035137352 0.16562778 -0.23539965 0.96750957 0.092262015 0
-0.037124507 0.035577767 0.16746925 -0.085669406 0.99391139 -0.069289207 0
-0.032230936 0.035682119 0.16772248 0.023680042 0.99420512 -0.10485976 0
-0.027245341 0.035592817 0.16744706 0.011832263 0.99935973 0.03376551 0
-0.022333106 0.03548982 0.16778183 0.025751932 0.99724072 0.069626629 0
-0.017659362 0.035385497 0.16714893 0.045189019 0.99630547 0.073030762 0
-0.013282225 0.035153221 0.16688152 0.069667429 0.99523151 0.068269692 0
-0.040350638 -0.010550136 0.17121395 -0.49187151 -0.83055121 0.26124153 0
-0.037320063 -0.011707767 0.17240284 -0.39387798 -0.90088034 0.18241347 0
-0.032352403 -0.013065711 0.17242986 -0.13923484 -0.98519832 -0.09999001 0
-0.027606836 -0.013303846 0.17263527 0.09160307 -0.9024561 -0.42092982 0
-0.022786628 -0.012761084 0.17288609 0.13452317 -0.90496027 -0.40367123 0
-0.017244525 -0.012106571 0.17276749 0.087405927 -0.97811389 -0.18882108 0
-0.012556334 -0.011743191 0.17264621 0.066863261 -0.99733555 -0.029174834 0
-0.0075901775 -0.011400038 0.17257166 0.076518528 -0.99680638 0.022848787 0
-0.0027894946 -0.011023481 0.17221093 0.084025711 -0.9963358 0.015960576 0
0.0027111943 -0.010463588 0.17239037 0.11177217 -0.99364269 -0.013458277 0
0.0059653469 -0.010111855 0.17294648 0.10972164 -0.99374801 -0.020641457 0
-0.045073185 -0.0053360495 0.17055662 -0.80649817 -0.37558642 0.45661327 0
-0.042604029 -0.0076299291 0.17217463 -0.72162336 -0.54913861 0.42155257 0
-0.039745301 -0.0095115006 0.17432845 -0.64194292 -0.64527655 0.41415873 0
0.008423226 -0.0098251924 0.17250119 0.13093069 -0.99128628 0.014442762 0
0.012460721 -0.0092444094 0.17253463 0.17361116 -0.98406601 0.038383886 0
0.017816894 -0.0078218095 0.17297865 0.39738953 -0.91505617 0.068947293 0
0.02095649 -0.0060038841 0.17236347 0.63761866 -0.76508069 0.08996667 0
-0.04590049 -0.0018544024 0.17183721 -0.84878802 -0.31209365 0.42679787 0
-0.044165734 -0.0039206832 0.17354453 -0.81946981 -0.39110661 0.41893294 0
0.023627758 -0.0028388971 0.17254798 0.84024704 -0.52933729 0.11741825 0
0.025103172 -0.00021871815 0.171902 0.90360498 -0.41540048 0.10459688 0
-0.046844643 0.0024711804 0.17236343 -0.88911349 -0.19048887 0.41616252 0
0.025933819 0.0024977126 0.17246678 0.96220344 -0.25904715 0.084019743 0
-0.047510475 0.0074907932 0.17255908 -0.91299993 -0.07686998 0.40065214 0
0.026813289 0.0072006476 0.17240998 0.98686659 -0.11552089 0.11291219 0
-0.047651201 0.012569828 0.17243174 -0.91515762 0.039037134 0.40120164 0
0.027014131 0.012038751 0.17264505 0.99456072 0.0088818446 0.10377914 0
-0.047064278 0.017867811 0.17271155 -0.905065 0.12833337 0.40544775 0
0.02653829 0.017666684 0.17213491 0.97953695 0.17992872 0.09018299 0
-0.046440635 0.022369036 0.17211364 -0.88012511 0.22375281 0.4187057 0
-0.044792995 0.024363697 0.17445076 -0.8626765 0.30284667 0.40505949 0
0.024516417 0.023814328 0.17289975 0.88916808 0.44209701 0.11802723 0
0.025519243 0.021719649 0.17188579 0.93571043 0.34070349 0.091471843 0
-0.045681112 0.026329756 0.17111997 -0.83049417 0.34925884 0.43393299 0
-0.044172283 0.027847027 0.1726981 -0.80984229 0.39961761 0.42948931 0
0.019471794 0.029654654 0.17286366 0.51031429 0.85659641 0.076301314 0
0.022229834 0.027274324 0.17251195 0.74904054 0.65377659 0.10730574 0
-0.041782726 0.031835552 0.17234313 -0.69241244 0.59167743 0.41289562 0
-0.038872205 0.034203544 0.17303896 -0.52783763 0.79711229 0.29325652 0
-0.012099983 0.034772374 0.17298624 0.085074209 0.99616331 -0.020519465 0
-0.0076076635 0.034396928 0.17230883 0.092876703 0.99519056 0.031141285 0
-0.0026772215 0.033915631 0.17245314 0.10688908 0.99365109 0.03510344 0
0.002091907 0.033355709 0.17219873 0.1215473 0.9915936 0.044365793 0
0.0073743635 0.032662664 0.17212553 0.13833261 0.98959041 0.039684556 0
0.012680704 0.031845231 0.17228384 0.1706786 0.98444241 0.041737162 0
0.016938856 0.030865053 0.1723678 0.34163812 0.93807489 0.057436161 0
-0.036487527 0.035586774 0.17235813 -0.34534508 0.92495507 0.15872906 0
-0.032789607 0.036515418 0.1725518 -0.16796198 0.98507416 -0.037651677 0
-0.027752884 0.036716904 0.1725859 0.058032006 0.94842452 -0.31164587 0
-0.022545183 0.036056492 0.17285068 0.15486673 0.89142686 -0.4258807 0
-0.017457712 0.035344131 0.17214188 0.10115793 0.98284644 -0.15420729 0
-0.014485833 0.035036787 0.17427137 0.10563111 0.98113191 -0.16193287 0
-0.020620033 -0.015046333 0.17839439 -0.03890812 -0.99779153 -0.053833671 0
-0.018228278 -0.015175408 0.1790961 -0.052805375 -0.99763834 -0.04392495 0
-0.013580918 -0.015123495 0.17944376 0.12126113 -0.89927775 -0.42023236 0
-0.036404487 -0.010790404 0.17736132 -0.55846733 -0.76324111 0.3249265 0
-0.03272339 -0.01251643 0.17767265 -0.3576434 -0.91927177 0.16440989 0
-0.027536415 -0.014050243 0.17714648 -0.19117421 -0.97921467 0.067757823 0
-0.022449218 -0.014612242 0.17717232 -0.010057263 -0.97794414 -0.2086242 0
-0.016970787 -0.01377767 0.17646787 0.17793486 -0.80446744 -0.56671983 0
-0.012318748 -0.01322121 0.17716478 0.18095656 -0.8118912 -0.55505627 0
-0.0070582433 -0.012362285 0.17764679 0.18439236 -0.84845811 -0.49610314 0
-0.002815356 -0.011534651 0.17760485 0.16889863 -0.9124667 -0.37266302 0
0.0027287751 -0.0107197 0.17814338 0.17126615 -0.94488853 -0.27902237 0
0.0059131617 -0.010193019 0.17829283 0.16458052 -0.96130711 -0.22091171 0
-0.041224845 -0.0061907209 0.17659304 -0.75020999 -0.52546632 0.40133554 0
-0.038701851 -0.0084792776 0.17777188 -0.67480761 -0.63367718 0.37826958 0
0.0086015649 -0.0096610533 0.17742689 0.16289936 -0.98640192 -0.021796742 0
0.012435161 -0.0090748481 0.17696932 0.16941196 -0.98549145 0.010303138 0
0.017561013 -0.0075290161 0.17770688 0.43875378 -0.8979215 0.035101335 0
0.020786319 -0.0055503598 0.17681921 0.66732228 -0.73757297 0.10328154 0
-0.042712651 -0.0025334442 0.17781702 -0.83658582 -0.39656261 0.37797126 0
0.023289133 -0.0023439575 0.17747051 0.85115933 -0.51176983 0.11670257 0
-0.045321185 0.002997702 0.17605953 -0.90272439 -0.1944982 0.38374349 0
-0.04427097 0.0021898942 0.17816341 -0.90616208 -0.22960095 0.35518125 0
0.02468078 0.00056364672 0.17783517 0.92308903 -0.36385611 0.124561 0
0.025468787 0.0029766089 0.17749755 0.95892358 -0.2484722 0.13684787 0
-0.045804735 0.0075072045 0.17665651 -0.92818528 -0.096283473 0.35944632 0
-0.044764407 0.0072301719 0.17936972 -0.94152462 -0.10313142 0.32077315 0
0.026293522 0.0075661885 0.17733115 0.98778272 -0.10705823 0.11324282 0
-0.045804173 0.012526576 0.1769387 -0.93491513 0.043118037 0.35224205 0
-0.044854317 0.012870383 0.17947589 -0.94719267 0.035638105 0.31867844 0
0.026517 0.012773952 0.17728856 0.99463576 0.019335652 0.10161622 0
-0.045602359 0.017272348 0.17637269 -0.92394662 0.12328037 0.36211133 0
-0.044597931 0.01763192 0.17886516 -0.92771596 0.15919067 0.337641 0
0.026032072 0.0171254 0.17743842 0.97601241 0.18600763 0.11314105 0
-0.04524282 0.020525638 0.17586628 -0.90816164 0.20119919 0.36709866 0
-0.043935183 0.022990318 0.17736222 -0.88337123 0.28701171 0.37051255 0
0.02424849 0.023115421 0.17739007 0.90691048 0.40419671 0.11890553 0
0.025234522 0.021103514 0.17622019 0.92421818 0.35228884 0.14735469 0
-0.041896764 0.027654897 0.17739309 -0.8037827 0.46022063 0.37700191 0
-0.039775323 0.029605499 0.17925292 -0.74542683 0.55534661 0.36868545 0
0.018996442 0.029436195 0.17789143 0.54310757 0.83628154 0.075281315 0
0.022004364 0.026783807 0.17728019 0.76147646 0.6394605 0.10603746 0
-0.040636506 0.030714929 0.17591476 -0.73369473 0.55211753 0.39605322 0
-0.037881389 0.032745924 0.1774084 -0.6438784 0.67370123 0.36269435 0
-0.034520041 0.03476648 0.17932741 -0.54898798 0.78463376 0.28803146 0
-0.011464342 0.034897607 0.17525458 0.18068588 0.8556459 -0.48499766 0
-0.0076891724 0.034532767 0.17579462 0.13670479 0.96835095 -0.20882592 0
-0.0024838622 0.034155354 0.17698351 0.17189547 0.94190615 -0.28855616 0
0.0023053978 0.033432148 0.17746702 0.17091908 0.96188664 -0.21344998 0
0.0071269022 0.032725811 0.17788325 0.18225895 0.96509135 -0.188097 0
0.012398547 0.031748299 0.17771812 0.17720564 0.98306805 -0.046639867 0
0.01690834 0.030550493 0.17761523 0.39323184 0.91846436 0.042329937 0
-0.035669968 0.035190292 0.17610593 -0.42526487 0.87947959 0.2136946 0
-0.032459084 0.036154028 0.17726615 -0.30984494 0.93957824 0.14556381 0
-0.027680591 0.037311748 0.17769785 -0.19023371 0.97918576 0.070755802 0
-0.022434328 0.037999634 0.17767966 -0.049572278 0.99404854 -0.097005777 0
-0.017254544 0.037629619 0.1774573 0.13070457 0.89369285 -0.42921954 0
-0.012728576 0.036650404 0.17738773 0.18946114 0.81160319 -0.55263442 0
-0.0080454191 0.036293115 0.1785537 0.21028143 0.79241544 -0.57259011 0
-0.0032248017 0.035274383 0.17894088 0.21598488 0.79586643 -0.56563866 0
-0.016825831 -0.015196946 0.18244676 -0.087610252 -0.99472803 0.053296249 0
-0.012629433 -0.015466172 0.18236238 -0.036045689 -0.99934989 0.00070649071 0
-0.0077639627 -0.01547322 0.18312897 0.058375955 -0.98886329 -0.13689962 0
-0.0028758619 -0.015316212 0.18390587 0.14940521 -0.94094515 -0.30380946 0
0.00045948362 -0.015089582 0.18475313 0.17190951 -0.9337067 -0.3140682 0
-0.032279279 -0.011743432 0.18222155 -0.50028163 -0.83265793 0.23748468 0
-0.027468598 -0.013561681 0.18250223 -0.25336039 -0.96259218 0.096045308 0
-0.022016479 -0.014589093 0.18290453 -0.14210168 -0.98786467 0.062694393 0
-0.019172875 -0.014906737 0.18360224 -0.10498574 -0.99298334 0.054425079 0
-0.0064676683 -0.014553055 0.18100637 0.20779087 -0.79762661 -0.56622851 0
-0.0022286675 -0.014041749 0.18190968 0.20964617 -0.82542342 -0.52414197 0
0.0027214263 -0.012976323 0.18235548 0.23055845 -0.81826335 -0.52658129 0
0.0075185224 -0.011774553 0.18265542 0.25101113 -0.83466965 -0.49022436 0
0.011699267 -0.01078289 0.18328811 0.27530757 -0.85193634 -0.4454326 0
0.015506997 -0.010008832 0.18459825 0.40534109 -0.82593942 -0.39181972 0
-0.037414685 -0.0073165833 0.18230747 -0.6938951 -0.64342904 0.32327798 0
-0.03465547 -0.0093543641 0.18375205 -0.6244812 -0.72379935 0.29349232 0
0.012538153 -0.0095941117 0.1813208 0.24349095 -0.90394336 -0.35156596 0
0.017758217 -0.0080799516 0.18255281 0.48781216 -0.82919818 -0.27289122 0
0.020703502 -0.0060412856 0.18298854 0.69325036 -0.67370105 -0.25599003 0
-0.041047763 -0.0022514262 0.18220213 -0.84134024 -0.43715531 0.31787062 0
-0.039465744 -0.0042507392 0.1832751 -0.78007966 -0.53836328 0.31881148 0
0.022940958 -0.0026764912 0.18209702 0.84956402 -0.50231314 -0.16100477 0
-0.042781316 0.0025511619 0.18260238 -0.92251438 -0.25180188 0.29251176 0
0.02470939 0.0011076105 0.18223725 0.93242317 -0.31789216 -0.17184749 0
0.025627468 0.003881023 0.18267466 0.96009362 -0.21112804 -0.18342645 0
-0.04383494 0.0076057008 0.18237895 -0.95268697 -0.10858686 0.28389484 0
0.026134579 0.00734495 0.1826216 0.97950959 -0.11425264 -0.16585362 0
-0.043879736 0.012689611 0.18269435 -0.96099812 0.044812553 0.27290022 0
0.026401095 0.012308759 0.18241544 0.9893409 0.0032246998 -0.14558218 0
-0.043463796 0.017399617 0.18246125 -0.94913298 0.15332431 0.27502429 0
0.025963958 0.01722146 0.18256442 0.96261972 0.17789701 -0.20424472 0
-0.042235989 0.022431841 0.18233797 -0.90211105 0.31487489 0.29504141 0
0.02412481 0.022991903 0.18183556 0.90748984 0.40284005 -0.11908884 0
0.025419248 0.021140888 0.184155 0.90319413 0.2995564 -0.30741894 0
-0.040810898 0.026273001 0.18173094 -0.82857621 0.45210537 0.3302457 0
-0.039065398 0.02820049 0.18306601 -0.77526712 0.54884583 0.31261662 0
0.01936103 0.029342214 0.18165927 0.5979166 0.76837474 -0.2282453 0
0.021779303 0.027198777 0.1824999 0.76275116 0.6017682 -0.23682424 0
-0.036454599 0.03172807 0.18216269 -0.67174333 0.66618234 0.32397842 0
-0.033962496 0.033650745 0.18294203 -0.61246681 0.72760737 0.30898511 0
0.0036799875 0.034524344 0.18064187 0.22986335 0.8189342 -0.52584189 0
0.0080800559 0.033680066 0.18130064 0.24033462 0.84533179 -0.47713038 0
0.012564152 0.03308991 0.18273684 0.28187269 0.86452961 -0.4160966 0
0.017441874 0.03113009 0.18310785 0.47736675 0.8158046 -0.32647207 0
-0.031410541 0.035714101 0.18199931 -0.43097264 0.87752312 0.21027544 0
-0.027544828 0.036917694 0.18220918 -0.23005982 0.96835947 0.096707486 0
-0.022419896 0.037862524 0.18221088 -0.1358977 0.98819602 0.070713714 0
-0.017286776 0.03838117 0.18222702 -0.073021375 0.99574548 0.056204639 0
-0.012545971 0.038571566 0.18214388 0.012057729 0.99776369 -0.065742694 0
-0.0075026825 0.038173344 0.18209529 0.13376883 0.93864131 -0.3178969 0
-0.0028256006 0.037430428 0.18235256 0.18986154 0.88009775 -0.43517876 0
0.0025950961 0.036479823 0.18315725 0.24786581 0.83243597 -0.49559352 0
0.0074544172 0.035641033 0.18427849 0.27273124 0.80900359 -0.52070236 0
-0.016260065 -0.015070593 0.18566643 -0.077443697 -0.99555606 0.053579066 0
-0.012244957 -0.01521684 0.18733272 -0.04304013 -0.99703425 0.063798465 0
-0.0075785336 -0.01527637 0.18761432 0.0068979855 -0.99653292 0.082912885 0
-0.0028404563 -0.015238026 0.18697053 0.040145565 -0.99324864 0.10883643 0
0.00074966653 -0.015164686 0.18597749 0.1082441 -0.99403846 0.013071747 0
-0.031104635 -0.011105829 0.18728915 -0.58847058 -0.77520061 0.22970957 0
-0.027491895 -0.013009115 0.18745734 -0.33894715 -0.933465 0.11729433 0
-0.022516644 -0.014190662 0.18775274 -0.16899645 -0.98346502 0.065089725 0
-0.017479707 -0.014836613 0.18779954 -0.091716364 -0.9942342 0.055556722 0
-0.014645009 -0.014960358 0.18959376 -0.065942891 -0.9963783 0.053682808 0
-0.00082979322 -0.014922078 0.18867165 0.06570486 -0.99044555 0.12124538 0
0.0027562045 -0.014662422 0.18794778 0.12046096 -0.98914295 0.084174775 0
0.0076023703 -0.013878671 0.18743758 0.21847416 -0.97474074 -0.046362206 0
0.01231121 -0.012410755 0.18725508 0.33123693 -0.91382891 -0.23494421 0
0.016653977 -0.010665198 0.18767971 0.44517931 -0.86772192 -0.22107476 0
-0.036196727 -0.0065070731 0.18733616 -0.70989418 -0.66736579 0.22510688 0
-0.033530723 -0.0089868074 0.18768506 -0.64703751 -0.72974229 0.22094962 0
0.018554796 -0.0092563946 0.18667854 0.51823002 -0.79925883 -0.30434015 0
0.021928646 -0.0068485537 0.18784361 0.70869178 -0.65531039 -0.26138911 0
-0.040255748 -0.00098784582 0.18674183 -0.86277711 -0.44575325 0.23857874 0
-0.038731668 -0.0033086473 0.18728873 -0.81769031 -0.5314061 0.22133696 0
0.024267446 -0.0033786383 0.18724902 0.8344667 -0.48030525 -0.27013358 0
0.025604902 -0.0014752885 0.18837157 0.87964731 -0.3901242 -0.27207288 0
-0.041425988 0.0025555959 0.18774062 -0.93604839 -0.30048084 0.18309769 0
0.026783887 0.0024909365 0.18792711 0.93207252 -0.23933178 -0.27195787 0
-0.0425024 0.0070681861 0.18745153 -0.97415239 -0.14836182 0.17034037 0
0.027377324 0.0073301652 0.18700124 0.95119292 -0.11071929 -0.28805074 0
-0.042766571 0.012705506 0.18765882 -0.98593289 0.048194647 0.16004281 0
0.027853722 0.012668898 0.18769768 0.95689929 0.015697135 -0.28999537 0
-0.042197529 0.017569717 0.18748097 -0.96569449 0.18727693 0.1798934 0
0.0272357 0.017632324 0.1871352 0.94370562 0.1644927 -0.28698748 0
-0.040842794 0.022272801 0.18765929 -0.91397172 0.35526341 0.19607031 0
-0.039576937 0.024499396 0.1889445 -0.86108577 0.47464079 0.18233864 0
0.024845725 0.02453275 0.18627745 0.85352939 0.41357151 -0.31693259 0
0.02618351 0.022375688 0.18779379 0.90362114 0.32580075 -0.27806962 0
-0.037795782 0.027754977 0.18742602 -0.78278494 0.58122969 0.22230558 0
0.023403967 0.027436608 0.18713109 0.78211957 0.54784894 -0.29690158 0
0.025244331 0.025305379 0.188474 0.85204339 0.43248433 -0.2949228 0
-0.035559107 0.030698521 0.18670279 -0.6661272 0.70135063 0.25373602 0
-0.032649882 0.033029594 0.18755399 -0.62748587 0.7441963 0.22898324 0
-0.029583795 0.034959488 0.18928592 -0.59889537 0.77751052 0.19183788 0
0.013880916 0.034429334 0.18674184 0.37998423 0.87980938 -0.28556529 0
0.01738748 0.033024751 0.18769856 0.47242036 0.85133892 -0.22812493 0
0.020822641 0.030897669 0.18829185 0.63588125 0.75128073 -0.17672652 0
-0.030438026 0.035271857 0.18607759 -0.59108794 0.76905531 0.24324684 0
-0.027361261 0.036416378 0.18718533 -0.32740152 0.9363997 0.12634744 0
-0.02243503 0.037466601 0.18758166 -0.14927661 0.98602957 0.073907115 0
-0.017481731 0.038058415 0.18731838 -0.081949651 0.99474216 0.061418384 0
-0.012747247 0.038326934 0.18721449 -0.033135466 0.99733418 0.065012224 0
-0.0079117808 0.038366344 0.18726239 0.016140655 0.99711353 0.074189484 0
-0.002240723 0.038125701 0.18732518 0.065001592 0.9928841 0.099779055 0
0.0024973224 0.0375771 0.18771812 0.13654232 0.98879004 0.060419515 0
0.0071124127 0.036695566 0.18759759 0.22431079 0.97235358 -0.064909592 0
0.012091924 0.035426561 0.18780349 0.31505984 0.94303811 -0.10684747 0
-0.011560762 -0.015026319 0.19072457 -0.027370453 -0.99739134 0.066793904 0
-0.0084620835 -0.015053308 0.19065484 0.012049989 -0.99680763 0.078925766 0
-0.03057459 -0.010374968 0.19246896 -0.5983575 -0.79643947 0.087478615 0
-0.027922994 -0.012159738 0.19234893 -0.4723042 -0.87641656 0.093929715 0
-0.022511693 -0.013865646 0.19252972 -0.1783824 -0.98183692 0.064622201 0
-0.017481828 -0.014562069 0.19239482 -0.09398023 -0.99365878 0.061725263 0
-0.012924094 -0.014821278 0.1930352 -0.033419307 -0.99717635 0.067248754 0
-0.0073202271 -0.014819851 0.19311501 0.0308342 -0.99592006 0.084808923 0
-0.0022947381 -0.014552431 0.19283213 0.09070076 -0.98940957 0.11332328 0
0.002535302 -0.01410979 0.19213793 0.13787416 -0.97985041 0.14451259 0
0.0075152726 -0.013243721 0.19233866 0.20149244 -0.9625138 0.1815706 0
0.012457386 -0.011921764 0.1925406 0.29877171 -0.92767352 0.22395836 0
0.01606361 -0.010700186 0.19209176 0.40050933 -0.88144499 0.2502937 0
-0.035710339 -0.0059098271 0.19229554 -0.72663379 -0.6824109 0.079489768 0
-0.033163857 -0.0082932115 0.19237246 -0.65322912 -0.75243354 0.084472053 0
0.018238638 -0.0093379449 0.19294101 0.47442991 -0.83725339 0.27188796 0
0.02183219 -0.0067204032 0.19254154 0.67950916 -0.67753303 0.28145394 0
-0.040009595 -5.2509793e-05 0.19017409 -0.86918598 -0.47865245 0.1241271 0
-0.038576353 -0.002049586 0.19261959 -0.84412324 -0.5328936 0.058994651 0
0.02413933 -0.0035547779 0.19319515 0.80899137 -0.5082925 0.29524851 0
0.025582282 -0.0015410904 0.19242132 0.8712585 -0.41897082 0.25567955 0
-0.040920168 0.0028714577 0.19304581 -0.94779158 -0.31857279 0.014230662 0
-0.039851408 0.00022693629 0.19413038 -0.90916497 -0.41561806 -0.026089936 0
0.026921336 0.0026657854 0.19295993 0.93319482 -0.27081105 0.23623905 0
-0.042081308 0.0077729388 0.19216546 -0.99133408 -0.12801811 0.029464822 0
0.02809684 0.0078573972 0.19266073 0.97601181 -0.10873167 0.18862236 0
-0.042307574 0.012432701 0.19264267 -0.9987241 0.049880423 0.0078962008 0
0.028350526 0.012426234 0.19245881 0.98491317 0.024426185 0.17131634 0
-0.041712731 0.017383238 0.19255392 -0.97871965 0.20412543 0.020990685 0
0.027794344 0.017361529 0.19267774 0.95246261 0.18736488 0.2402278 0
-0.040578887 0.021342698 0.19267583 -0.93551588 0.35150337 0.035431631 0
-0.039434776 0.023876514 0.19299081 -0.8862133 0.46258417 0.025336212 0
0.024766151 0.024508785 0.1945 0.83477378 0.44164416 0.32879043 0
0.026102528 0.023127766 0.1925177 0.8881669 0.38906506 0.24451567 0
-0.03701679 0.027576266 0.19212656 -0.78121042 0.61919975 0.079385541 0
-0.034831416 0.029916408 0.19383033 -0.71136254 0.70239246 -0.024663828 0
0.023254421 0.027677834 0.19292261 0.75141376 0.58935541 0.29671124 0
0.025203159 0.025565607 0.19180812 0.83795023 0.45892113 0.29534853 0
-0.035028007 0.030233236 0.19012928 -0.6839729 0.70834327 0.17444479 0
-0.032349188 0.032192566 0.19268425 -0.62550861 0.77630562 0.078029446 0
-0.029426273 0.034470748 0.19235405 -0.59180772 0.79784095 0.11494961 0
0.013349779 0.034275811 0.19302784 0.32001165 0.9210124 0.22210085 0
0.01722301 0.03278226 0.19229828 0.4424994 0.8580026 0.26081765 0
0.02081223 0.030745942 0.19184014 0.59122938 0.75606793 0.28072962 0
-0.026927968 0.035924263 0.19229375 -0.41121984 0.90549207 0.10479692 0
-0.022422712 0.03709447 0.19255683 -0.17450981 0.98186255 0.074109495 0
-0.017179955 0.037755731 0.19238797 -0.07991571 0.99459052 0.066357009 0
-0.012496413 0.037957884 0.1928052 -0.018406771 0.99719959 0.072485246 0
-0.0075414656 0.037951767 0.19240558 0.035463233 0.99586046 0.083692007 0
-0.0023944657 0.03755239 0.19291563 0.097957276 0.98944563 0.1067792 0
0.0025117479 0.036975477 0.19254574 0.15315834 0.97874707 0.13636963 0
0.0072683403 0.035959166 0.19323045 0.22223425 0.95918846 0.17484111 0
0.011074801 0.035369445 0.19142954 0.27199647 0.93902922 0.21033806 0
-0.030717041 -0.01038726 0.19850697 -0.56150198 -0.81922197 -0.11658005 0
-0.027913367 -0.011922823 0.1976774 -0.42242134 -0.90635526 0.0089600421 0
-0.022285635 -0.013587265 0.1973132 -0.18759903 -0.98024189 0.062709138 0
-0.017152417 -0.01427074 0.19756998 -0.087541595 -0.99407876 0.064372987 0
-0.012506079 -0.014520705 0.19756301 -0.021483878 -0.99740905 0.068655573 0
-0.0071562896 -0.014424969 0.19750804 0.054131303 -0.99441803 0.090567552 0
-0.0027463716 -0.014081311 0.19741032 0.10416079 -0.98825705 0.11179651 0
0.0025855966 -0.013339813 0.19733892 0.16938724 -0.9750855 0.14323497 0
0.0073770001 -0.012256038 0.19774963 0.24314433 -0.95296049 0.18096189 0
0.011920863 -0.010947331 0.1973114 0.33790553 -0.91338289 0.22704943 0
0.015118758 -0.010088854 0.19569048 0.41266498 -0.87274802 0.26080355 0
-0.035986215 -0.0057515432 0.19781086 -0.71114177 -0.68735629 -0.14771189 0
-0.033126187 -0.0083574289 0.19749381 -0.64120805 -0.76079988 -0.1001789 0
0.014117625 -0.0096447598 0.19875292 0.42062667 -0.86955822 0.2587311 0
0.017337285 -0.0081528006 0.19753844 0.52156925 -0.80121714 0.29328582 0
0.020742176 -0.0058989692 0.19663784 0.67053819 -0.66715848 0.32446581 0
-0.040495023 -0.00019602188 0.19988471 -0.85162145 -0.45652297 -0.25754169 0
-0.038125966 -0.0030519897 0.19739132 -0.80365145 -0.57764107 -0.14309146 0
0.022954613 -0.0025712373 0.19742465 0.78857809 -0.5149473 0.33611569 0
-0.041147348 0.0024441725 0.19770151 -0.91236293 -0.35614052 -0.20188564 0
0.024469821 0.0011388697 0.19857462 0.87083316 -0.36032137 0.33439219 0
0.025783585 0.0025750024 0.19639882 0.89768749 -0.29860741 0.32402295 0
-0.042507946 0.0073459554 0.19762529 -0.96322399 -0.16389832 -0.21292476 0
0.026780928 0.0076883794 0.197189 0.94128758 -0.14985947 0.30252254 0
-0.042793088 0.012335755 0.19749331 -0.97122842 0.04068571 -0.234649 0
0.027104985 0.012510104 0.19701284 0.95324498 0.048057731 0.29835314 0
-0.042140272 0.017377432 0.19749972 -0.95518112 0.21546713 -0.2029852 0
0.024760483 0.019964177 0.19964187 0.88473833 0.32182142 0.33714858 0
0.026227135 0.017515693 0.19743407 0.92187274 0.21947797 0.31934318 0
-0.040745221 0.021916937 0.19791089 -0.90123993 0.39459634 -0.17905405 0
-0.039428346 0.024427021 0.19761559 -0.85361874 0.49939525 -0.1481196 0
0.024140777 0.022875294 0.19807823 0.85122281 0.40141869 0.33805728 0
0.025484856 0.021021962 0.19669394 0.89223456 0.30716717 0.33100733 0
-0.037300248 0.027463017 0.19760175 -0.77121025 0.6245001 -0.12342749 0
-0.034819145 0.029940717 0.19541045 -0.68175089 0.73158383 -0.00093727704 0
0.018866051 0.02941069 0.19892293 0.61144 0.72960055 0.30630738 0
0.022129968 0.026832724 0.19712584 0.74732846 0.5783397 0.32714421 0
-0.035236105 0.030036241 0.19894469 -0.64581221 0.73866445 -0.1931358 0
-0.032379191 0.032194503 0.19782054 -0.612351 0.78401637 -0.10170835 0
-0.029019838 0.034584336 0.1977288 -0.49956784 0.86551678 -0.036229841 0
0.0089263516 0.034616917 0.19802268 0.28894955 0.93860251 0.18850337 0
0.012423116 0.033461891 0.19764826 0.3576259 0.90605956 0.22618507 0
0.016823156 0.031527523 0.19694367 0.48328862 0.83226883 0.27158913 0
-0.026595423 0.035717838 0.19731197 -0.34031823 0.93875384 0.054081064 0
-0.022467088 0.036703963 0.19758922 -0.17695995 0.98120981 0.07689283 0
-0.017189546 0.037385765 0.19752195 -0.083364747 0.99375212 0.074209705 0
-0.012381379 0.037621588 0.19739032 -0.011889682 0.99694294 0.077223204 0
-0.0076622963 0.037511561 0.19744663 0.052418992 0.99463338 0.089200325 0
-0.0025457153 0.037102558 0.19711383 0.11589923 0.98678213 0.11326182 0
0.0019714921 0.036336865 0.19776134 0.17990308 0.97404271 0.13738841 0
0.0066569638 0.035441529 0.19703098 0.24447893 0.95465386 0.16990031 0
-0.030956049 -0.010552001 0.20281081 -0.44002405 -0.89797944 0.0034331267 0
-0.027633863 -0.011875211 0.2026002 -0.31781149 -0.94663686 0.053614095 0
-0.02253475 -0.013203068 0.20247708 -0.18876188 -0.98013514 0.060860466 0
-0.01739732 -0.01391481 0.20252076 -0.091807857 -0.99363357 0.065296754 0
-0.012436416 -0.014158953 0.20246491 -0.0043196119 -0.99720758 0.074554816 0
-0.0073126559 -0.013968064 0.20251951 0.070184804 -0.99336308 0.091125399 0
-0.0024099934 -0.01346708 0.20238872 0.1341031 -0.98443156 0.11362644 0
0.0023808768 -0.012633996 0.20237401 0.20011902 -0.96920067 0.14353564 0
0.0073845936 -0.011322535 0.2024703 0.29836667 -0.93478477 0.19275561 0
0.010875213 -0.010396375 0.2012042 0.35628501 -0.90669024 0.22577387 0
-0.036901832 -0.006496584 0.20274228 -0.66015464 -0.72235793 -0.20590046 0
-0.033662818 -0.0089702215 0.20244646 -0.5460062 -0.83069605 -0.10872553 0
0.01286486 -0.0090891542 0.20267539 0.44132936 -0.85979551 0.25686574 0
0.016961271 -0.0068358756 0.20183873 0.58076638 -0.75263631 0.31024006 0
-0.041312229 -0.0013864886 0.20292892 -0.78413641 -0.51115328 -0.35192674 0
-0.039240442 -0.003785348 0.20216656 -0.72321737 -0.59390408 -0.3524693 0
0.019278217 -0.004000314 0.20335944 0.70420718 -0.62260586 0.34125379 0
0.021130189 -0.0023195529 0.20205006 0.77193034 -0.53244185 0.34731719 0
-0.045291014 0.0049582394 0.20459868 -0.87644762 -0.32310039 -0.35699552 0
-0.043084614 0.0026149668 0.2023744 -0.83644229 -0.33113074 -0.43671134 0
0.023453638 0.0023814696 0.20240837 0.87176752 -0.35041505 0.34238982 0
-0.045616522 0.0082914354 0.20399675 -0.86645341 -0.11995605 -0.48463291 0
-0.044066943 0.0072774631 0.20176056 -0.85977507 -0.15340278 -0.48708773 0
0.024520388 0.0075549344 0.2036992 0.92551452 -0.17639494 0.33512354 0
0.02537534 0.007699213 0.20141959 0.93018711 -0.16184092 0.32948357 0
-0.045844961 0.01248989 0.20411541 -0.87381566 0.03902898 -0.48468867 0
-0.044383161 0.012762127 0.20181353 -0.86316812 0.047269683 -0.50269902 0
0.024676319 0.01327906 0.20401451 0.93334723 0.10002881 0.34475666 0
0.025701696 0.012234283 0.20130736 0.94483262 0.039628845 0.32514754 0
-0.04538865 0.016634997 0.20418702 -0.8694728 0.18285993 -0.45888916 0
-0.043798797 0.017739709 0.20210893 -0.85877651 0.22843558 -0.45860675 0
0.024179803 0.018028578 0.20269486 0.89834756 0.27330124 0.34391561 0
0.025343526 0.016156774 0.2009258 0.92377323 0.20172292 0.32550111 0
-0.04229692 0.022521684 0.20268834 -0.81179261 0.41215417 -0.41366851 0
0.022192059 0.022874195 0.20284626 0.8353048 0.42703384 0.34627724 0
-0.040619556 0.025857626 0.20330299 -0.74406487 0.56161439 -0.36187953 0
-0.038356539 0.027976733 0.20229472 -0.71315789 0.64600372 -0.27218565 0
0.018342394 0.028077196 0.20278485 0.64805782 0.69115973 0.31987375 0
0.020764899 0.02613055 0.20155819 0.74270737 0.57823282 0.33768696 0
-0.035849337 0.030689288 0.20299503 -0.61025512 0.77778649 -0.15045547 0
-0.032617737 0.032789066 0.20263952 -0.50467646 0.86094147 -0.063886613 0
-0.028999701 0.034595538 0.20243758 -0.35132864 0.93489182 0.050453138 0
0.0041305218 0.034961518 0.20393617 0.2623412 0.95117652 0.16260487 0
0.0074157789 0.034102641 0.20295799 0.31585687 0.9306798 0.18457949 0
0.012683298 0.032021485 0.20257643 0.43256119 0.86808789 0.24354522 0
0.015879851 0.030585829 0.20152839 0.51865059 0.8069557 0.28253156 0
-0.026440091 0.035397641 0.20299305 -0.27747178 0.95843917 0.066360369 0
-0.022834549 0.036248639 0.20287307 -0.18900163 0.97998559 0.062502846 0
-0.017182034 0.037012387 0.20278713 -0.076315105 0.9948495 0.066711962 0
-0.0126106 0.037217673 0.2025691 -0.0079095419 0.99733704 0.072499596 0
-0.0078136083 0.037057959 0.20269927 0.070033744 0.99394864 0.084624544 0
-0.0027250664 0.036568299 0.20206535 0.13782646 0.98416811 0.11143191 0
0.002453537 0.035543855 0.20259197 0.22044684 0.96552026 0.13846911 0
-0.030904746 -0.010391844 0.20770121 -0.41197738 -0.91047329 0.036236357 0
-0.027506346 -0.011643699 0.20742004 -0.30605701 -0.95075858 0.048859984 0
-0.022634588 -0.012879072 0.20735733 -0.18241429 -0.98140502 0.059743516 0
-0.017835958 -0.013546575 0.20744707 -0.090669721 -0.99351358 0.06862691 0
-0.012247398 -0.013780985 0.20724861 0.018874874 -0.99644238 0.082136191 0
-0.0075838384 -0.013588508 0.20687982 0.086618789 -0.99174243 0.094573133 0
-0.0024691971 -0.012868052 0.20739773 0.16522604 -0.97846955 0.12368385 0
0.0026283048 -0.01177484 0.20739061 0.25111803 -0.95388484 0.16444904 0
0.0068727448 -0.010563876 0.20697391 0.33614108 -0.91977054 0.20256159 0
-0.037336804 -0.0066619455 0.20743246 -0.59387529 -0.80453491 -0.0059758765 0
-0.033124547 -0.0093230922 0.2072417 -0.4681803 -0.88321304 0.027237598 0
0.0087989615 -0.0095018428 0.2082281 0.39154959 -0.89068675 0.23101088 0
0.01257318 -0.007504758 0.20797621 0.51191086 -0.80966568 0.28703442 0
0.015861118 -0.0056884927 0.20673044 0.62357092 -0.71082091 0.32541168 0
-0.041908555 -0.0022829243 0.20756775 -0.76966256 -0.63108224 -0.096720047 0
-0.03972226 -0.0047449763 0.20769362 -0.67767215 -0.73399323 -0.044881087 0
0.018110398 -0.0028748021 0.20768435 0.72270554 -0.5972091 0.34790522 0
0.020288423 -0.0010093915 0.20597076 0.78771305 -0.50316048 0.3554402 0
-0.045369625 0.0032398654 0.20771231 -0.90130323 -0.39526752 -0.177246 0
-0.044502676 0.0016624957 0.20698604 -0.87153107 -0.45413509 -0.18491852 0
0.019775465 1.8178975e-05 0.20853318 0.81822717 -0.44891286 0.35914004 0
0.021503694 0.0026658725 0.2075329 0.85601079 -0.37505242 0.35578251 0
-0.046615325 0.0075315712 0.20760269 -0.9595952 -0.17585884 -0.21966037 0
0.023066994 0.006972217 0.20723996 0.91120213 -0.21599904 0.35079226 0
-0.046969078 0.012676594 0.2075727 -0.96482587 0.043544669 -0.25925815 0
0.023366552 0.012758691 0.20755309 0.93050051 0.083286032 0.35669625 0
-0.045950186 0.017617287 0.20700318 -0.93230361 0.27878946 -0.23040494 0
-0.044840153 0.019839572 0.20528547 -0.89494181 0.37184882 -0.2465921 0
0.022388011 0.018046495 0.20730785 0.89045203 0.29045543 0.35032961 0
-0.04537376 0.020360764 0.20908631 -0.88331878 0.42595431 -0.19573165 0
-0.043813929 0.022652891 0.20760873 -0.84891546 0.51053047 -0.13675214 0
0.019150553 0.023879355 0.20871253 0.79083866 0.49953112 0.35361406 0
0.020929793 0.02217556 0.2067364 0.8342815 0.42507637 0.3511188 0
-0.041217059 0.026299939 0.20762734 -0.74563748 0.66359359 -0.060567752 0
-0.038615547 0.028861873 0.20747137 -0.64840174 0.76125389 -0.0082285255 0
0.014114488 0.029352924 0.20817156 0.55320108 0.77905226 0.2950359 0
0.017123602 0.027121264 0.20732233 0.67680007 0.65797061 0.33017623 0
-0.035998669 0.030824238 0.20780817 -0.54973841 0.83518374 0.015992284 0
-0.032338973 0.032901123 0.20706615 -0.43806043 0.89797485 0.041764062 0
-0.028787913 0.034371845 0.20761152 -0.3390227 0.93980491 0.042781848 0
0.0029967723 0.03456071 0.20798531 0.27343577 0.9474324 0.1661467 0
0.007083666 0.033264257 0.20748922 0.36002281 0.91080439 0.20203674 0
0.012033296 0.031098677 0.20692463 0.47642741 0.83923954 0.26209536 0
-0.026129451 0.035200503 0.20789476 -0.27069941 0.96145427 0.048244253 0
-0.022687145 0.035997815 0.20734449 -0.1830512 0.98146826 0.056678273 0
-0.017581476 0.036643554 0.2077831 -0.083529107 0.99420571 0.067660205 0
-0.012290735 0.036861259 0.20743345 0.015691614 0.99707621 0.074785657 0
-0.0074531324 0.036574688 0.20768583 0.094186798 0.99116141 0.093423761 0
-0.0022075169 0.03589987 0.20705259 0.18092614 0.97588086 0.1221565 0
0.00077896065 0.035304375 0.20702976 0.22084111 0.96453816 0.14455239 0
-0.03053865 -0.010371017 0.21245134 -0.39210194 -0.91908675 0.039185967 0
-0.027717369 -0.011359668 0.21219765 -0.29681063 -0.9540931 0.040122651 0
-0.022263519 -0.012653548 0.21276036 -0.17269206 -0.98392886 0.045402087 0
-0.017729674 -0.013249195 0.21224672 -0.080654234 -0.99514365 0.056426976 0
-0.012744923 -0.013361257 0.21260932 0.015279226 -0.99716365 0.073695973 0
-0.0074809021 -0.012989935 0.21267028 0.11882227 -0.98796552 0.099021979 0
-0.0028840089 -0.012241089 0.21273835 0.1973974 -0.97170347 0.12971769 0
0.0024967371 -0.010905023 0.21247351 0.29360405 -0.93893701 0.17942673 0
0.0056080245 -0.010386426 0.21009457 0.35448349 -0.90867019 0.22058995 0
-0.037166134 -0.0067913081 0.2121226 -0.57585454 -0.8154428 0.058690455 0
-0.033096164 -0.0091924611 0.21295998 -0.44907948 -0.89218897 0.048233993 0
0.0045566037 -0.0098072318 0.21421871 0.36554825 -0.90724385 0.20804602 0
0.0078174537 -0.0087159583 0.2126269 0.43575108 -0.86583233 0.24587646 0
0.011798051 -0.0064574694 0.2123262 0.55674618 -0.77316421 0.30372819 0
-0.042027391 -0.0022506707 0.21270841 -0.7484228 -0.62592006 0.21928804 0
-0.03968979 -0.00467563 0.21328121 -0.67955387 -0.67569941 0.28572175 0
0.013765382 -0.004226102 0.21379721 0.65176779 -0.67801481 0.33984524 0
0.016621059 -0.0019964261 0.212173 0.72662759 -0.58799022 0.35535866 0
-0.04596455 0.0036994386 0.21206814 -0.91240448 -0.3666065 0.18198258 0
-0.044276681 0.0016797674 0.21354838 -0.74539691 -0.40939575 0.5260976 0
0.019021597 0.0023458179 0.21296713 0.83114827 -0.41227889 0.37312001 0
0.020508943 0.0037582109 0.21112457 0.8587538 -0.35251912 0.37184975 0
-0.046677291 0.0072785821 0.21268174 -0.92079508 -0.20895503 0.3293542 0
0.019962355 0.0059865098 0.21421732 0.88475066 -0.26995245 0.37992367 0
0.020914547 0.0074038664 0.21279672 0.9001649 -0.21046263 0.38132483 0
-0.047182243 0.012240774 0.21258679 -0.92266709 0.037905451 0.38373005 0
0.021415334 0.012706851 0.21254948 0.92322028 0.076631054 0.37655273 0
-0.046418957 0.0177454 0.21224996 -0.91942585 0.2934137 0.26184812 0
-0.044593561 0.018244859 0.21472287 -0.56645823 0.16531621 0.80733854 0
0.01947698 0.018933231 0.21376009 0.85801899 0.35742915 0.36884665 0
0.020858007 0.016925402 0.21197262 0.8946951 0.25766876 0.36486647 0
-0.045488007 0.02070256 0.21177574 -0.88866937 0.45011458 0.087542266 0
-0.043595988 0.0230841 0.21288677 -0.80032742 0.50894892 0.31693387 0
0.018091084 0.022585345 0.21267301 0.799173 0.47929505 0.36276549 0
0.020306945 0.02043031 0.21028893 0.8444652 0.39720139 0.35931841 0
-0.041170251 0.026391869 0.21280923 -0.72414857 0.65154779 0.22604036 0
-0.038491372 0.028930843 0.21284254 -0.61855131 0.77670342 0.11885311 0
0.012841992 0.028478175 0.2127063 0.59024829 0.74602336 0.30831176 0
0.015957519 0.025908591 0.21210438 0.69769937 0.62790841 0.34488639 0
-0.036249939 0.03057472 0.2125987 -0.55156124 0.83029842 0.079904638 0
-0.032642026 0.032577019 0.21253842 -0.42900756 0.90256834 0.036371466 0
-0.028152149 0.034400325 0.21283922 -0.30288932 0.95203811 0.043375269 0
-0.0010438365 0.034801479 0.21337175 0.24985734 0.95848554 0.1373924 0
0.0022179601 0.033986673 0.21242703 0.30263424 0.93736053 0.1725338 0
0.0074087242 0.031955812 0.21229875 0.42359021 0.87594426 0.23085272 0
0.010870512 0.030424558 0.21126379 0.50646555 0.81593621 0.27882034 0
-0.0257341 0.035128716 0.21193375 -0.24627282 0.96830779 0.041589063 0
-0.02263689 0.035748601 0.21229109 -0.16993189 0.98447978 0.043847036 0
-0.01738777 0.03637461 0.21248917 -0.070652813 0.99603921 0.053982522 0
-0.012280405 0.036491726 0.21243477 0.023999052 0.99718344 0.071057871 0
-0.0075332271 0.03610881 0.21257976 0.12282985 0.98776805 0.096058272 0
-0.003168039 0.035408556 0.21253817 0.20240407 0.97150689 0.12331609 0
-0.030230388 -0.010342563 0.21524614 -0.40208384 -0.87353492 0.27434534 0
-0.02713328 -0.01091689 0.21670133 -0.32422641 -0.85537201 0.40399995 0
-0.022222972 -0.011855534 0.21751498 -0.21137555 -0.87506205 0.43541574 0
-0.017882908 -0.012519173 0.21782233 -0.10925666 -0.91878629 0.37933469 0
-0.01228621 -0.012782165 0.21782196 0.031424463 -0.96580797 0.25734699 0
-0.0074118469 -0.012440179 0.21750443 0.14085321 -0.96983236 0.19896145 0
-0.0025611373 -0.01151375 0.21724351 0.23787312 -0.95407832 0.18207407 0
0.001074183 -0.010506588 0.21706559 0.32382733 -0.92933375 0.17741065 0
-0.036351781 -0.0063213999 0.21575002 -0.50931066 -0.59451067 0.62222147 0
-0.032026432 -0.0072219442 0.21763104 -0.41259876 -0.52555418 0.74401277 0
-0.027853945 -0.008346701 0.21889491 -0.34052613 -0.53410614 0.77380401 0
-0.023965355 -0.009538155 0.21961448 -0.2629967 -0.57457453 0.77504635 0
0.003527564 -0.0093001341 0.21797742 0.38712212 -0.88314992 0.26492006 0
0.0073614684 -0.0073551568 0.21771917 0.49536133 -0.81950378 0.2881504 0
0.01072307 -0.0056229192 0.21646406 0.57336408 -0.75585419 0.31612971 0
-0.040580988 -0.0019999077 0.21533704 -0.56542712 -0.39699981 0.7229684 0
-0.037741188 -0.0025683537 0.21689776 -0.49506819 -0.35543758 0.79282504 0
