# .PCD v0.7 - Point Cloud Data file format
VERSION 0.7
FIELDS x y z
SIZE 4 4 4
TYPE F F F
COUNT 1 1 1
WIDTH 796
HEIGHT 1
VIEWPOINT 0 0 0 1 0 0 0
POINTS 796
DATA ascii
0.015604545 0.047822189 -0.0002616217
0.017189885 0.050674636 -9.7814831e-05
0.01626198 -0.023455132 0.0049213348
0.024110403 -0.023319799 0.0049627926
0.0065982416 -0.014229482 0.0057475464
0.014479592 -0.015610298 0.0038116078
0.025863277 -0.014832131 0.0047444082
0.030600857 -0.015614216 0.0058920914
0.0049368846 -0.0054419325 0.0062658228
0.015086359 -0.0048668059 0.0060149375
0.022658717 -0.0069109756 0.0080738105
0.00783394 0.00062308373 0.0092605036
0.013134839 0.00074865215 0.0090719545
0.0094102873 0.039350923 0.0097197434
0.012044248 0.038760874 0.0094556445
0.0076464643 0.046447985 0.0058895294
0.014705039 0.04473241 0.0048819161
0.022205194 0.047995705 0.0054035401
0.0092620477 0.051426299 0.0062763402
0.014763582 0.053610414 0.0045596184
0.02386988 0.052333709 0.0033467226
0.015863769 -0.021254594 0.015171998
0.023145596 -0.021081714 0.014319392
-0.0034327356 -0.011854826 0.018354913
0.0047236416 -0.015456385 0.015323601
0.011168731 -0.01935607 0.01348061
0.027771289 -0.017740361 0.014251455
0.03415205 -0.014691588 0.016320962
0.044261124 -0.013228508 0.018433802
0.050147887 -0.01032836 0.019842779
-0.011909449 -0.0035169877 0.019178497
-0.004860003 -0.0051944801 0.016949911
0.0011918545 -0.0047176289 0.012678313
0.018767787 -0.00030096321 0.010477318
0.02643116 -0.0042134281 0.012028161
0.034822676 -0.0051563913 0.014693914
0.04519454 -0.0051544597 0.016331546
0.051953435 -0.0039902078 0.018543392
-0.013670713 0.0051490101 0.018402634
-0.0050448719 0.0051049627 0.016066128
0.0050363145 0.0048850817 0.013115533
0.015118029 0.0052049761 0.012572322
0.024964554 0.0047751945 0.013871253
0.035021938 0.0048545711 0.014793437
0.045063209 0.0050622011 0.015697822
0.052957866 0.004962374 0.01807189
-0.02031689 0.018575173 0.017879089
-0.01619553 0.01534072 0.017961238
-0.0051175565 0.014855993 0.017091993
0.0049579116 0.014981103 0.014489257
0.015138119 0.015032073 0.014081301
0.024926014 0.014888538 0.015112055
0.034965675 0.015070355 0.016408203
0.045072664 0.014990214 0.017624462
0.052924622 0.014037951 0.018715277
-0.020139331 0.020381516 0.016352627
-0.014892732 0.025155028 0.015746491
-0.0048222574 0.025145141 0.017930051
0.0049157189 0.024984313 0.014448941
0.015029792 0.025185976 0.01381115
0.024958275 0.025014661 0.015946046
0.033827409 0.023734601 0.018494071
0.042409457 0.02079838 0.019551683
-0.012047571 0.033647053 0.015279027
-0.006392186 0.035591349 0.016378192
0.0046886285 0.035290331 0.01333808
0.015436209 0.034707479 0.012221483
0.024623208 0.034912515 0.016713774
0.030833377 0.030939402 0.019647846
-0.0040703891 0.043527182 0.015608212
0.0026763999 0.045264315 0.012364779
0.018857874 0.042492438 0.010752144
0.022611713 0.044983402 0.015389315
0.0061371401 0.053480223 0.014967171
0.015282355 0.054395102 0.014864409
0.02092848 0.050932154 0.01678781
-0.020311417 -0.02000463 0.029980071
-0.014128217 -0.021718472 0.028142264
-0.0047635487 -0.022264676 0.027268989
0.0050719087 -0.022036077 0.026254911
0.01481727 -0.021657968 0.025030829
0.02501175 -0.022009356 0.024940733
0.03500814 -0.022489272 0.025733903
0.045218468 -0.022708021 0.026213745
0.050199229 -0.020417951 0.026926816
-0.021255897 -0.013932951 0.02852219
-0.015264379 -0.015032431 0.024732675
-0.0056408551 -0.016830171 0.022206802
0.0040760636 -0.018703036 0.021640403
0.010194147 -0.01996883 0.020007841
0.029573688 -0.019948959 0.020094428
0.036302574 -0.019156553 0.021038812
0.046233729 -0.017377887 0.021422017
0.052570127 -0.014467143 0.025442727
-0.022128791 -0.004612355 0.027015286
-0.016407371 -0.0058414331 0.022026077
0.055845417 -0.0052755959 0.024394151
-0.02191826 0.0050933366 0.025892509
-0.01851218 0.0045314655 0.021152025
0.058106173 0.0050866921 0.024613976
-0.02072382 0.013865478 0.025728431
-0.016533179 0.016888687 0.022020884
-0.0097476961 0.019681657 0.020096822
0.049169 0.019684335 0.020181637
0.058029369 0.015363963 0.02436978
-0.015946127 0.024572881 0.024152476
-0.0098019363 0.021692682 0.020120097
0.037000198 0.027452746 0.021559278
0.045281742 0.025528759 0.023663599
0.054344598 0.023096314 0.02598495
-0.012423726 0.034063261 0.025073765
-0.0092824297 0.038973276 0.024873216
0.02905925 0.037707206 0.021053098
0.034700371 0.034742128 0.024959568
0.042571682 0.031374957 0.028171368
-0.0044061258 0.04480812 0.025083933
0.00041474783 0.049577165 0.024982451
0.026945405 0.045706488 0.024350112
0.031831667 0.041798193 0.027650274
0.0053303759 0.053558361 0.024986131
0.015031492 0.055866066 0.024831802
0.02254363 0.052017603 0.025677359
-0.020463441 -0.02124664 0.03505012
-0.015681932 -0.025574926 0.034904089
-0.0049679079 -0.026698202 0.034828618
0.0050386861 -0.025910191 0.035058696
0.01491955 -0.025233338 0.034912556
0.024940021 -0.025168741 0.034857702
0.03492368 -0.0258705 0.034985244
0.04552405 -0.024039635 0.035126694
0.050106749 -0.020249281 0.033495583
-0.021820698 -0.014993293 0.03497351
0.052615535 -0.014949398 0.034945015
-0.022885606 -0.0049068551 0.034899574
0.056297354 -0.0049694921 0.034924917
-0.022342348 0.0050946148 0.035081722
0.058543622 0.0049615172 0.034926105
-0.020920767 0.013319368 0.035047773
-0.019504381 0.018418074 0.03488737
0.059282947 0.014906416 0.035104908
-0.016823089 0.024976276 0.035082713
0.048847355 0.029423544 0.03207542
0.055177566 0.025505263 0.035125699
-0.012361527 0.034095407 0.03519205
-0.0092206066 0.038833406 0.034927011
0.038517717 0.038132381 0.033761993
0.044470195 0.033891913 0.035357516
0.050578624 0.030512337 0.038638942
-0.0044634491 0.044709187 0.035002284
0.00044483386 0.049625907 0.035081301
0.028793294 0.04846596 0.033175766
0.033739246 0.044198632 0.035429832
0.0053290413 0.05359951 0.034960542
0.015379715 0.056789875 0.034980323
0.024237107 0.053127114 0.035240978
-0.01038858 -0.030173376 0.048823681
-0.0052363481 -0.030255372 0.048476569
0.0016643081 -0.030132523 0.049065087
-0.020371834 -0.021298541 0.045270342
-0.015868306 -0.026931614 0.044980727
-0.0049634706 -0.029298997 0.043560963
0.0054518245 -0.029046824 0.044805247
0.015229079 -0.027850214 0.045016222
0.025106011 -0.027327072 0.044924311
0.035019632 -0.027266439 0.04501969
0.045390908 -0.024104817 0.045021724
0.050011545 -0.020043712 0.040705796
-0.021695482 -0.015012306 0.044808835
0.04989028 -0.019851837 0.04805164
0.052219812 -0.01483571 0.044894155
-0.022770166 -0.0049121142 0.044995025
0.055945139 -0.0049117068 0.044965886
-0.02218174 0.0050054612 0.045028605
0.058267776 0.0049547013 0.044902273
-0.020863514 0.013035069 0.044824123
-0.019381491 0.017975016 0.045344137
0.059035104 0.014985153 0.044987414
-0.016819721 0.025010075 0.04485663
0.0562432 0.025433496 0.044959527
-0.012412089 0.033799212 0.044696126
-0.0090973498 0.038767643 0.045215867
0.039761364 0.03978309 0.040308073
0.045304444 0.036042828 0.044790544
0.051472306 0.031181546 0.045128789
-0.0041712103 0.044901125 0.045062196
0.00040601194 0.049630173 0.045196667
0.029813604 0.049883798 0.040465131
0.035313446 0.045420613 0.044728551
0.040494595 0.040471453 0.046592738
0.0055410257 0.053705748 0.044976901
0.015083308 0.057175711 0.045070369
0.025008634 0.054243054 0.045040388
0.030682314 0.050674357 0.047545299
-0.010750174 -0.030253327 0.055470299
-0.0050519491 -0.030989356 0.054985285
0.0043624686 -0.030613711 0.055646461
0.010308214 -0.030036798 0.058723636
-0.020279752 -0.021148179 0.0550774
-0.016100433 -0.026874045 0.05496908
0.0082967421 -0.029798545 0.051734235
0.015094022 -0.029072562 0.055027708
0.025093628 -0.027822208 0.055027321
0.034906156 -0.027162109 0.055002511
0.045334898 -0.023848688 0.055024888
-0.021580126 -0.014968922 0.055013541
0.049791213 -0.019526208 0.055571038
0.052022357 -0.014444424 0.054906078
-0.022632372 -0.005129376 0.055066194
0.05559532 -0.0049353098 0.054973554
-0.022041656 0.0050453548 0.05496699
0.057968922 0.0050638774 0.055019971
-0.020797919 0.012636247 0.054812193
-0.01928425 0.01753542 0.054907862
0.058734149 0.015047902 0.055232368
-0.01656821 0.025229253 0.054891352
0.056123592 0.025430035 0.054852657
-0.012240292 0.033834219 0.054858487
-0.0090508638 0.038688604 0.054851267
0.045752317 0.036160678 0.054986738
0.051431097 0.031211611 0.054788295
-0.0040127165 0.044885989 0.055024892
0.00045384662 0.049586531 0.055584144
0.035978194 0.045897368 0.055022497
0.04089167 0.040871743 0.055387445
0.0055576321 0.053615239 0.054932885
0.015007789 0.057555571 0.054944344
0.025321972 0.054844126 0.054923747
0.030943317 0.050887782 0.055242006
-0.010938852 -0.030320868 0.06516289
-0.005118812 -0.031302877 0.065080561
0.0046852352 -0.030950192 0.064925805
0.010741272 -0.030117812 0.062589854
-0.020225093 -0.020904753 0.065407187
-0.016410349 -0.026430495 0.065020733
0.0096416371 -0.029903121 0.068502776
0.015466467 -0.028830778 0.065223113
0.025015207 -0.026571652 0.064766869
0.035001159 -0.025174774 0.065192744
0.044834949 -0.023208413 0.065050356
-0.021506425 -0.014970516 0.065058626
0.049567878 -0.019251987 0.065735281
0.051787652 -0.014287013 0.064878352
-0.02251517 -0.0050699315 0.065014653
0.055223998 -0.0049180468 0.065013058
-0.021937868 0.0048479298 0.065085955
0.057616975 0.0049526189 0.065020323
-0.020704031 0.01240267 0.065031633
-0.019166568 0.017399084 0.065210246
0.058503028 0.015130222 0.064910747
-0.016506167 0.025009366 0.065061055
0.049484875 0.029517801 0.069068737
0.05526768 0.025168747 0.065237582
-0.012146862 0.033770721 0.065048173
-0.0089181568 0.038648039 0.064976111
0.039907176 0.039952718 0.069959216
0.045343716 0.035268374 0.065054893
0.050755259 0.030868819 0.06225948
-0.0040627089 0.044651795 0.065084435
0.00057355006 0.049483247 0.064626098
0.03597654 0.045722846 0.065050825
0.040766008 0.040823948 0.063617483
0.0055323974 0.053463198 0.064862028
0.014861688 0.057894886 0.064995185
0.025326867 0.054946396 0.065073587
0.030900748 0.050801322 0.064315677
-0.010758283 -0.030156465 0.072317399
-0.005089907 -0.031102685 0.074988425
0.0036796338 -0.030753585 0.074598804
-0.020173311 -0.02063185 0.074912153
-0.016031006 -0.02634451 0.075036995
-0.0099360365 -0.029969975 0.079018205
0.0084611895 -0.029426288 0.076167077
0.014940412 -0.027417647 0.07497941
0.02500877 -0.023788869 0.075349398
0.034473717 -0.022004616 0.073794499
0.043979935 -0.021385277 0.071770757
-0.021425441 -0.014942933 0.075096391
0.036139324 -0.018046066 0.077905267
0.04543623 -0.015581735 0.075820841
0.051437836 -0.013289778 0.072164148
-0.022405129 -0.0049897968 0.075046219
0.04834016 -0.0065166932 0.078776442
0.053040985 -0.0045313174 0.074440442
-0.021814108 0.0049066604 0.074721612
0.049738903 0.001668789 0.079809822
0.054491658 0.005218151 0.075340733
-0.020585163 0.012342446 0.075031757
-0.019150492 0.01745235 0.07521569
0.049254 0.018229958 0.079386123
0.055010028 0.014934045 0.075191207
-0.01635712 0.025023175 0.075010538
0.047213525 0.026475575 0.076499589
0.053339679 0.023392566 0.073267259
-0.0122263 0.033488616 0.074897289
-0.0088673225 0.038390141 0.07523226
0.039121669 0.038540293 0.076754041
0.04264605 0.034212094 0.074409455
-0.0041745631 0.044297077 0.074960135
0.00073626282 0.049369872 0.07527674
0.034700982 0.045299646 0.075148061
0.0056727719 0.05334207 0.074901663
0.014933924 0.057736084 0.074963197
0.025329502 0.054325145 0.07512565
0.030410033 0.050354436 0.073962577
-0.0045724269 -0.030633403 0.084945969
0.0018508659 -0.030403975 0.083749779
-0.020124709 -0.020296061 0.084164098
-0.015847154 -0.026045956 0.085023873
-0.0094797546 -0.029864235 0.085785165
0.0065874681 -0.028916687 0.085492201
0.01495646 -0.024887241 0.085020542
0.02338485 -0.021523001 0.082639344
-0.0212596 -0.015082207 0.085004017
0.01976813 -0.01968665 0.089646325
0.026343348 -0.016661443 0.086577713
0.03419587 -0.0135702 0.083794735
0.041483101 -0.011569047 0.080965482
-0.022268832 -0.0050927787 0.085167035
0.036599871 -0.00623128 0.087364815
0.044020001 -0.0045484696 0.082832776
-0.0216954 0.0049419217 0.085100546
0.039390448 0.0032818206 0.089305162
0.044982526 0.0051015555 0.084541693
0.050303731 0.0084823184 0.080327801
-0.02040254 0.012030332 0.085222155
-0.019252455 0.016847173 0.085164219
0.039601371 0.015950149 0.089565434
0.044700757 0.014842016 0.084662862
0.050470196 0.011730819 0.080375306
-0.016154706 0.025095586 0.085039966
0.038997088 0.025715485 0.088432729
0.042687815 0.024656687 0.083595678
-0.012102721 0.03348637 0.084911652
-0.008786452 0.038391974 0.084679864
0.037592359 0.035400782 0.08524017
0.040676605 0.031540066 0.081718512
-0.0039355583 0.044477988 0.085212998
0.00072703243 0.049263876 0.084890738
0.029199243 0.04908694 0.087451719
0.032904916 0.044671122 0.084764078
0.0056403605 0.053104289 0.084889568
0.014830166 0.057152823 0.084909998
0.024802666 0.053609867 0.084913455
-0.0048257932 -0.030218158 0.093511507
0.00027823792 -0.030087745 0.090975448
-0.020017838 -0.020130059 0.091403127
-0.01597839 -0.025572879 0.094916068
-0.0053694136 -0.029776184 0.096662328
0.0054339846 -0.027811121 0.095193714
0.013534245 -0.022987399 0.094613999
-0.021109011 -0.014955114 0.095021375
-0.019950422 -0.019821072 0.09806408
0.018165171 -0.018070608 0.095985845
0.023429638 -0.013486067 0.09427277
-0.022081463 -0.0049919426 0.094920203
0.027767982 -0.0069496604 0.096435688
0.032752641 -0.0035917587 0.093193673
-0.021546938 0.0050971163 0.094909325
0.034937538 0.0049815914 0.094568118
-0.020384027 0.012006765 0.095077336
-0.019127782 0.017151166 0.094690941
0.035962522 0.014926868 0.094595216
-0.016089989 0.025108514 0.094996311
0.03589556 0.024917575 0.094930589
-0.011955941 0.033413801 0.095149331
-0.0087989485 0.038355548 0.095273301
0.034303769 0.035155263 0.094954588
-0.0039283358 0.044399783 0.094969608
0.00093637925 0.049262896 0.094872102
0.027865559 0.04720448 0.09580791
0.031410307 0.042604089 0.094071455
0.005965624 0.053035371 0.094881922
0.015025032 0.056121182 0.094849385
0.022856515 0.052768342 0.094572335
-0.0076891454 -0.030000946 0.1001175
-0.015778385 -0.025471468 0.10494702
-0.0051653315 -0.029499087 0.10493855
0.0052372441 -0.027008584 0.1047653
0.01214835 -0.022203285 0.1045649
-0.021030486 -0.014475289 0.1048585
-0.019867279 -0.019483203 0.10559168
0.01724375 -0.017330229 0.105158
0.021811871 -0.012409989 0.10492526
-0.021728361 -0.0051605664 0.10494457
0.026923191 -0.0051037441 0.10526476
0.030166365 -0.00051046396 0.10033055
-0.021362679 0.0048400331 0.10499716
0.02963114 0.0010610522 0.10546152
0.031532846 0.0056844573 0.10494508
-0.020419778 0.012118842 0.10490118
-0.019026522 0.017177958 0.10473041
0.033112135 0.0149316 0.10489816
-0.016018104 0.025108038 0.10509453
0.033548854 0.024962736 0.10495463
-0.011836862 0.033124991 0.10504362
-0.0088312803 0.038027 0.10499989
0.029219424 0.038688887 0.10734075
0.03208496 0.034411039 0.1046598
-0.0039378805 0.044156682 0.10498337
0.0018599448 0.048930891 0.10591701
0.019114539 0.049257632 0.10907011
0.025743997 0.04528971 0.10511959
0.030313289 0.040647201 0.10085346
0.0066223978 0.05206855 0.10455372
0.014972213 0.053136978 0.10478029
0.021533532 0.05148467 0.10233274
-0.015522942 -0.025321234 0.11513965
-0.0049794121 -0.029001923 0.11498764
0.0051715365 -0.027100543 0.11508382
0.013609265 -0.022618314 0.11552114
-0.02090532 -0.013800111 0.11471402
-0.019636199 -0.018660832 0.11570712
0.018049344 -0.01820199 0.11390831
0.023121934 -0.013747541 0.11547134
-0.021487212 -0.0052217059 0.11503531
0.027926059 -0.006541085 0.11444142
0.030742371 -0.0019122845 0.11666176
-0.021283919 0.0049202596 0.1150066
-0.019834856 0.0099686449 0.11997538
0.032848686 0.0050150612 0.11503585
-0.02049176 0.011749269 0.11350299
-0.017933901 0.016018841 0.11560842
0.034592975 0.014854698 0.11497886
-0.014654203 0.025042037 0.11502273
0.034004476 0.024863921 0.11500897
-0.011484065 0.032177292 0.11421625
-0.0073868562 0.036765996 0.11589187
0.0284191 0.038204577 0.11555291
0.031941857 0.033124439 0.11499447
-0.0029511126 0.042616528 0.11404209
0.0041947784 0.046991836 0.11562122
0.016330564 0.048115857 0.11629654
0.023588812 0.043455742 0.11472265
0.0085364301 0.050630573 0.11260649
0.012681877 0.050665814 0.11328209
-0.01523888 -0.025769807 0.12504008
-0.0049131117 -0.029754948 0.12499721
0.005053055 -0.028411817 0.1250235
0.01534461 -0.02449958 0.1249118
0.02173526 -0.021652821 0.12762213
-0.020463273 -0.01283557 0.12204187
-0.018853564 -0.015835386 0.12586008
0.01966862 -0.019744217 0.12060899
0.025748281 -0.015342593 0.12488522
0.030377179 -0.011063283 0.12883593
-0.020871656 -0.0048019248 0.1229625
-0.019162735 -0.0049486533 0.12787302
0.029250506 -0.0086694388 0.122527
0.031729888 -0.0042431103 0.12544931
-0.020872286 0.0042821462 0.12168025
-0.018350894 0.0057117832 0.12641637
0.034889694 0.0050526145 0.12494235
-0.014494799 0.014900765 0.12482335
-0.0099433968 0.019675817 0.12984982
0.036544368 0.014959976 0.1248889
-0.012065699 0.023944918 0.12341025
-0.0081668505 0.02676641 0.12670493
0.035704646 0.025110187 0.12498262
-0.01019774 0.0302196 0.12009832
-0.0040151621 0.034368284 0.12417678
0.0017495978 0.038448993 0.12731253
0.019644367 0.039987277 0.12991056
0.026714899 0.038129356 0.12541145
0.032498948 0.033562832 0.12524131
-0.00071946898 0.040329102 0.12057369
0.0057709748 0.043323386 0.12409785
0.015182469 0.044365194 0.12490366
0.02201855 0.041536648 0.12392243
-0.0050327629 -0.030007204 0.13239296
0.015960511 -0.031118745 0.13833642
0.024219904 -0.031833764 0.13826171
-0.013246845 -0.024918521 0.13456401
-0.0049077324 -0.029261384 0.13526787
0.0052422574 -0.02914332 0.13513608
0.014828299 -0.027969686 0.1337029
0.025558846 -0.025411321 0.1340846
0.031795755 -0.023689514 0.13774075
-0.015929172 -0.015205697 0.13507327
0.0286726 -0.017542558 0.13151035
0.032410666 -0.014622951 0.13583218
-0.016522298 -0.0050911736 0.13506666
0.03394841 -0.0050912444 0.13501507
-0.014522921 0.0050990954 0.13500287
-0.009889354 0.0097104376 0.13981205
0.037135851 0.0049604997 0.13469748
0.040091772 0.0096426513 0.13978225
-0.011604501 0.012599886 0.13317311
-0.0083117085 0.016234906 0.13636824
0.038582042 0.015004282 0.13508026
0.040099993 0.01006891 0.13991365
-0.0056063128 0.025234617 0.13511404
0.036809701 0.025363354 0.13525003
-0.0015850927 0.032001041 0.13390662
0.0046083583 0.0362942 0.13507828
0.015179034 0.037233625 0.13536447
0.024832744 0.035449557 0.13501357
0.032687828 0.032255217 0.13396047
0.0087088645 0.040516634 0.13091773
0.013217072 0.040726513 0.13091874
0.0093733547 -0.03014604 0.14617297
0.015130147 -0.031769749 0.1449625
0.024713276 -0.033100061 0.14451051
0.03030232 -0.030481892 0.14132503
-0.010934273 -0.022735586 0.14205021
-0.0054702898 -0.025784561 0.145165
0.0043537505 -0.028987562 0.14499794
0.028972842 -0.028964683 0.14793915
0.033473875 -0.024620434 0.1447936
-0.012357575 -0.014843783 0.14464016
-0.0095929373 -0.018762724 0.1485541
0.035245586 -0.015041704 0.14494835
-0.013152382 -0.0049808943 0.14501625
0.035990495 -0.0047422471 0.14491874
-0.011613234 0.003689788 0.1441061
-0.009010544 0.0079668658 0.14653979
0.038813114 0.0025686282 0.1441786
0.04126313 0.006525063 0.14562649
-0.0060882131 0.014626729 0.14500658
0.03907451 0.017634491 0.1441382
0.041132592 0.013632863 0.14630538
-0.0027342679 0.024824293 0.14467229
0.00074808445 0.029368469 0.14767019
0.019171493 0.029714005 0.14923534
0.026495356 0.02836295 0.14695249
0.034509443 0.024423981 0.14442526
-0.00037825562 0.030441862 0.1410649
0.0050060707 0.032298807 0.14462639
0.014940816 0.032370713 0.14484087
0.024070229 0.031483848 0.14298423
0.03038146 0.030245198 0.14013585
0.009707436 -0.030065268 0.1507251
0.015074029 -0.030749941 0.15458433
0.022219595 -0.031130794 0.15282269
-0.0040592318 -0.023779422 0.15465289
0.0049467324 -0.028384602 0.15499994
0.013988623 -0.029740995 0.15839665
0.026429716 -0.027242668 0.15575889
0.031882193 -0.022561533 0.15408605
-0.010681266 -0.012170207 0.15234357
-0.0084680291 -0.015640017 0.15596741
0.033791248 -0.01521152 0.15487041
-0.010917789 -0.0052759857 0.15321848
-0.0095327459 -0.0041863206 0.15808195
0.035178985 -0.0049835099 0.15487865
-0.010372001 0.0013120241 0.15124103
-0.0079249674 0.0052392362 0.15535957
0.038323242 0.0020894564 0.15522212
0.041468609 0.0068645854 0.15466259
-0.0040303967 0.014870461 0.15495123
0.038690209 0.019247023 0.15515567
0.041900456 0.014500501 0.15487742
-0.0011918378 0.023324033 0.15380035
0.0039796461 0.027761178 0.15599479
0.015371705 0.029134059 0.15570287
0.025045758 0.026183126 0.15474445
0.033634424 0.02223647 0.15501095
0.0075219595 0.030596219 0.1516123
0.013031388 0.030339714 0.15123743
0.012898444 -0.030099688 0.16043329
-0.0023652932 -0.022148484 0.16398063
0.004907866 -0.025779791 0.16513531
0.014907393 -0.028174888 0.16527265
0.02510462 -0.024373891 0.16483897
0.030585725 -0.020621922 0.16176128
-0.0059792586 -0.014884463 0.16497304
0.029378168 -0.019303355 0.16803657
0.032348152 -0.015009292 0.16477504
-0.0077598654 -0.0050229575 0.1650746
0.033238601 -0.0049122698 0.16488022
-0.0061398949 0.0048270663 0.1651428
0.036895063 0.0040271608 0.16560355
0.04056187 0.0081462022 0.16269369
-0.0025234336 0.013543186 0.16427566
0.0013083628 0.017792115 0.1662153
0.038580831 0.016424833 0.16593306
0.040726304 0.012650934 0.16270325
-3.336279e-05 0.020013429 0.16029219
0.0043449132 0.025436983 0.16491412
0.014972437 0.028651718 0.16485502
0.02505322 0.026151815 0.16511272
0.033202264 0.022316068 0.16455114
0.01604094 0.03010148 0.16394784
-0.00082443643 -0.020591544 0.17110211
0.0056266873 -0.022336422 0.17448349
0.014960475 -0.024743684 0.17539856
0.023194835 -0.021991653 0.174309
-0.0026955658 -0.014944655 0.17473613
0.0023012508 -0.018976916 0.17834884
0.02794097 -0.017461007 0.1761491
0.031030107 -0.012986287 0.17384234
-0.0050820499 -0.0051176092 0.17517135
0.028978435 -0.0032168168 0.17773187
0.03113151 -0.0056907609 0.17370892
-0.0044416343 0.0050724978 0.1750205
0.027320666 0.0053740027 0.17802182
0.034284987 0.0060228743 0.17427878
-0.0018991305 0.012203461 0.17455618
0.0028349722 0.016441941 0.17583148
0.018467976 0.017600562 0.17918827
0.025254443 0.015226226 0.17769702
0.035376359 0.014531626 0.17499663
0.0057736649 0.024635518 0.17491812
0.015011599 0.025333261 0.17534092
0.024477798 0.023326408 0.17321309
0.032394644 0.02117284 0.17173526
0.0095061967 -0.020175913 0.1801396
0.01601395 -0.021027545 0.18147303
0.021106273 -0.02078506 0.18179062
-0.0012654088 -0.012042921 0.18210869
0.0050357147 -0.014902546 0.18346503
0.015046835 -0.015395094 0.18563865
0.025153745 -0.015047826 0.18531744
0.030325273 -0.010812027 0.18234605
-0.0025874593 -0.0046185176 0.18422678
0.005092042 -0.0049640392 0.18697351
0.015114207 -0.0048259939 0.18660049
0.025053006 -0.0051287357 0.18458878
0.030484783 -0.0087788496 0.18336856
-0.0023443343 0.004587736 0.18399031
0.0049429438 0.0052807708 0.18607654
0.015214156 0.0049531185 0.18456668
0.022486188 0.0042000073 0.1817818
-0.0011981853 0.010558662 0.18135895
0.0060731987 0.013891163 0.18237133
0.014284808 0.014879829 0.1817956
0.020754879 0.010989648 0.18032372
0.0074634762 0.024367522 0.18360281
0.011757473 0.023195364 0.18181451
0.017534103 -0.0011540446 0.20915163
0.021618258 -0.0011989196 0.20906843
0.0084127933 0.0069765733 0.2091146
0.014965585 0.0051332819 0.20678464
0.024483914 0.0055477987 0.20740789
0.030232096 0.0093601197 0.20999412
0.0082134334 0.013744917 0.20913208
0.014898768 0.01505391 0.20675139
0.02447295 0.014397788 0.20762327
0.030188769 0.010639682 0.20978856
0.016113088 0.020796631 0.20913886
0.021344813 0.020833086 0.20939752
0.0069284574 -0.0036384349 0.21611588
0.014705673 -0.0060367961 0.214524
0.025054043 -0.0046119536 0.21513253
0.030279364 -0.00039325919 0.21625063
0.0041619572 0.0048481259 0.21421954
0.010838851 0.00080797449 0.21045034
0.028371817 0.0021659979 0.21089624
0.032146733 0.0052692019 0.21497612
0.0044250498 0.01505167 0.21469867
0.028744251 0.017918903 0.21302488
0.031917509 0.013756762 0.21503939
0.0086087249 0.020936355 0.21531866
0.014707224 0.023655873 0.21480493
0.024390908 0.02270025 0.21493696
0.036163509 0.049224034 0.21945393
0.0270373 0.055106409 0.21782692
0.033774517 0.05377356 0.21735886
0.0099571757 -0.010037436 0.22955662
0.016041832 -0.010959419 0.22605738
0.021300673 -0.010476856 0.22674651
0.0053193229 -0.005584137 0.22522138
0.012822007 -0.0095474301 0.22263037
0.025993828 -0.0052981456 0.22487055
0.030186916 -0.00014220043 0.22140892
0.0030345505 0.0049961498 0.22484046
0.029635856 0.00044133261 0.22909141
0.03212535 0.0049519492 0.22513513
0.0044468376 0.015314941 0.22488555
0.029435251 0.019061169 0.22542825
0.031742547 0.014302797 0.22497088
0.0083644111 0.021408278 0.22497123
0.015085821 0.024166699 0.22501066
0.024568141 0.022741299 0.22505875
0.01955577 0.049060121 0.22923568
0.025543083 0.046486605 0.22678353
0.034301151 0.045750871 0.22522046
0.025331061 0.051919822 0.22411132
0.032523327 0.051644169 0.22296149
0.0064495727 -0.031232478 0.23808916
0.013121535 -0.03173317 0.23864065
-0.0018419236 -0.024952212 0.23868623
0.0048153242 -0.025143176 0.23671669
0.014700246 -0.025053822 0.23745662
0.020744121 -0.021992791 0.23897435
-0.0012320689 -0.015173291 0.23896773
0.0048202421 -0.014916839 0.23504139
0.014913902 -0.015722867 0.23326331
0.023013212 -0.013735407 0.235954
-0.00072777213 -0.0061369734 0.23882443
0.0021603089 -0.0053252969 0.23388091
0.027314641 -0.0050820359 0.23482978
-6.023511e-05 0.00020073085 0.23975658
0.0023170447 0.0049845171 0.23501788
0.02949037 0.0015679875 0.23348428
0.030741809 0.0061707017 0.23498119
0.0056726835 0.015030807 0.23467861
0.029551851 0.019243471 0.23185816
0.031619266 0.014815544 0.23501723
0.0087254234 0.022141954 0.23543312
0.014685685 0.025706146 0.23515512
0.025374919 0.02435508 0.23508562
0.030738037 0.021192338 0.23770677
0.027090317 0.039756268 0.23660687
0.033623748 0.039513439 0.23799273
0.019580375 0.046211924 0.23547103
0.024161402 0.04555646 0.23469995
0.033852559 0.04369672 0.23422728
0.026396213 0.050312866 0.23094673
0.007177609 -0.030713819 0.24296124
0.014199942 -0.031095462 0.24387135
-0.0031190659 -0.023724202 0.24434201
0.0035936867 -0.028620729 0.24625371
0.017258476 -0.028799478 0.24629034
0.022707824 -0.0242192 0.24482487
-0.004863319 -0.014938149 0.24453072
0.026939197 -0.015026762 0.24485765
0.030238533 -0.011093427 0.24925654
-0.003499792 -0.0050051091 0.2451902
0.028958 -0.0060808002 0.24309924
0.030945735 -0.0039875461 0.24728476
-0.0015587765 0.003697894 0.24649374
0.0010775146 0.0069874479 0.24298523
0.031760927 0.0048154844 0.24510494
0.0036973387 0.014999266 0.24507679
0.03333091 0.014967839 0.24510753
0.0079570161 0.023671469 0.24561821
0.013800345 0.028509216 0.24304882
0.025704104 0.027645495 0.24223283
0.033100963 0.024503676 0.24558423
0.015882151 0.034324206 0.24687864
0.025210261 0.034823522 0.24284481
0.032528311 0.035927579 0.24533981
0.019422641 0.042846065 0.24522698
0.024309942 0.045295957 0.24468008
0.033179414 0.043673299 0.24505404
-0.0014757589 -0.021742757 0.25306866
0.0049132719 -0.024714898 0.25504836
0.014934916 -0.025928508 0.25504893
0.022657229 -0.022383712 0.25375113
-0.0027485038 -0.014968669 0.25512266
0.001851794 -0.019221919 0.25962025
0.026163789 -0.015306861 0.25528255
0.030632701 -0.01129111 0.25141513
-0.0029706678 -0.004981197 0.25492555
0.028610278 -0.0062021399 0.25756606
0.031841982 -0.0045023509 0.25331238
-0.001389953 0.0041219164 0.25387496
0.0011095508 0.0069768541 0.25745386
0.029860901 0.00077845005 0.25930953
0.032841396 0.0051091867 0.25501251
-0.00019548656 0.010421881 0.25141537
0.003263714 0.015087714 0.25508317
0.034148477 0.015038326 0.25496095
0.007601202 0.024397852 0.2546334
0.010798053 0.028257899 0.2579951
0.034942634 0.024999017 0.25510001
0.0099189812 0.030243125 0.25185055
0.013231465 0.034944586 0.25494134
0.035806052 0.035086341 0.25486913
0.017965432 0.043787591 0.25454667
0.023430653 0.048113294 0.25257972
0.035567138 0.045408648 0.25423682
0.025229698 0.054750912 0.25538453
0.034876145 0.05464647 0.25559247
0.0083702551 -0.020545619 0.26028642
0.01567368 -0.021500843 0.26116514
0.020316962 -0.020336648 0.26140204
-0.00069242838 -0.012682329 0.2614167
0.0052356827 -0.014745171 0.26294744
0.014968115 -0.015160868 0.26470461
0.023064941 -0.014515532 0.26420864
-0.00065676362 -0.0055641546 0.26212883
0.0041224444 -0.0047147158 0.26662424
0.015116815 -0.0049770162 0.26771459
0.02540018 -0.0047055949 0.26561254
-0.00014330071 0.00081302924 0.26054719
0.0042598788 0.0047936519 0.26608148
0.015056978 0.0047116317 0.2687161
0.026385564 0.0046366598 0.26753423
0.030526893 0.0072659892 0.2620959
0.0066331974 0.014855572 0.26561415
0.014964156 0.014960422 0.26889417
0.025055291 0.01482945 0.26902327
0.031388547 0.015120389 0.26473251
0.0088893343 0.022489849 0.2643756
0.013881244 0.025596412 0.26747832
0.025015835 0.024977203 0.26902565
0.032905985 0.02499965 0.26560181
0.015327986 0.034603566 0.26601794
0.024991762 0.034882255 0.26888049
0.034163106 0.035133205 0.26579607
0.018313684 0.043450508 0.26499239
0.02419468 0.045575101 0.26755801
0.035297967 0.044966899 0.26584244
0.025403118 0.054933395 0.26458368
0.034753405 0.054619197 0.26468366
