# .PCD v0.7 - Point Cloud Data file format
VERSION 0.7
FIELDS x y z
SIZE 4 4 4
TYPE F F F
COUNT 1 1 1
WIDTH 512
HEIGHT 1
VIEWPOINT 0 0 0 1 0 0 0
POINTS 512
DATA ascii
-0.04171636 -0.011123515 -0.00019462823
-0.034412347 -0.013066364 -0.00019422581
-0.024845136 -0.014758356 -0.00020608201
-0.015030999 -0.014897854 -0.00026424843
-0.0063889241 -0.012512203 -0.00029955438
-0.050734319 -0.0039932984 -1.1674618e-05
-0.044787202 -0.007723344 -7.9602556e-05
-0.039008833 -0.0099192243 -1.7287579e-05
-0.003039866 -0.0072407601 -0.00021907742
0.0040745079 -0.0035190699 -0.00031045754
0.010408479 -0.00079633022 -0.00016973041
-0.054894973 0.0064549828 -3.8459344e-05
0.0077379625 0.0039313268 -0.00020822496
0.01191129 0.0054670065 -0.00038342949
-0.055198267 0.015577702 -9.3269497e-05
0.008991017 0.014700023 -0.00011544266
0.012227853 0.014949716 -0.00032544954
-0.05294349 0.025249531 -0.00013996163
-0.049984414 0.029813524 -8.8222887e-06
0.008352574 0.026360562 -0.00012082025
0.012018448 0.024599222 -0.0003182934
-0.05140388 0.033028018 -0.00020382136
-0.048126593 0.036610208 -0.0001380957
0.0056044012 0.03495995 -0.00018791924
0.010841168 0.031301949 -0.00020968665
-0.043754138 0.043370582 -0.00021716741
-0.035175011 0.04663844 -0.00023235254
-0.024944052 0.047334593 -0.000265387
-0.015033222 0.047761586 -0.00027907686
-0.0047218176 0.045847293 -0.00022987962
0.0019248279 0.042196505 -0.00018730959
-0.032291912 0.05015007 -3.2419317e-05
-0.024475062 0.050516885 -7.5566306e-05
-0.014517432 0.050919328 -0.00014460733
-0.008469386 0.050558154 -0.00022548324
-0.032038864 -0.020604612 0.0065106112
-0.024799222 -0.022056092 0.0053058714
-0.015079131 -0.021991715 0.0058192746
-0.0083373068 -0.020709552 0.0069096792
-0.05012409 -0.010100569 0.0089203874
-0.044078227 -0.013454917 0.004598049
-0.035197578 -0.015281487 0.0031744756
-0.025047446 -0.014809626 0.00283032
-0.014737627 -0.014493672 0.0028725052
-0.0053225728 -0.015484846 0.003323586
0.0038954632 -0.013415055 0.0052121161
-0.052766688 -0.0040513817 0.0044354084
-0.045107231 -0.0045753433 0.0025561335
-0.035227232 -0.0054392316 0.0030013337
-0.025109498 -0.0055016917 0.0023939407
-0.014836539 -0.0055893059 0.0024703788
-0.0048467102 -0.0050893528 0.0031666732
0.0048743123 -0.0044418466 0.0028875766
0.012399906 -0.0035785472 0.0050076689
-0.060128208 0.0095225098 0.0079555279
-0.054800306 0.0051242816 0.0034877642
-0.04545708 0.0047341827 0.0030688783
-0.034948904 0.0050081243 0.0017110637
-0.02500225 0.0050361091 0.0019177864
-0.014899349 0.0048973854 0.0018465413
-0.005095691 0.0050274078 0.0013827654
0.0049571162 0.0050131278 0.0031778552
0.014535437 0.0050255987 0.0039723055
-0.060640123 0.015148537 0.0067729284
-0.054620758 0.014913891 0.0030606494
-0.045343053 0.014848933 0.0018744407
-0.035024811 0.014993454 0.0018283039
-0.024912894 0.01497023 0.0020350469
-0.015080941 0.015007508 0.0019925828
-0.0047991755 0.015020967 0.0016586942
0.0053547709 0.01496035 0.0027678141
0.015274568 0.015158553 0.0037190339
-0.060551692 0.022915199 0.0070161563
-0.055303935 0.025095446 0.0036290146
-0.045571614 0.025193632 0.0020904434
-0.03499461 0.02495118 0.0018173781
-0.024976175 0.024982382 0.0020649058
-0.014973476 0.024955658 0.001954989
-0.0050147139 0.024970436 0.0015471069
0.0052692615 0.024988521 0.0027579744
0.015023063 0.024980875 0.0038236626
-0.054083489 0.034431767 0.0042499471
-0.045140296 0.035049379 0.0030077337
-0.034944098 0.035043713 0.0013425584
-0.024986062 0.034921069 0.0017364842
-0.014956228 0.035018463 0.0016781896
-0.0050121476 0.035119683 0.0013419722
0.0053164214 0.035435967 0.0038043885
0.013374822 0.034294337 0.0042057862
-0.051826704 0.042246245 0.0061055818
-0.044787992 0.044937145 0.0040040319
-0.035362996 0.045142069 0.0033813629
-0.024884414 0.044633862 0.0019657582
-0.01477372 0.044937849 0.0025621455
-0.0046610753 0.045168038 0.0037413377
0.0044845715 0.044760719 0.0040063281
0.011044292 0.041444428 0.0063493047
-0.042063531 0.051120769 0.0060527232
-0.034591924 0.052910775 0.0042855898
-0.024915207 0.054196175 0.004247542
-0.015126579 0.054261457 0.0042349338
-0.0056105484 0.05266273 0.0044204243
0.0010039932 0.050654076 0.0075178086
-0.032796152 -0.020913342 0.015218014
-0.024905192 -0.022810364 0.015205202
-0.014956954 -0.022711786 0.015026896
-0.0076373415 -0.020870151 0.015173326
-0.05025271 -0.010279632 0.014948922
-0.045328148 -0.014687343 0.015060445
-0.037836038 -0.019103175 0.014801645
-0.0025630407 -0.018917568 0.014664639
0.0047129337 -0.014008082 0.014978417
-0.053896535 -0.0054158843 0.014917025
-0.033663366 -0.0024820589 0.013525087
-0.024946017 -0.0047181281 0.014838329
-0.015134368 -0.004152223 0.014804315
-0.0071904338 -0.0019790451 0.012943079
0.0095273983 -0.0093523115 0.014915579
0.013203174 -0.0045283698 0.015052665
-0.060283262 0.0091176955 0.015648799
-0.058747325 0.0040512895 0.014676117
-0.042266458 0.0065631992 0.013721405
-0.037329417 0.002430795 0.016698085
-0.010321195 0.00012996832 0.019692492
-0.0032874576 0.0039438247 0.015826032
0.0015062921 0.0069706026 0.011944172
0.017861424 0.0051502506 0.015061767
0.024876222 0.0093830712 0.015585382
0.03242933 0.0094392467 0.018573677
-0.060932014 0.0149388 0.015077868
-0.045007024 0.015026285 0.014521091
-0.00031233914 0.01039566 0.018547501
0.0025343942 0.015125677 0.014866967
0.019718222 0.014530194 0.01496971
0.025173692 0.015218558 0.014942784
0.034121092 0.014860813 0.017450757
0.040162165 0.012252153 0.019772697
-0.060667835 0.023619728 0.014993759
-0.059414968 0.028582918 0.014832406
-0.044076812 0.025048112 0.014752964
-0.00093786599 0.028399754 0.018028092
0.0027509299 0.024664488 0.014367175
0.019103777 0.024891198 0.014931705
0.023154311 0.020864952 0.016704351
0.034468427 0.020180095 0.018651996
-0.056882448 0.035214119 0.014936985
-0.042314947 0.033489849 0.012877217
-0.036539823 0.036413431 0.016466349
-0.029250989 0.039642155 0.019296883
-0.011932404 0.039407924 0.018975548
-0.0042589954 0.035787459 0.015596561
0.0012969536 0.032536466 0.011796948
0.01531224 0.034987427 0.014978333
-0.052233379 0.042847406 0.014938944
-0.047320429 0.047862802 0.014922136
-0.033824604 0.043286115 0.012491594
-0.025012363 0.044379774 0.014490111
-0.015177771 0.04355086 0.014488381
-0.007386684 0.042001359 0.011981352
0.006635529 0.047033273 0.014913448
0.011297992 0.04181103 0.014986077
-0.042379107 0.051296778 0.014939538
-0.035008647 0.05497643 0.014960998
-0.025077689 0.057443179 0.014835108
-0.014891474 0.057389271 0.015069797
-0.004959974 0.054230921 0.015036953
0.00159948 0.051045723 0.015065376
-0.033135533 -0.021152059 0.024965445
-0.024875777 -0.022865497 0.024993699
-0.015033976 -0.022809338 0.024935251
-0.0074214335 -0.020916864 0.025247475
-0.050435036 -0.010433742 0.025186826
-0.045313183 -0.014897902 0.024964923
-0.038046937 -0.019148216 0.025402319
-0.0024271908 -0.018959068 0.024844341
0.0050555854 -0.013975661 0.025042783
-0.054346196 -0.0052290242 0.025015494
-0.030927084 -0.0005533995 0.02564412
-0.02492078 -0.0022630128 0.02511031
-0.015498198 -0.0017750744 0.025280915
-0.0098130694 -9.3922434e-05 0.02953483
0.0096631944 -0.0095550101 0.024953602
0.013239764 -0.0046723485 0.025074737
-0.060326133 0.0083352327 0.025269264
-0.058752302 0.0033575704 0.024803763
-0.040301472 0.0094421823 0.024256399
-0.036203351 0.0043363166 0.0248871
-0.01078319 0.00025255562 0.023460934
-0.0048774057 0.0047464934 0.025159337
0.017772274 0.0048975009 0.024991158
0.037591029 0.0093267262 0.022508333
0.042025857 0.0091841733 0.026971661
-0.061186109 0.015190768 0.024979517
-0.041502427 0.015173579 0.024861995
-0.039778475 0.010401394 0.025872922
-0.00028031992 0.012286638 0.02456696
0.0004284039 0.015267227 0.025049902
0.01971448 0.014952311 0.025067974
0.037776977 0.015929969 0.021680444
0.04245856 0.014854217 0.025638279
-0.060710665 0.023814907 0.024947254
-0.059652157 0.028783189 0.024945728
-0.041143257 0.023777295 0.024738524
-0.039412402 0.028289277 0.026143588
-0.0016652637 0.026259411 0.025362384
0.00062888651 0.022299102 0.024827296
0.019046146 0.025210647 0.025200333
0.037073065 0.020123787 0.021045757
0.043554097 0.020081334 0.029396495
-0.057223774 0.035152454 0.024939535
-0.034962818 0.034159075 0.024725754
-0.025998969 0.038841184 0.02550667
-0.01419051 0.038638618 0.025538025
-0.0065887789 0.033709493 0.024753397
0.015551191 0.035014354 0.025208894
-0.052230012 0.042908501 0.025037447
-0.047252379 0.048262827 0.024905985
-0.022254953 0.040458281 0.023738045
-0.018550839 0.040430006 0.023067653
0.00662226 0.047008697 0.024948996
0.011486956 0.042029541 0.025217127
-0.042121775 0.051461879 0.024976719
-0.035073183 0.055173747 0.025050189
-0.02493443 0.057603907 0.024913898
-0.014950934 0.05742174 0.025034526
-0.0050439029 0.05412481 0.025158651
0.0016860464 0.051197864 0.025214285
-0.033118807 -0.021201195 0.035173405
-0.024894858 -0.02227119 0.035945036
-0.015358927 -0.022472335 0.035686478
-0.0074188914 -0.020963999 0.035058472
-0.050515879 -0.01062049 0.0354601
-0.045040682 -0.015029222 0.035159338
-0.034884777 -0.016383009 0.037633933
-0.025132468 -0.014989637 0.037848473
-0.015151894 -0.014836077 0.038447827
-0.0038331838 -0.015936593 0.037156094
0.0044460702 -0.013656286 0.03586746
-0.05399378 -0.0046714023 0.035999786
-0.045282248 -0.0045282138 0.039270476
-0.034712732 -0.0044974945 0.036014371
-0.025186107 -0.0062031569 0.034045592
-0.014610896 -0.0056325071 0.033905126
-0.0051784483 -0.0048407717 0.035927132
0.0053229216 -0.0053503001 0.037908021
0.012844884 -0.0049265022 0.035506085
-0.060386717 0.0078176539 0.034992106
-0.0564261 0.0034813466 0.03649193
-0.044429727 0.0052757682 0.036391973
-0.037924688 0.0023233949 0.032425486
-0.0028515568 0.0029432536 0.032372903
0.004556241 0.0052463552 0.036922593
0.016610902 0.0054985476 0.036047138
0.0449198 0.0086004492 0.035461992
-0.061367854 0.014945275 0.035103999
-0.052604582 0.015884306 0.039535299
-0.045365248 0.014657664 0.034836266
-0.00014380676 0.010233552 0.030476302
0.0048594875 0.014818455 0.03490274
0.017121566 0.01509 0.03653444
0.04449385 0.015345586 0.03495514
-0.06067276 0.023336371 0.035215754
-0.056114599 0.0249775 0.038042065
-0.045009423 0.02509658 0.035357457
-0.039523549 0.028878564 0.031163307
-0.0012929745 0.028949423 0.031329818
0.0046121948 0.025120625 0.035125989
0.016872026 0.02472713 0.0367327
0.046106819 0.020266348 0.035187572
-0.056910504 0.03519262 0.035248961
-0.044801492 0.034757886 0.037832223
-0.03565222 0.035949398 0.033425976
-0.028289992 0.039034262 0.03185818
-0.012147517 0.038982477 0.031731226
-0.0045097778 0.035511397 0.034291662
0.0049856552 0.034927092 0.03843433
0.015121352 0.035081603 0.035678715
-0.052277222 0.043112759 0.035070796
-0.045909971 0.045776967 0.037285782
-0.034764584 0.044928811 0.037825912
-0.025021562 0.044424474 0.03549929
-0.015199316 0.044418804 0.035907581
-0.004864953 0.044658035 0.03854239
0.0055277059 0.04561004 0.036927905
0.011533582 0.042025633 0.035532165
-0.042479534 0.051562551 0.035081189
-0.03500285 0.054977719 0.035536766
-0.024641013 0.056026898 0.036491059
-0.015451472 0.056022432 0.036313441
-0.004832041 0.054172546 0.035194688
0.0017997787 0.051171917 0.035087343
-0.032807317 -0.021096122 0.045026954
-0.025084887 -0.022202903 0.045012731
-0.015009464 -0.02226123 0.045003857
-0.0076790382 -0.020878835 0.045232512
-0.050465833 -0.010751638 0.044725593
-0.044659432 -0.014279691 0.044700507
-0.037185058 -0.017894605 0.044025108
-0.010988048 -0.018994393 0.040199149
-0.0034262415 -0.018384011 0.04450902
0.0045872191 -0.013728829 0.045014225
-0.054031011 -0.0049035624 0.045042343
-0.046430938 -0.0089441165 0.042847373
-0.039323576 -0.0092779305 0.040166084
0.0090866657 -0.0090018781 0.044511564
0.012900077 -0.00433025 0.044758789
-0.060485348 0.0078407517 0.04496409
-0.057558555 0.0044372161 0.044118002
0.016970398 0.0047357585 0.044651136
0.045452841 0.0084986147 0.044926967
-0.060928885 0.015511621 0.045287266
-0.058072083 0.013319035 0.042185903
0.019109469 0.014957073 0.04485257
0.020040337 0.017490806 0.048135247
0.0451888 0.015718019 0.045103565
-0.060557827 0.023203956 0.045136854
-0.058123447 0.027270909 0.043713734
0.018454775 0.025108881 0.045002375
0.045454614 0.020110007 0.044509757
-0.056082215 0.035039246 0.044558734
0.009840142 0.035059452 0.04002098
0.0148016 0.034958851 0.044681657
-0.052077308 0.042878315 0.045078102
-0.046688955 0.047795944 0.044773288
-0.039465562 0.049343247 0.040104643
-0.0057044113 0.049333703 0.040205382
0.0062009054 0.046600226 0.044907894
0.011321058 0.041792907 0.045071118
-0.042343553 0.051366389 0.044838957
-0.035151232 0.054507047 0.044657007
-0.025140626 0.056922644 0.044908397
-0.014746894 0.056306399 0.044687044
-0.0049558571 0.053562094 0.044765912
0.0016158718 0.050956775 0.045190513
-0.032982692 -0.021139715 0.055073999
-0.025095405 -0.022473417 0.054920115
-0.014957698 -0.022326766 0.055105466
-0.0077627674 -0.021011977 0.055051506
-0.050718337 -0.01069236 0.055373941
-0.044879664 -0.014511315 0.054984659
-0.037294853 -0.01881158 0.054964382
-0.0031713841 -0.01849851 0.055034623
0.0046955477 -0.013682574 0.054958694
-0.054059871 -0.0049446872 0.054856222
-0.04963458 -0.0095659625 0.054619268
0.0092666456 -0.0091765532 0.054919258
0.012940643 -0.0045354562 0.05492362
-0.060578212 0.0080288192 0.054833375
-0.058577638 0.004083341 0.054954499
0.017463544 0.0048314272 0.054932322
0.038798798 0.0089674955 0.059127402
0.043598004 0.00836448 0.054715313
-0.060966276 0.015552919 0.055047642
-0.059820291 0.011357863 0.054955315
0.019079072 0.014387568 0.054768648
0.020147139 0.01638758 0.055862017
0.039215419 0.010102816 0.059704736
0.043816235 0.015154483 0.054893609
-0.06071661 0.023899654 0.054966293
-0.059420656 0.02689621 0.054903913
0.018703677 0.02524092 0.054847479
0.020091368 0.021104936 0.058110178
0.043308895 0.02047254 0.054933071
-0.056843203 0.035122134 0.055040129
0.015158958 0.035123896 0.054978866
-0.052325688 0.042920679 0.055139434
-0.046985172 0.047765635 0.055092692
0.0063242503 0.046638191 0.055016503
0.011357607 0.04160459 0.05490043
-0.042257801 0.051468909 0.055051789
-0.035057373 0.054775488 0.055021778
-0.025106201 0.057081319 0.054950614
-0.014979574 0.056811135 0.054913029
-0.0047821985 0.053823128 0.055030696
0.0012967926 0.05083121 0.054969233
-0.033075575 -0.02111876 0.065171383
-0.025015827 -0.022695811 0.065031506
-0.014921317 -0.02239986 0.06514059
-0.0076774987 -0.021017686 0.065181419
-0.050574455 -0.010545667 0.064921752
-0.044909496 -0.014595968 0.065100022
-0.037536841 -0.018897949 0.065115757
-0.0030102385 -0.018520756 0.064953342
0.0047937669 -0.013761097 0.065002374
0.010037171 -0.010087082 0.06893263
-0.053952295 -0.0049667116 0.065093398
-0.049658258 -0.0097384211 0.064747013
0.0091880271 -0.0089439973 0.064955458
0.013147485 -0.0043764468 0.064921059
-0.060519818 0.0079410207 0.065036103
-0.058409892 0.0040426184 0.06493362
0.017519115 0.0048080473 0.064885996
0.024166526 0.0090258829 0.064691424
0.034885269 0.0088356277 0.062681176
0.041276336 0.0089939553 0.06092843
-0.060907926 0.015451253 0.065020531
-0.059879869 0.010915515 0.064530022
0.018669982 0.01469547 0.064963669
0.024344932 0.014746631 0.065853596
0.035137605 0.014752113 0.064831845
0.04214941 0.015319634 0.062458646
-0.060860973 0.024046477 0.065045074
-0.059423778 0.026298892 0.065240763
0.018572435 0.025759099 0.064874172
0.023646116 0.021197094 0.065130666
0.034829229 0.02055818 0.06321153
0.040780783 0.020392617 0.060901191
-0.056837887 0.035063207 0.065022938
0.014925372 0.035091501 0.064979263
-0.052415192 0.042950019 0.064956442
-0.046987362 0.047644574 0.064954132
0.0061775409 0.046710923 0.065006383
0.011213534 0.04174367 0.064911932
-0.042054493 0.051540185 0.065011263
-0.035137076 0.054789096 0.064961933
-0.024935931 0.057096925 0.064939529
-0.015004961 0.056918222 0.06489002
-0.0047901454 0.05393235 0.064932585
0.0013090984 0.050831731 0.065108836
-0.042250961 -0.02132027 0.078870706
-0.033884563 -0.022211989 0.076359332
-0.02500635 -0.023802834 0.075839311
-0.015079474 -0.023410995 0.075594015
-0.0062597771 -0.022066232 0.07662455
0.0024095655 -0.021243729 0.078868963
-0.052569825 -0.012555015 0.077951789
-0.045434836 -0.015147571 0.0754233
-0.037597694 -0.019038642 0.074377
-0.0030814931 -0.018681714 0.07439287
0.0050515276 -0.014779791 0.075515389
0.011900705 -0.012144837 0.078301392
-0.060972359 -0.002275584 0.078843795
-0.05483387 -0.0054261633 0.075657614
-0.049767371 -0.0096462416 0.073923059
0.0092707882 -0.0090224352 0.073911384
0.013952907 -0.0048704185 0.075844482
-0.061879229 0.0062340782 0.0773158
-0.058567267 0.0039384803 0.074554838
0.017745703 0.0045881532 0.074691504
0.021607725 0.0067002936 0.078612603
-0.061888102 0.015225609 0.075722635
-0.059940431 0.010510456 0.073006496
0.019042285 0.014560985 0.074348599
0.021607334 0.015177922 0.076980338
-0.062194515 0.024419479 0.076237574
-0.059370782 0.02651556 0.074326441
0.0187342 0.025685482 0.074459702
0.021823723 0.023901334 0.077719331
-0.061938658 0.033106994 0.078906961
-0.057100493 0.035257187 0.075109996
0.015688768 0.03528611 0.075021736
0.021191619 0.033469349 0.078838997
-0.053177636 0.043699082 0.076112412
-0.04718107 0.04779106 0.074827477
0.0062728752 0.046897229 0.074741565
0.012803297 0.043162338 0.076038562
-0.051243797 0.051530316 0.078771934
-0.043749694 0.052948564 0.076896027
-0.035308596 0.055736348 0.075697452
-0.025304662 0.057437368 0.074943617
-0.014893657 0.057280369 0.074940406
-0.0047775581 0.054963037 0.075622909
0.0029144429 0.052177258 0.076867126
0.010360537 0.050088935 0.079648212
-0.032365534 0.060783394 0.07914599
-0.024451522 0.061571293 0.079004452
-0.01584889 0.062006451 0.078973129
-0.0085162502 0.060516603 0.078993484
-0.042654224 -0.0212867 0.080343798
-0.03552581 -0.023354121 0.080257498
-0.025453573 -0.025382519 0.08024352
-0.014641833 -0.025458299 0.080191121
-0.0049618729 -0.02344528 0.080176517
0.00086810131 -0.021102278 0.080201827
-0.052284647 -0.012891219 0.080230899
-0.047341205 -0.018199233 0.080235101
-0.00039870242 -0.019884624 0.080030091
0.005308596 -0.017547032 0.080193169
0.011978741 -0.012140099 0.080264412
-0.060355853 -0.0012038031 0.080148481
-0.057701211 -0.0055962019 0.08020658
0.017048016 -0.0050268671 0.080386236
0.020163592 -0.0001817195 0.080388665
-0.062671557 0.0055202283 0.080173321
-0.059757009 0.00076604239 0.080085501
0.019495711 0.0029828567 0.080285333
0.020767769 0.0042424784 0.080160648
-0.06423524 0.014881185 0.080221176
0.022173245 0.019420179 0.080028258
-0.063937418 0.025107857 0.080254436
0.01952065 0.029320758 0.080210999
0.021585699 0.025650701 0.080148213
-0.061964378 0.034663554 0.080381289
-0.059667025 0.039366338 0.080332607
0.017735695 0.036072992 0.080273837
0.020816175 0.032510683 0.080187328
-0.060055029 0.04012844 0.080490619
-0.054835219 0.044841021 0.080289133
-0.049585856 0.049681451 0.080103941
0.0085560633 0.048271064 0.080327958
0.013278927 0.044651486 0.080337442
-0.050518818 0.050476957 0.080199689
-0.045517545 0.054124903 0.080119587
-0.036986288 0.057027288 0.080038369
-0.023947772 0.059003759 0.080157392
-0.015505226 0.05941036 0.080394313
-0.0049950187 0.057938624 0.080470935
0.0049915365 0.053240355 0.080450349
0.010464584 0.050587699 0.080418982
-0.021637818 0.060207646 0.080052748
-0.014823124 0.060881846 0.080255628
-0.0094732903 0.06018497 0.080237851
