# .PCD v0.7 - Point Cloud Data file format
VERSION 0.7
FIELDS x y z normal_x normal_y normal_z curvature
SIZE 4 4 4 4 4 4 4
TYPE F F F F F F F
COUNT 1 1 1 1 1 1 1
WIDTH 644
HEIGHT 1
VIEWPOINT 0 0 0 1 0 0 0
POINTS 644
DATA ascii
-0.042350914 -0.016569607 0.042780984 -0.63171005 -0.60373807 0.48625368 0
-0.037544318 -0.018276745 0.042230684 0.42448032 0.18338259 0.88667196 0
-0.034164615 -0.018944642 0.041346546 0.30964282 0.87453181 0.37324995 0
-0.010679003 -0.018994587 0.040347658 -0.23142865 0.18770178 0.95457262 0
-0.0072786724 -0.018946066 0.041685935 -0.19185297 0.78396064 0.59042197 0
-0.0021885792 -0.018178126 0.042487532 -0.49612474 0.86604577 0.061845854 0
0.0018373164 -0.01619265 0.042545438 0.58594483 -0.80987823 0.027674917 0
-0.05054738 -0.010723473 0.042687025 -0.74184823 -0.67044866 -0.012638396 0
-0.047654681 -0.0125657 0.042533036 0.86039793 -0.34897956 -0.37138754 0
-0.042759303 -0.013003571 0.041052721 0.015841654 0.42504275 0.90503466 0
-0.037739553 -0.012591949 0.040577937 0.10172105 0.13752417 0.98526132 0
-0.034380823 -0.01345167 0.040148802 0.24280168 0.10596984 0.96427059 0
0.0036342917 -0.014217486 0.042620923 -0.53138316 0.84688175 0.020569772 0
0.0070040943 -0.011916096 0.04263249 0.67419577 -0.73194301 0.098587774 0
-0.055020932 -0.0051444918 0.043972947 -0.78391647 -0.61971682 0.03776316 0
-0.05236483 -0.0075812396 0.042496163 0.69326097 0.71709907 0.071820289 0
-0.049711902 -0.0098166214 0.041994274 0.7126683 0.69941133 0.054108404 0
-0.04159512 -0.0091651343 0.040120605 -0.090146936 0.16658229 0.98189813 0
-0.038453314 -0.0094581759 0.04001246 0.20866515 0.32922083 0.92090857 0
0.0090512987 -0.0088796625 0.042106904 -0.70419151 0.70991772 -0.011453406 0
0.011401854 -0.0070675923 0.042239666 0.80577034 -0.58860493 0.065409526 0
-0.056221545 -0.0022470523 0.042520888 -0.84679246 -0.52834153 0.061625134 0
-0.054149989 -0.0042940299 0.042577416 0.82021648 0.57099712 0.034745116 0
0.013752621 -0.0028896197 0.042652868 -0.85963053 0.44797984 0.2456612 0
0.015619149 -0.001258657 0.043057147 0.89169508 -0.45247144 -0.012224589 0
-0.057839077 0.0026467931 0.042346861 -0.018386906 -0.19937043 0.97975171 0
-0.053519603 0.0034774214 0.040390428 0.29589579 -0.13686857 0.94536382 0
0.013230197 0.0025957194 0.040366482 -0.22546539 0.12662527 0.96598732 0
0.016592585 0.0026663116 0.042663179 -0.52089375 0.40154991 0.75327778 0
-0.060558852 0.0078943614 0.042762976 -0.97345495 -0.22872953 -0.0082690949 0
-0.057942543 0.0071914196 0.042278457 0.5804764 0.16033767 0.79833513 0
-0.05340666 0.0072418842 0.040462878 0.25051752 0.05376048 0.96661818 0
0.018262584 0.00766228 0.042432573 -0.80671561 -0.47358674 0.35344812 0
0.043170113 0.0089919241 0.042506456 -0.65498066 -0.75563782 0.0034399391 0
0.047242004 0.00819478 0.042441741 0.48249251 -0.87528569 -0.03280279 0
-0.061101843 0.01296893 0.042560551 -0.99576443 -0.08564125 0.033448528 0
-0.057976436 0.012114538 0.041363806 0.45033097 0.296819 0.84208101 0
-0.054236852 0.012037522 0.040193971 0.14496286 0.11036763 0.9832623 0
0.019019002 0.012536415 0.042576943 -0.99034148 0.1259789 0.057904873 0
0.020008698 0.01493595 0.041055661 0.99896634 -0.044742554 -0.0080261054 0
0.041295126 0.012303956 0.042516164 -0.97311831 -0.22931723 -0.021314189 0
0.049206544 0.012381586 0.042583507 0.98483777 -0.17347322 -0.0012867464 0
-0.061188377 0.017813878 0.042468775 -0.99682599 0.069792785 0.038301434 0
0.019081287 0.017419288 0.042481847 -0.99805099 0.038316064 0.049255554 0
0.020047592 0.017142387 0.043340221 0.9999516 0.0036256902 -0.0091503356 0
0.042497121 0.017666703 0.042385772 -0.79840142 0.60210454 -0.0050299177 0
0.048697427 0.018021835 0.042597711 0.92083341 0.38947344 0.019401519 0
-0.060950048 0.022231299 0.042471901 -0.98701239 0.14973877 0.058180518 0
-0.059899036 0.02398652 0.042382848 0.99222738 -0.091067396 0.0848023 0
-0.054211814 0.024775075 0.040023986 -0.0064674667 -0.075011156 0.99716175 0
0.019146381 0.022647304 0.042405199 0.99297822 -0.11624984 0.021916475 0
0.02002261 0.020696742 0.044052571 0.99940324 0.032755334 0.010965934 0
0.046977412 0.020291848 0.042415015 0.12291005 0.99201196 0.028380021 0
-0.060593519 0.026971223 0.042641357 -0.9768827 0.21375722 0.0028709241 0
-0.058275774 0.027749348 0.041771319 0.65122801 -0.34919763 0.67376786 0
-0.053116906 0.028074807 0.040206321 0.13582589 -0.073212862 0.98802394 0
0.018156176 0.027513333 0.042635631 -0.76845819 -0.44228092 0.46244961 0
-0.057924118 0.032345403 0.042552084 -0.37217382 -0.059289873 0.92626745 0
-0.052383181 0.032884385 0.040300336 0.16570875 -0.04129637 0.98530972 0
0.0097190924 0.033379592 0.040110815 -0.18747509 -0.077118725 0.97923732 0
0.012961771 0.033070691 0.040886123 -0.28388771 -0.22017884 0.93323576 0
0.016692733 0.032221001 0.042718407 0.86272752 0.12140135 0.49087974 0
-0.056337062 0.03734624 0.042700592 -0.86612594 0.49160591 0.090274408 0
-0.05318813 0.037737474 0.041418158 0.63091666 -0.27295876 0.72624904 0
-0.049670726 0.037684172 0.040019643 0.16623108 -0.016260168 0.98595279 0
0.0099205663 0.036280457 0.040025625 -0.18613988 0.099424124 0.97747982 0
0.013174498 0.037648056 0.042408563 -0.79714924 -0.35736486 0.4866657 0
0.015752478 0.035712145 0.041917551 0.87317091 0.48738235 0.0055682673 0
-0.055089977 0.040143695 0.043872312 -0.83790541 0.54580826 -0.0028272867 0
-0.052484147 0.042389315 0.042505741 0.36130354 -0.33735082 0.86928368 0
-0.049696021 0.044533618 0.043127943 0.67771965 -0.73203784 0.069401979 0
0.0088634789 0.043879226 0.042956736 -0.71522963 -0.6982289 -0.030379198 0
0.011407055 0.041768175 0.04214333 0.79319304 0.60890126 0.0091633229 0
-0.050536565 0.045928136 0.042592097 -0.73368508 0.67937773 -0.012333875 0
-0.047753088 0.047505163 0.04264053 -0.56862956 0.81463456 0.11415374 0
-0.043877739 0.049037632 0.041867416 0.44600564 -0.7964648 0.40831703 0
-0.039117932 0.049912103 0.040028665 0.23411644 -0.25127527 0.93917531 0
-0.010780101 0.049501806 0.040172871 -0.19597276 -0.29434204 0.9353916 0
-0.0071807397 0.048952125 0.04014954 0.065413877 -0.28867099 0.95519108 0
-0.0046205935 0.049804658 0.040087812 0.2147285 -0.18516517 0.95896071 0
0.0034395768 0.048893053 0.042671021 -0.51580477 -0.8566131 0.012629488 0
0.0066000326 0.046800815 0.04264513 0.62133503 0.78348869 0.0093922196 0
-0.045370888 0.050328095 0.043600589 -0.58811039 0.80878019 -0.0008402387 0
-0.04217213 0.051595904 0.042592064 -0.50364786 0.82253426 0.2641519 0
-0.037941881 0.053211797 0.042312559 0.26372164 -0.7891044 0.55476582 0
-0.033051908 0.053559341 0.041340638 0.25769079 -0.61633348 0.7441293 0
-0.029285032 0.054944947 0.040143207 0.5416261 -0.19782367 0.817011 0
-0.011635928 0.052837733 0.040808953 -0.32412127 -0.23815335 0.91554809 0
-0.0075252033 0.053078845 0.042307176 -0.15474886 -0.66501725 0.73061955 0
-0.0027337854 0.052811127 0.042161714 0.28492868 -0.026431641 0.9581843 0
0.001278125 0.051166669 0.042311911 0.5096547 0.85946375 -0.039675906 0
-0.035846222 0.055437338 0.042353328 -0.35924786 0.93323117 0.0045306645 0
-0.03202546 0.056058791 0.042795986 -0.28059757 0.939161 0.19809495 0
-0.027399438 0.056722604 0.04249407 0.23936152 -0.9673053 0.083824955 0
-0.022680437 0.057368308 0.04254527 0.52610749 -0.096255727 0.84495306 0
-0.017426264 0.057145998 0.042801116 -0.43736348 -0.88634658 0.15199646 0
-0.012701673 0.056320682 0.042751983 -0.28574634 -0.89914179 0.33150131 0
-0.007576074 0.055740677 0.042676862 0.33696249 0.94150549 -0.0048646936 0
-0.035818867 -0.020503204 0.047553256 -0.38503191 -0.92290068 0.0022052033 0
-0.032308321 -0.021114867 0.04767926 0.22231217 0.95863163 0.17777176 0
-0.02751356 -0.02224057 0.047506806 -0.77137148 -0.25637928 0.58245659 0
-0.022494793 -0.022812 0.047521178 -0.62581652 0.77275103 -0.10587531 0
-0.017338978 -0.022829298 0.047423322 0.32163993 -0.94521827 0.055768628 0
-0.012240833 -0.021951621 0.047564723 -0.13273856 0.98771679 0.082437292 0
-0.0078107654 -0.020865871 0.047316331 0.38051406 -0.92408657 -0.035680119 0
-0.004597154 -0.020179128 0.048513968 0.39592147 -0.91815472 -0.015431676 0
-0.045448236 -0.015213047 0.048128683 -0.57788068 -0.81612116 -0.00036072079 0
-0.042569082 -0.016729375 0.047398556 -0.53695148 -0.84329289 -0.023241194 0
-0.037717454 -0.019019859 0.047503229 0.22488897 0.969742 -0.09500201 0
-0.034591313 -0.019772183 0.047967635 0.43172774 0.901954 0.0094895186 0
-0.0059867422 -0.019370411 0.046613716 -0.39421988 0.91877174 -0.021195173 0
-0.0022887392 -0.01825822 0.047525954 -0.48097587 0.87396681 -0.06959983 0
0.0017759009 -0.016109783 0.047489833 0.64914036 -0.76066715 0.0015076266 0
-0.050686926 -0.010628826 0.047470957 -0.72460139 -0.68902123 -0.014235675 0
-0.04762046 -0.012719411 0.047516637 0.98693919 0.16092074 0.0074480912 0
-0.044203982 -0.014784247 0.047525462 0.54241627 0.84010983 0.00019900959 0
0.0038232589 -0.013982991 0.04780513 -0.62848681 0.77739358 0.025759889 0
0.0071044792 -0.012067055 0.047363542 0.62736177 -0.77871138 -0.0050791712 0
-0.055066071 -0.0050133853 0.048727334 -0.82063013 -0.57132083 -0.012599359 0
-0.052316085 -0.0077479174 0.047555603 0.55184984 0.83216709 0.054403108 0
-0.049675096 -0.009874153 0.048092484 0.72327775 0.68927217 -0.042109419 0
0.0091028931 -0.0088707432 0.047283653 -0.75337774 0.6552543 0.055352692 0
0.011629906 -0.007014425 0.047385901 0.80745542 -0.58987659 0.0078243846 0
-0.05614955 -0.0023084648 0.047678098 -0.85593456 -0.5148164 -0.048374157 0
-0.054368876 -0.0040713516 0.047514796 0.84746099 0.52858192 0.049101703 0
0.013830376 -0.00304625 0.047642644 -0.85968482 0.51077211 0.007346367 0
0.015680274 -0.0012584445 0.047365412 0.8917799 -0.45237461 0.0092682196 0
-0.058162842 0.0023812617 0.047377225 0.91804379 0.38956985 -0.073695093 0
0.016864879 0.0026179107 0.047420941 0.87233418 -0.48713064 -0.04167565 0
-0.060624823 0.0081895208 0.047330048 -0.97329766 -0.22939862 0.0082397712 0
-0.059384517 0.0069374624 0.047523357 0.9743197 0.22479001 -0.013058755 0
0.018308697 0.0073876698 0.047320727 -0.75422651 0.56245381 0.3388038 0
0.043103479 0.0086476384 0.047623739 -0.56224734 -0.82182872 -0.092061661 0
0.046727479 0.0082018664 0.04741079 0.41765726 -0.9054637 0.075484142 0
-0.060893603 0.012822138 0.047760379 -0.99558979 -0.093526542 -0.0073289648 0
-0.059968453 0.010486361 0.047403172 0.99178153 0.12712471 -0.014440127 0
0.019289801 0.01260529 0.047450077 0.98950279 -0.14445229 0.0042141164 0
0.020025315 0.01407515 0.049541477 0.98278701 -0.17559497 -0.057412177 0
0.040907521 0.012557033 0.047576237 -0.98533338 -0.14861168 -0.083861344 0
0.04881214 0.012514705 0.047525827 0.9823668 -0.11218961 0.14956293 0
-0.061095349 0.017774576 0.047560591 -0.72852182 -0.63745654 0.25080898 0
0.018942991 0.017249234 0.047658958 -0.99992591 -0.0093166502 0.0078348937 0
0.020088691 0.017435195 0.047659375 0.99980617 0.017272001 -0.0094496673 0
0.042322315 0.018012028 0.047294635 -0.77765918 0.62240136 -0.088672034 0
0.048911557 0.017535605 0.047370065 0.97920775 0.14998777 0.13658616 0
-0.060852945 0.022423409 0.047840022 -0.96818519 0.24255995 0.061499324 0
-0.05997315 0.024278929 0.047487438 0.99544686 -0.091766946 -0.025773779 0
0.019162474 0.022433879 0.047669712 -0.97081763 -0.2357872 0.043789037 0
0.044704873 0.020126911 0.047728557 -0.50094265 0.86301422 -0.065290943 0
0.046811253 0.020477459 0.047192931 0.11996472 0.99260867 0.01834364 0
-0.060530789 0.02700801 0.047549892 -0.98116755 0.1926669 0.013773989 0
-0.059304379 0.027855957 0.047245488 0.95453501 -0.29809454 -0.0015945476 0
0.018258417 0.027608415 0.047475047 0.91402316 -0.33445683 0.22956514 0
-0.058423139 0.032207754 0.047534287 -0.84873891 -0.50508928 0.15661111 0
0.014863489 0.034727842 0.047723271 -0.89857262 -0.43862382 -0.013276491 0
0.016728202 0.032296006 0.047342703 0.78726906 -0.22579572 -0.57378012 0
-0.056265593 0.03721961 0.047397625 -0.86677003 0.49776044 -0.03072864 0
-0.0542765 0.038916308 0.047724608 0.87667787 -0.48106557 -0.003437733 0
0.013522774 0.037882261 0.04746395 -0.85750765 -0.51443899 -0.0057528284 0
0.015476412 0.036336213 0.047854245 0.86035585 0.50923008 -0.021738917 0
-0.055010825 0.040170703 0.046647426 -0.81560707 0.57831508 0.018350972 0
-0.052579906 0.042361628 0.047544729 0.78386408 -0.62055957 0.021516215 0
-0.049818493 0.044869047 0.047872942 0.75646591 -0.65063459 0.066589244 0
0.0088342205 0.044124573 0.047141925 -0.74508172 -0.65054876 0.14710419 0
0.011373252 0.041947018 0.047510177 0.77427495 0.63225031 0.027525717 0
-0.050669231 0.045793526 0.047969364 -0.71928418 0.69463128 0.010851283 0
-0.047389615 0.047603779 0.04740433 0.55030829 -0.82585472 0.12298315 0
-0.043945711 0.049487695 0.047921788 0.55786145 -0.82906979 0.037866686 0
0.0034160984 0.048775166 0.047576588 -0.68052399 -0.7315914 0.040756393 0
0.0070095612 0.046459936 0.047516588 0.72703713 0.68655664 0.0075584101 0
-0.045278214 0.050356314 0.047309738 -0.60349274 0.79663301 0.034240235 0
-0.042178705 0.05156986 0.047461532 0.098419569 0.99502897 -0.015196893 0
-0.037788451 0.053756312 0.047691688 0.31359789 -0.94955194 0.0027482663 0
-0.033957478 0.054634064 0.047414955 0.30248198 -0.95305896 -0.013540173 0
-0.0068400772 0.054206543 0.047295891 -0.32813194 -0.94460714 0.0068385387 0
-0.0024454712 0.052894883 0.04772279 -0.64862609 -0.76051241 0.030084932 0
0.0015365046 0.051040523 0.047507685 0.54777098 0.83575714 0.038170394 0
-0.035900697 0.055378746 0.047452856 -0.34581786 0.93827361 -0.0072469455 0
-0.032012742 0.056136362 0.047480218 -0.29374614 0.95558572 0.023855586 0
-0.027618408 0.056776159 0.047365654 0.12884308 -0.97428417 0.1848505 0
-0.022713881 0.057418559 0.047728088 -0.19309199 0.98116183 0.0060870452 0
-0.017272333 0.057219725 0.047266059 -0.23586088 0.75426996 -0.61273688 0
-0.012538937 0.05657975 0.047588412 0.44511676 0.87376463 0.19597523 0
-0.0079552559 0.055783559 0.047782883 0.29005358 0.95700824 -0.0020369543 0
-0.036094483 -0.020398406 0.05313123 -0.36620328 -0.93041682 -0.014821754 0
-0.032045707 -0.021304913 0.052449867 -0.45755169 -0.88916725 -0.0052808812 0
-0.027480999 -0.02233829 0.05236626 -0.11249885 -0.97559434 -0.18857293 0
-0.022655668 -0.022831382 0.052646574 0.17243232 0.98311907 0.061188012 0
-0.017382693 -0.022836192 0.052205477 0.19088893 -0.94743973 0.25674775 0
-0.012411851 -0.022081751 0.052646253 0.35891604 -0.93335652 0.0049891504 0
-0.0077726515 -0.020985963 0.052646484 0.29750586 -0.95444125 -0.023069883 0
-0.0044862735 -0.020174725 0.05274944 0.37682924 -0.92628253 -0.00060466374 0
-0.045353163 -0.015265179 0.051268388 -0.5545485 -0.83214086 0.0042047636 0
-0.042194556 -0.016713683 0.052437648 -0.77783561 -0.62690961 -0.044227853 0
-0.037928585 -0.018908661 0.052321278 0.53667176 0.8435061 0.02192935 0
-0.034556836 -0.019807825 0.052197289 0.30775419 0.95113158 -0.025218746 0
-0.0061276453 -0.019555664 0.052198764 -0.34011266 0.94037604 0.0040335688 0
-0.0023781951 -0.018472157 0.052670583 -0.34767234 0.92516243 0.1523108 0
0.0018489566 -0.016246771 0.052248124 0.61559588 -0.78796494 0.01237183 0
-0.050752759 -0.010579307 0.052305296 -0.73018169 -0.68321395 0.0073069818 0
-0.047650274 -0.012564809 0.052478857 0.67890918 0.73352313 0.032032754 0
-0.04455379 -0.014508348 0.053132199 0.67021376 0.74216235 0.0029190748 0
0.0039310316 -0.014125678 0.052676726 -0.64315337 0.76573318 0.0025539021 0
0.007454427 -0.011630129 0.05253968 0.66521734 -0.74205375 0.082718037 0
-0.055015694 -0.0051253312 0.050788891 -0.82241887 -0.56881511 -0.0087553756 0
-0.052667528 -0.007478992 0.052519411 -0.81575757 -0.57658786 0.045673009 0
-0.049887329 -0.0098233214 0.052685123 0.74214602 0.66995311 -0.019546043 0
0.0091692684 -0.0090513173 0.05249352 -0.68000811 0.72918129 0.076704577 0
0.01150061 -0.0071649617 0.052325416 0.7882024 -0.61500925 -0.022374308 0
-0.056287896 -0.0020529185 0.052013211 -0.83404344 -0.54780513 0.065430291 0
-0.054365899 -0.0041450141 0.052094791 0.82907319 0.55828023 -0.030996809 0
0.01382622 -0.0031604548 0.05232133 -0.86548156 0.4998188 -0.033509579 0
0.015617621 -0.0013780344 0.052312687 0.89311963 -0.44967946 0.011210705 0
-0.058308471 0.0024081375 0.052422281 -0.90693003 -0.41199666 0.08795774 0
0.016800767 0.0025320093 0.052579399 0.30871168 -0.57817942 -0.75525194 0
-0.060500886 0.0076421816 0.05253996 -0.97332543 -0.22942425 -0.0014004012 0
-0.059433181 0.0074753501 0.05218919 0.96773642 0.25183639 0.0080392845 0
0.018491706 0.0076674703 0.052636374 0.99206644 -0.125366 0.0093535902 0
0.042865146 0.0082328124 0.052437194 -0.48339665 -0.86359215 -0.14330496 0
0.046213388 0.008265513 0.052338593 0.6904164 -0.7052685 0.16100162 0
-0.060833231 0.012579268 0.052243892 -0.95914459 -0.26869345 0.088575326 0
-0.059969384 0.010075226 0.052449923 0.97115546 0.23719007 -0.024452627 0
0.01904209 0.012408752 0.052449811 -0.99760169 0.041281156 -0.055558089 0
0.020067636 0.014173215 0.051742736 0.9972446 -0.073479064 -0.010202 0
0.040604882 0.012557405 0.052450512 -0.99417788 -0.10773311 0.0019759068 0
0.04776407 0.01223874 0.052573476 0.95107365 -0.17299569 0.2559911 0
-0.061021965 0.01764252 0.052558977 0.99871802 0.031225627 0.039840505 0
0.018995164 0.017483078 0.052549463 -0.99940586 0.020684514 0.027569083 0
0.020128619 0.01797661 0.052527688 0.99961203 0.026141439 -0.0096082343 0
0.041464638 0.017937955 0.052458007 -0.89027882 0.44400766 -0.10129561 0
0.047712892 0.017845228 0.052728437 0.93463552 0.25799987 0.2447295 0
-0.06096774 0.022167146 0.052361466 -0.99455673 0.10060064 -0.027135819 0
-0.059923399 0.024259293 0.051022217 0.99789858 -0.043126546 -0.048357401 0
0.019277237 0.022247139 0.052363038 -0.93957061 -0.14895034 -0.30825442 0
0.020033829 0.020643884 0.053634048 0.99784476 0.065314718 -0.0063082487 0
0.044089407 0.020594019 0.05278011 -0.33690467 0.93362802 -0.1217945 0
0.04607128 0.020680573 0.052301336 0.41251156 0.90884119 0.061983194 0
-0.060559332 0.027125828 0.052314613 -0.97496593 0.22205384 -0.011558226 0
-0.059132442 0.027880417 0.052706782 0.97512317 -0.22089969 0.018387806 0
0.018344495 0.027568152 0.052341402 0.97569633 0.21350616 -0.049313951 0
-0.058275834 0.032325599 0.052537154 0.81597394 -0.57077253 -0.091679901 0
0.014892912 0.034737796 0.05186959 -0.91174012 -0.4066675 0.057893157 0
0.01679427 0.032556929 0.05256338 0.93332469 0.35793787 0.028027557 0
-0.056193914 0.03734982 0.052520674 -0.89370197 0.4486165 0.0063359495 0
-0.054245118 0.03894477 0.052820627 0.84293884 -0.53792596 0.0094790049 0
0.013744028 0.037921913 0.052713547 -0.84587431 -0.53264052 0.028120311 0
0.015733978 0.035864886 0.052558608 0.88062596 0.47381136 -0.00082965707 0
-0.052616287 0.042496976 0.052479606 -0.80704159 0.48504561 -0.33677101 0
-0.049817182 0.044805773 0.052890908 0.71717882 -0.69669503 -0.016447742 0
0.008958227 0.043798715 0.052478425 -0.73658645 -0.67582989 0.026349347 0
0.011302122 0.041734174 0.052464012 0.78998619 0.6117717 -0.040710539 0
-0.050583333 0.045845002 0.052514363 -0.71721905 0.69680917 -0.0073415455 0
-0.04752373 0.047774184 0.05243044 -0.59624219 0.80202752 -0.035314467 0
-0.044215742 0.049451295 0.052353419 0.5611974 -0.82755834 -0.014304006 0
0.0036389532 0.048687872 0.052892204 -0.63231349 -0.77432382 0.024540629 0
0.0069932234 0.046563789 0.052747928 0.72477347 0.68876529 0.01748671 0
-0.045470882 0.050205629 0.052572254 -0.57001162 0.82156551 -0.010810909 0
-0.042202115 0.051561855 0.052102022 -0.40787104 0.90794277 0.096338302 0
-0.037935328 0.053571884 0.052529912 0.45095381 -0.89214545 0.026779315 0
-0.034030315 0.054610077 0.052243881 0.29738647 -0.95472795 0.0074722441 0
-0.0066088312 0.054297984 0.052310053 -0.34188783 -0.93965954 0.012361302 0
-0.0024957252 0.052889995 0.052462149 -0.74621594 -0.66562909 0.0099786194 0
0.0015089602 0.051094897 0.052153494 0.49776706 0.8671993 -0.013908386 0
-0.035830002 0.055414047 0.052381556 -0.34714824 0.93780869 0.0016985427 0
-0.032063086 0.056207199 0.052512892 -0.28342462 0.95895749 -0.0084165931 0
-0.027409041 0.056824189 0.052693971 0.32123038 -0.93903917 0.12254186 0
-0.022595894 0.057348546 0.052434921 -0.2172709 -0.97201604 0.089321263 0
-0.017402904 0.057296868 0.052318458 0.080766678 0.98911321 0.12301159 0
-0.012626318 0.056707263 0.052546535 0.28445256 0.95786309 -0.039811049 0
-0.0079315295 0.055767961 0.052403431 0.32666111 0.94512784 -0.0050869174 0
-0.035831939 -0.020524489 0.057170693 -0.38759539 -0.92171615 0.014461537 0
-0.032345861 -0.021172216 0.057108235 -0.80621922 -0.46799803 -0.36192337 0
-0.027655909 -0.022203153 0.057510294 0.17708157 0.98402357 0.018430246 0
-0.022631878 -0.022910122 0.057503659 -0.13772374 0.98628211 -0.090993591 0
-0.017769575 -0.022865072 0.057441857 0.11224782 0.9299956 0.35001209 0
-0.01270946 -0.022010541 0.057667058 -0.14474976 0.98943901 -0.0076058065 0
-0.0080640856 -0.021122893 0.057050865 0.31792608 -0.94739062 0.037067037 0
-0.0044614905 -0.020166019 0.057190999 0.41133633 -0.91120261 0.02262971 0
-0.045365147 -0.015238388 0.05823084 -0.6035111 -0.79725045 0.012888441 0
-0.042393379 -0.016716687 0.057634812 -0.53703445 -0.84347492 -0.012001191 0
-0.03797359 -0.01885576 0.057706662 0.3402805 0.93897003 0.050444033 0
-0.034605902 -0.019820163 0.057954099 0.40274221 0.91273707 -0.068627246 0
-0.0061245328 -0.019630734 0.057262551 -0.35406777 0.93521816 0.0017189787 0
-0.0022293087 -0.018498031 0.057559114 0.33897799 -0.92909414 0.14791235 0
0.0017638745 -0.016266337 0.057582173 0.50567251 -0.86267573 -0.0092670619 0
-0.050458029 -0.010802206 0.057043329 -0.71313816 -0.70101655 0.00313612 0
-0.047541484 -0.012679016 0.057552267 0.65026516 0.75912505 0.029737597 0
-0.044586644 -0.014448827 0.05714868 0.64350814 0.76541698 0.0058453386 0
0.0040497584 -0.014214336 0.057398956 -0.5951485 0.80095363 0.065357246 0
0.0070571159 -0.012117974 0.057399936 0.66492879 -0.74650455 -0.024507957 0
-0.055032589 -0.0050626798 0.057275672 -0.82908231 -0.55889952 -0.015935559 0
-0.052536756 -0.0074292356 0.057436667 0.70386529 0.70749891 0.063394971 0
-0.049795318 -0.0098465467 0.056943197 0.6696713 0.74245477 -0.017358089 0
0.0093046175 -0.0090718372 0.057458244 -0.66273415 0.74708754 -0.051415648 0
0.011631123 -0.0069679073 0.05745478 0.81131291 -0.58461189 -0.00050972594 0
-0.056148645 -0.0023913421 0.057721518 -0.86612988 -0.49980044 0.0043101422 0
-0.054403715 -0.0038823131 0.057784367 0.85972673 0.50987619 -0.029936885 0
0.013805091 -0.0031537579 0.057427835 -0.89764202 0.43930158 -0.03539652 0
0.015583402 -0.0014882284 0.05752407 0.87417448 -0.48505685 -0.02321225 0
-0.058254838 0.0023451059 0.057494935 -0.97358817 -0.22720501 -0.022451118 0
0.016860576 0.0025992941 0.057465926 0.97045153 0.229085 -0.075789414 0
-0.060546793 0.0080268187 0.057412159 -0.97443932 -0.22464068 0.0021037592 0
-0.059421048 0.007444547 0.057713192 0.97440928 0.22392735 -0.019570712 0
0.018510068 0.0072723473 0.057300828 0.93710738 -0.34770718 -0.030488526 0
0.03914896 0.0088221384 0.059259284 -0.65378428 -0.52733922 -0.5426597 0
0.042567827 0.0079183476 0.057416979 -0.056529768 -0.99794251 0.030249313 0
0.045590624 0.0090935696 0.056448329 0.84823561 -0.39672831 0.35086036 0
-0.060921609 0.012909388 0.057338726 -0.98390841 -0.17381437 -0.041386966 0
-0.05990614 0.0111158 0.057815678 0.98754483 0.15541518 0.024522217 0
0.019245883 0.012130825 0.057262812 -0.97853804 0.20462267 0.024349609 0
0.020211376 0.013947817 0.057763256 0.98129994 -0.17980373 -0.06871032 0
0.039348178 0.010245252 0.059198804 -0.56877768 0.57163268 -0.59137809 0
0.041272022 0.012275646 0.057512835 -0.99949884 -0.031611066 0.0016705736 0
0.046255976 0.012487669 0.057495899 0.91196287 -0.18581946 0.36577976 0
-0.061086047 0.017531034 0.057475854 -0.9304952 -0.34134585 0.13289712 0
0.019103814 0.017337779 0.057391483 -0.99975431 0.0030139601 0.021958478 0
0.020325789 0.017096397 0.057293314 0.9946962 0.04649296 -0.09174931 0
0.039377883 0.019365331 0.059238058 -0.63596624 -0.35990164 -0.68265504 0
0.041359313 0.018049009 0.057509389 -0.99641252 0.081677593 -0.022154862 0
0.046449751 0.017554414 0.057101134 0.90168542 0.21516076 0.3750591 0
-0.060799297 0.022292065 0.057422753 -0.90603793 0.41628376 -0.076178454 0
-0.059875559 0.024444899 0.057374597 0.98087639 -0.18753415 -0.052080479 0
0.019223614 0.022593297 0.057646971 -0.98388654 -0.096625783 0.15043469 0
0.020049956 0.020593567 0.057693351 0.99716121 0.07282263 0.019139886 0
0.0393673 0.020244686 0.059422452 -0.55515653 0.50403297 -0.66162837 0
0.042784717 0.020889139 0.057345338 -0.12508106 0.98223704 -0.13987543 0
0.045330368 0.020492183 0.057074051 0.72719717 0.64897263 0.22364849 0
-0.060554322 0.027030669 0.057302907 -0.97455454 0.22401042 0.0079236049 0
-0.059298865 0.028264256 0.057526547 0.96549928 -0.25997907 -0.014901434 0
0.018331099 0.027337678 0.057677135 -0.70930523 -0.57731038 0.40447342 0
-0.058455963 0.032294262 0.057519712 -0.9603768 0.27719188 0.029001063 0
0.014924617 0.034624312 0.058229029 -0.87615401 -0.48012808 -0.042792849 0
0.016708078 0.03248129 0.057035655 0.94810307 0.31675828 0.027653031 0
-0.056223087 0.03704856 0.057612211 -0.93095809 0.34806046 0.11032236 0
-0.054349467 0.038809624 0.057623252 0.86329973 -0.50466347 -0.0053214133 0
0.013504526 0.038002033 0.058028325 -0.8614949 -0.50770605 0.0078100897 0
0.015580683 0.036060575 0.057542961 0.87116677 0.49074522 0.015414868 0
-0.055134382 0.040192436 0.056831237 -0.82556635 0.56429315 -0.0036688459 0
-0.052864581 0.042376332 0.0577005 -0.76534504 0.64351273 0.01176221 0
-0.049765609 0.044751372 0.058304787 0.68694293 -0.7251457 -0.047677517 0
0.009065236 0.043787774 0.057659604 -0.75256801 -0.65850765 0.0030113598 0
0.011280261 0.041798528 0.057448473 0.7587586 0.64871472 0.058775917 0
-0.05072413 0.045681667 0.057557188 -0.74348152 0.66871947 0.0070278207 0
-0.047499582 0.047686119 0.057612341 0.79605353 -0.59679812 -0.10065202 0
-0.044157848 0.049452242 0.057032865 0.49222288 -0.87039959 0.011009687 0
0.0033526903 0.04907326 0.057303205 -0.58472019 -0.80345362 0.11209179 0
0.0069983653 0.04648409 0.057429794 0.73837453 0.6722194 -0.054075498 0
-0.045373362 0.050253253 0.056941628 -0.54369408 0.83916479 0.014115055 0
-0.042211372 0.051690314 0.057252161 -0.49720031 0.86753887 -0.012966841 0
-0.037802741 0.053714186 0.057592586 0.31964526 -0.9431178 0.091409497 0
-0.033738859 0.054724399 0.057325128 0.26138315 -0.96509922 0.016199736 0
-0.006557134 0.054086924 0.057342816 -0.37104264 -0.92850912 -0.014080855 0
-0.0026054969 0.053126108 0.05764851 0.31461152 0.93754578 0.14841659 0
0.0013245145 0.051215392 0.057852797 0.54223335 0.8398928 -0.023730351 0
-0.035435367 0.055557545 0.057538509 -0.32819787 0.94460237 0.0035481947 0
-0.032251924 0.056111533 0.057776019 -0.2630758 0.96365196 0.046539187 0
-0.027209505 0.056929145 0.057754084 0.32311893 -0.94398862 -0.066930465 0
-0.022832571 0.057446923 0.057650957 -0.33625865 0.79361004 0.50706327 0
-0.017467033 0.057314925 0.057588786 -0.42134345 0.89993107 -0.11222161 0
-0.012523838 0.056627676 0.057634946 -0.1105241 0.96882635 0.22172029 0
-0.0080244662 0.055991743 0.057635888 0.33200836 0.94327027 0.003423969 0
-0.036239438 -0.02035509 0.062309783 -0.3797192 -0.92506361 0.0084087504 0
-0.032281723 -0.02121303 0.062347397 -0.97886729 0.16684654 0.11824121 0
-0.027538132 -0.022496214 0.062526233 -0.12812728 -0.99175704 -0.0011919009 0
-0.022200055 -0.023103639 0.062278084 -0.039880004 -0.9990918 0.015002343 0
-0.017398331 -0.022928679 0.062220842 -0.0014229375 -0.99638349 -0.084958583 0
-0.01226954 -0.022120144 0.062603772 -0.39302975 0.53467876 0.74809504 0
-0.0078675654 -0.020904206 0.06235696 -0.085974753 -0.98937476 0.11724315 0
-0.0046295836 -0.020323893 0.062653668 0.36762968 -0.9299432 -0.0073486972 0
-0.045218479 -0.015321883 0.06100757 -0.63546664 -0.77204561 0.011302659 0
-0.042023282 -0.016901227 0.062546365 -0.58617461 -0.81016511 -0.0056450651 0
-0.03806515 -0.018867292 0.062590368 0.41487312 0.90987635 0.002305724 0
-0.034545377 -0.019850895 0.062557265 0.34158799 0.93916386 0.035900149 0
-0.0057562292 -0.019527307 0.062722251 -0.39444521 0.91886616 0.0098960614 0
-0.002156815 -0.018461121 0.062561952 -0.21784292 -0.54498225 -0.80965352 0
0.001868892 -0.016288714 0.062285073 0.58733261 -0.80831414 -0.040849257 0
-0.050526768 -0.010633337 0.063313909 -0.72089446 -0.69286937 0.01559723 0
-0.047627747 -0.012652515 0.062700309 -0.58475477 -0.80990916 -0.045923445 0
-0.044415303 -0.014471316 0.061994381 0.52903867 0.84662467 -0.057833917 0
0.0041393423 -0.014084133 0.062405705 -0.62243974 0.78236866 -0.021635672 0
0.007199707 -0.011939366 0.062213872 0.70570105 -0.70850819 0.0014519186 0
-0.052458927 -0.0075458558 0.062399894 -0.91384715 -0.40596002 -0.0089369342 0
-0.049780834 -0.0097789653 0.062057067 0.72740072 0.68561351 -0.028676704 0
0.0092641311 -0.0091414526 0.062485956 -0.77645302 0.63014686 -0.0059644193 0
0.011560552 -0.0069694472 0.062580563 0.83099198 -0.55596906 0.01872782 0
-0.056330614 -0.0022404669 0.062373534 -0.86049968 -0.50923795 0.014733611 0
-0.054411191 -0.0038627866 0.062809199 0.82761896 0.56126469 -0.0053699072 0
0.013791122 -0.0033309816 0.062417109 -0.84874284 0.52565503 0.057638988 0
0.01562787 -0.0012806557 0.062562972 0.88143361 -0.47230521 -0.0015923512 0
-0.058117412 0.0024577063 0.062675431 0.90036738 0.42870682 -0.074491702 0
0.016919428 0.0023585076 0.062445935 0.92632776 -0.3757515 0.026974633 0
-0.060471464 0.0078463713 0.062407553 -0.97245318 -0.23301011 0.0064038653 0
-0.059420235 0.0072195851 0.062321849 0.97611386 0.21562155 -0.026628805 0
0.018384235 0.0074873152 0.062185932 -0.99191958 0.094142765 -0.085045606 0
0.022260407 0.0087301061 0.063526146 0.1219491 -0.62617606 -0.77008575 0
0.028077938 0.0086409934 0.063527085 -0.018056471 -0.82115895 -0.57041389 0
0.032560721 0.0084637599 0.06341058 -0.10910804 -0.9006831 -0.42055377 0
0.037460901 0.0086711766 0.062482841 -0.0096828472 -0.98976654 0.14236711 0
0.041531783 0.0085210688 0.061336294 0.39860249 -0.76891816 0.49988097 0
-0.060796831 0.012642218 0.062584579 -0.98578852 -0.15781622 0.057576351 0
-0.059904829 0.010336029 0.062521785 0.9807415 0.19515938 0.0076751518 0
0.018940125 0.011990641 0.062671237 -0.99488789 0.098812602 -0.020837881 0
0.02095273 0.012406962 0.063025624 0.91922307 0.23407458 -0.31660405 0
0.027740574 0.010992328 0.063768409 -0.060885426 0.85182929 -0.52026904 0
0.032539561 0.011493936 0.063639782 -0.16875179 0.56976432 -0.8042956 0
0.037828341 0.012258616 0.063290417 -0.3711642 0.6104244 -0.69972795 0
0.0421777 0.012386718 0.062208425 0.55011714 -0.27789277 0.78749394 0
0.045089144 0.013165513 0.060312711 0.79361355 -0.13323824 0.59365398 0
-0.061040822 0.017250283 0.062565289 -0.95641142 -0.28754929 -0.050917719 0
0.019137129 0.017423827 0.062710986 -0.99966961 -0.010471855 0.023475312 0
0.021282492 0.017927755 0.062770173 0.90445864 -0.29621443 -0.30693907 0
0.028179549 0.019193672 0.064024217 -0.079748988 -0.81667936 -0.57155478 0
0.032760981 0.018488396 0.063565172 -0.15561166 -0.69444364 -0.702519 0
0.037615553 0.017792184 0.062520653 -0.4800851 -0.53503001 -0.69516987 0
0.042264104 0.017386571 0.062467568 0.61892921 0.24157314 0.74737477 0
0.045208707 0.016169429 0.060123228 0.8691352 0.019472877 0.49419114 0
-0.060896631 0.022297747 0.062311009 -0.98934567 0.1408163 -0.036959745 0
-0.059872996 0.024091614 0.062675349 0.98575193 -0.16820341 0.00083342922 0
0.019036137 0.022750754 0.062381744 -0.99891078 0.018113233 -0.043002982 0
0.022068951 0.021640893 0.063251652 0.37012979 0.33162114 -0.86777377 0
0.027549641 0.02144888 0.063251883 0.03017096 0.55343258 -0.83234733 0
0.032590356 0.021146907 0.063118599 0.014249295 0.81756079 -0.57566601 0
0.03777073 0.02083871 0.062490303 0.036011197 0.9991917 0.017863495 0
0.041695531 0.020804366 0.061191406 0.34697714 0.85702515 0.38093936 0
-0.060486082 0.027195107 0.062241923 -0.97524256 0.22083601 0.0115485 0
-0.059220266 0.027839255 0.06243328 0.9735471 -0.22655538 -0.029643843 0
0.018446431 0.027274771 0.062385477 0.9808867 0.16933626 0.095845759 0
-0.05820499 0.032349315 0.062765919 0.80161804 -0.59779567 0.0069992915 0
0.014881898 0.034829739 0.061470848 -0.8783468 -0.47505635 0.053183112 0
0.016638985 0.032546662 0.062532365 0.94649261 0.3225601 -0.010333397 0
-0.056089085 0.037217863 0.062494986 -0.89049226 0.44873348 -0.075244822 0
-0.054285631 0.038797073 0.061938111 0.85741818 -0.51411587 -0.022781495 0
0.013777166 0.037856579 0.06246233 -0.91891956 -0.37654942 0.11746243 0
0.015542455 0.036033165 0.062861942 0.87128931 0.49033642 0.020619601 0
-0.052350935 0.042571533 0.062524974 0.61577129 -0.78388381 -0.079698727 0
-0.049809493 0.044653527 0.062983029 0.75478822 -0.65429193 -0.046871345 0
0.0090421205 0.04382645 0.062318567 -0.72661173 -0.68657881 -0.025398182 0
0.011280103 0.041766133 0.062370073 0.80214 0.59533948 -0.046284318 0
-0.050711129 0.045674209 0.061874345 -0.76984996 0.63817686 0.0078210579 0
-0.04754005 0.047623213 0.06247066 0.83931351 -0.54342276 0.015639665 0
-0.044113114 0.049568173 0.062119078 0.49171886 -0.87063706 -0.014271078 0
0.0034851462 0.048791576 0.06245942 -0.63723737 -0.77057111 -0.012194311 0
0.0069627189 0.046659317 0.062492866 0.70134133 0.71236002 0.025760019 0
-0.045325216 0.05026225 0.062965326 -0.58791345 0.80891895 -0.002809796 0
-0.041902166 0.051790133 0.062701523 -0.52007478 0.85353404 0.031652156 0
-0.037883725 0.053630039 0.062534347 0.3723616 -0.92680162 -0.048842385 0
-0.034276012 0.05455533 0.062332049 0.39630732 -0.9178232 -0.023260498 0
-0.0069933883 0.054362092 0.062288404 -0.33275837 -0.94289875 0.014619392 0
-0.0025513167 0.053120211 0.062560335 0.3721087 0.92655498 -0.055056237 0
0.0013438913 0.051192462 0.062364891 0.57041359 0.82135451 -0.0022492574 0
-0.036195055 0.055289824 0.062551983 -0.3410773 0.94003385 0.0016240587 0
-0.032189686 0.056052718 0.062615432 -0.40759209 0.91316396 -0.00049980584 0
-0.027578937 0.056993086 0.062764101 -0.058986466 0.99283403 0.1039294 0
-0.022559876 0.057514451 0.062427483 -0.066080585 0.99575233 0.064113438 0
-0.017374536 0.057353273 0.062658034 0.13835055 0.67796594 0.72195661 0
-0.012363554 0.056656454 0.06242888 0.0020566715 0.99075991 0.13561206 0
-0.0078502977 0.055822112 0.062775686 0.3528454 0.93561167 -0.011440333 0
-0.036131904 -0.020469025 0.067233175 -0.40316483 -0.91488105 -0.021230618 0
-0.03206858 -0.021335639 0.067288704 0.26905444 -0.92429465 -0.27071941 0
-0.027673203 -0.022389788 0.067520469 0.062934086 -0.979725 0.19020584 0
-0.02236153 -0.023019604 0.067460246 0.012992171 -0.99422044 0.1065689 0
-0.017416602 -0.022797173 0.067476802 -0.048765626 0.99863148 0.018896747 0
-0.012369471 -0.022219116 0.067567252 0.11691519 -0.9926005 -0.032788053 0
-0.0078492109 -0.020985153 0.067670815 0.36496302 -0.92925137 0.057392482 0
-0.0043836739 -0.020202596 0.068025701 0.38759333 -0.92181545 0.0052526267 0
-0.04521009 -0.015192972 0.06697084 -0.60739207 -0.79424721 0.01569178 0
-0.041807815 -0.016917795 0.067396805 -0.64320111 -0.76375371 -0.054522075 0
-0.03791729 -0.018855557 0.067272142 0.39575452 0.91578335 -0.068696544 0
-0.034560435 -0.019886749 0.06686046 0.39844915 0.91652745 0.03486757 0
-0.0060251104 -0.019631116 0.067011744 -0.38384545 0.92337745 -0.0060686381 0
-0.0021070812 -0.018509159 0.067330196 0.23588088 -0.96506274 0.11407921 0
0.0020349233 -0.016267315 0.067377001 0.59707612 -0.80196577 -0.018732993 0
-0.050651044 -0.0104482 0.066586874 -0.72424066 -0.68951875 -0.0062639923 0
-0.047434665 -0.012713477 0.06756293 -0.52668291 -0.8499608 0.013106919 0
-0.044296857 -0.014559725 0.06770362 0.56484598 0.82330364 -0.055858135 0
0.0038561241 -0.014030267 0.067617357 -0.66889638 0.74335325 -0.0018532106 0
0.0072587496 -0.011950566 0.067751028 0.71021479 -0.70361227 0.022909626 0
-0.052266512 -0.0077083986 0.067603372 -0.87311238 -0.48740029 -0.010752395 0
-0.049750745 -0.0096723186 0.067331679 0.72201139 0.69177139 0.012321787 0
0.009130111 -0.0092777237 0.067926653 -0.72915226 0.68344694 0.035175826 0
0.011680221 -0.0068621184 0.067552172 0.78765154 -0.61530173 -0.031761326 0
-0.056081135 -0.0021372198 0.067446537 -0.86797029 -0.49587485 -0.02712342 0
-0.054194909 -0.0041754297 0.067852296 0.83902729 0.54404497 -0.0069484948 0
0.013692215 -0.0032255503 0.067437224 -0.85283083 0.51981872 -0.049680356 0
0.015507424 -0.0011227931 0.067550369 0.88225418 -0.47048858 0.016372152 0
-0.058105595 0.0022926461 0.06735386 -0.90079188 -0.39616001 0.17785183 0
0.016879071 0.0025101791 0.067541406 -0.74969655 0.59053785 -0.29869729 0
-0.060449611 0.0080219451 0.067023799 -0.97490013 -0.22252733 0.0071608261 0
-0.059445631 0.0072983289 0.067477837 0.96943736 0.24532758 0.0023877094 0
0.018523743 0.0072767348 0.067445584 -0.76545852 -0.59149146 0.25339898 0
0.022384876 0.0090328222 0.066632248 0.19171073 -0.66986507 0.7173059 0
0.027740056 0.008938496 0.06583561 0.045353681 -0.72535956 0.68687451 0
0.032914691 0.0092123765 0.065603763 0.14352146 -0.60264963 0.78499365 0
0.035894111 0.0095846877 0.065325879 0.16316582 -0.57814449 0.7994535 0
-0.060755514 0.012997244 0.067501031 -0.97973573 -0.13854554 0.14464749 0
-0.059921056 0.01091767 0.068342365 0.9933328 0.11348134 -0.020293353 0
0.018936297 0.012248246 0.067895107 -0.99043071 0.13726099 0.014371374 0
0.022577522 0.0128522 0.067341268 0.94542962 -0.0090847174 0.32569978 0
0.027586715 0.01251513 0.066977032 0.059350699 0.070901677 0.99571604 0
0.032378152 0.012771217 0.066568315 -0.031384867 0.039942019 0.99870896 0
0.036987927 0.012546252 0.066078223 0.28172606 -0.31751797 0.90543514 0
0.040614437 0.014311584 0.065139487 0.46145377 -0.094802208 0.88208443 0
-0.060966857 0.017587742 0.067132749 0.94188505 -0.12080602 -0.31346175 0
0.019161658 0.017523002 0.067071266 -0.99941862 -0.025607252 -0.022510059 0
0.022756279 0.017350318 0.06735269 0.88014263 -0.45570028 0.13298953 0
0.02727643 0.01738889 0.067043699 -0.0069314106 -0.83787525 0.54581773 0
0.032269858 0.017069934 0.066720292 0.039143268 -0.12915935 0.99085099 0
0.037119552 0.017520411 0.066218264 0.30656716 0.32986996 0.8928619 0
0.040581059 0.015945045 0.065225534 0.61900258 0.034476981 0.78463191 0
-0.060986903 0.022285188 0.067488909 -0.98957056 0.14317098 -0.015879765 0
-0.059837412 0.024140093 0.066880785 0.98202074 -0.18799491 -0.017119952 0
0.018851558 0.022776254 0.0673889 -0.99558151 -0.093360037 0.010066174 0
0.02183966 0.022015706 0.067097127 0.59451944 0.65573752 0.46535468 0
0.027793396 0.021308089 0.066034995 0.091830097 0.77343988 0.6271826 0
0.032329552 0.020695899 0.065845594 0.15286221 0.70320934 0.69435567 0
0.036036767 0.020278942 0.065355644 0.21785162 0.6901809 0.69006604 0
-0.060513813 0.026883626 0.067938067 -0.97434926 0.2243205 -0.017996 0
-0.059141673 0.02794577 0.067842267 0.97416562 -0.22512029 -0.017951887 0
0.018351534 0.027602298 0.067330584 0.86306226 0.36734024 -0.34667659 0
-0.058118924 0.032477736 0.067680649 -0.4448458 -0.87167549 0.2056554 0
0.01488477 0.034733586 0.066519879 -0.89683557 -0.44214994 0.013763435 0
0.016614817 0.032382142 0.067336038 -0.89412951 -0.41511178 0.16797216 0
-0.056103423 0.03729964 0.067098133 -0.8666997 0.49855292 -0.016634315 0
-0.054358494 0.038606044 0.066764377 0.8747533 -0.48405302 -0.022345951 0
0.013729084 0.037829395 0.067676753 -0.846919 -0.52626169 -0.076006092 0
0.015532101 0.036021315 0.06772048 0.89549744 0.44482118 -0.014781697 0
-0.055002976 0.040033102 0.065238006 -0.85062706 0.52563155 0.012045743 0
-0.052533925 0.042505663 0.067607053 -0.8350243 0.54927683 -0.032084256 0
-0.049660236 0.044656765 0.068093531 0.691984 -0.72178721 -0.013468687 0
0.0088516669 0.043828007 0.067583598 -0.74208206 -0.67019868 -0.012164598 0
0.011441439 0.041519221 0.067405634 0.78066206 0.62283182 0.051451117 0
-0.050457336 0.045848761 0.067831807 -0.73490083 0.67808199 0.011209751 0
-0.04755868 0.047715124 0.067654572 -0.67767906 0.73195422 0.070668615 0
-0.044136871 0.049421385 0.06777598 0.61316949 -0.7898559 -0.012280249 0
0.0033541063 0.048970971 0.067250043 -0.59998125 -0.79997474 0.0079319375 0
0.0067063542 0.04673348 0.067605682 0.6586349 0.75241053 -0.0088537186 0
-0.045158345 0.050310232 0.068113878 -0.57155287 0.82055277 0.0045281216 0
-0.042081457 0.051810406 0.067506008 -0.52305859 0.85229045 0.0032717488 0
-0.038100801 0.053528991 0.067250818 0.31426525 -0.94364154 -0.10381687 0
-0.033835582 0.054638311 0.067259789 0.31394184 -0.94939423 0.0095451232 0
-0.0070951115 0.054469418 0.067501016 -0.36618316 -0.9304806 0.010756871 0
-0.0024153639 0.052933332 0.067621097 -0.44491056 -0.88946259 -0.10445566 0
0.0015297756 0.050994828 0.067428254 0.61200464 0.79055309 0.02182167 0
-0.035640765 0.055519775 0.067539237 -0.34045923 0.93994749 -0.024210673 0
-0.032116506 0.056162294 0.067242384 -0.26749778 0.96349561 -0.011003803 0
-0.027525734 0.057045914 0.067475446 -0.1613092 0.98235422 -0.094654761 0
-0.022368293 0.057649944 0.067133248 -0.056526914 0.9980855 -0.025102548 0
-0.017466726 0.057307776 0.067521855 -0.10344596 -0.99242479 -0.066272728 0
-0.012766464 0.056755334 0.067711405 0.68769783 0.48605478 -0.53927964 0
-0.0078005367 0.05585283 0.067512266 0.37618884 0.92654264 0.00080056756 0
-0.0049503734 0.055073742 0.068755552 0.40318912 0.91482532 -0.023088681 0
-0.035945192 -0.020594109 0.072961867 -0.39980495 -0.91638839 -0.019707751 0
-0.032243382 -0.021280961 0.072430499 0.19218166 0.97805637 0.080448724 0
-0.027842954 -0.022443399 0.072362624 -0.068605028 -0.99644047 -0.048986867 0
-0.022261731 -0.022971814 0.072375484 0.1646471 0.98616093 -0.019440064 0
-0.017459894 -0.023065876 0.072387896 0.049330764 -0.99875581 0.0072947643 0
-0.012474488 -0.022197008 0.072459385 -0.021240726 -0.99418825 -0.10553893 0
-0.0077965385 -0.021174133 0.072187364 0.36339396 -0.93163431 0.0014819797 0
-0.0044803335 -0.020229101 0.072597973 0.42069057 -0.90702754 -0.017905485 0
-0.045256864 -0.015125893 0.071712025 -0.61336148 -0.78950322 -0.021735562 0
-0.042268619 -0.016536167 0.072306216 0.39467278 0.90767139 -0.14270964 0
-0.037623238 -0.019033208 0.072633766 0.39414901 0.91853935 0.030529931 0
-0.034681965 -0.019886775 0.072757676 0.39891481 0.91611123 -0.040090546 0
-0.0059734117 -0.019733358 0.072342634 -0.35614893 0.93394405 0.030107709 0
-0.0022619811 -0.018415976 0.072491549 -0.48433897 0.87297791 0.057665505 0
0.0020861516 -0.016245605 0.072369538 0.58787268 -0.80782646 -0.042685684 0
-0.050585113 -0.010343025 0.071678407 -0.72926176 -0.68389273 0.021633821 0
-0.047425512 -0.01253127 0.072588004 0.75760096 0.6307857 0.16778009 0
-0.044206571 -0.01456459 0.072296955 0.56683886 0.82382286 -0.0030925109 0
0.0040387055 -0.01422051 0.072462425 -0.60147774 0.7983253 0.030021193 0
0.0069735684 -0.0122226 0.072102346 0.69817144 -0.71586508 0.009692206 0
-0.052420702 -0.0074779564 0.072619744 -0.76429772 -0.63965881 0.081764944 0
-0.049760163 -0.0095969597 0.071974732 0.74845475 0.66200024 0.03963827 0
0.009110298 -0.0091288146 0.072259806 -0.76744407 0.6401909 0.034427941 0
0.011651714 -0.0070387493 0.07232254 0.81877208 -0.57346165 0.027458677 0
-0.056113888 -0.0019796749 0.072259732 -0.86180878 -0.50717974 -0.0073725171 0
-0.054335117 -0.0040304172 0.072482057 0.82931328 0.55868906 -0.010294769 0
0.013894859 -0.0032507437 0.072232217 -0.88089091 0.47318822 -0.011139568 0
0.015794106 -0.00094864145 0.072429545 0.91074038 -0.41297448 -0.0020167329 0
-0.05811356 0.0023755652 0.072663046 -0.92195714 -0.38530895 0.039141744 0
0.016851254 0.0022870651 0.072507158 0.82623619 -0.5454939 0.14060636 0
-0.060492139 0.0081671951 0.072835378 -0.96789736 -0.24961163 -0.029472422 0
-0.059242666 0.0068418691 0.072646923 0.97341704 0.22893664 0.006870239 0
0.018524503 0.0073078172 0.072711535 0.91148013 0.40714943 -0.058594931 0
-0.060796302 0.012802426 0.072414644 -0.99677497 0.0417873 -0.068508849 0
-0.059849747 0.010926975 0.072635576 0.97641224 0.21411 -0.027857399 0
0.019270191 0.011963931 0.072759457 -0.99327224 0.1064657 -0.04555548 0
0.020257767 0.013479805 0.071817107 0.97924936 -0.17529684 0.10169421 0
-0.060998883 0.01715612 0.07261084 0.7793417 -0.58453625 0.22570731 0
0.019194758 0.017438259 0.072683133 -0.99993086 0.0053641014 0.010467973 0
0.020196266 0.01758467 0.072452486 0.99971771 0.019562151 0.013483664 0
-0.060962502 0.022105109 0.072563358 -0.99920571 0.035997689 0.017092347 0
-0.059852641 0.023897266 0.072116897 0.98923534 -0.14542757 -0.016257074 0
0.019166809 0.02270003 0.072638802 -0.98447347 -0.17411549 0.022264119 0
0.020134861 0.02120802 0.072053596 0.98959655 0.10698681 0.096190251 0
-0.060489297 0.02717785 0.072274521 -0.9730733 0.23014116 -0.012783955 0
-0.059093907 0.028174369 0.072343022 0.96360934 -0.2666032 0.019491393 0
0.018171843 0.027771609 0.072244398 -0.99240905 -0.10602176 0.062319439 0
-0.058109351 0.03240411 0.072506711 0.96240503 -0.27097124 0.018738307 0
0.014881326 0.034799948 0.072098583 -0.87079269 -0.49003264 0.039850917 0
0.016661663 0.032396022 0.072647952 0.89681524 0.31236631 0.3132883 0
-0.056163553 0.037165709 0.072460435 -0.87232721 0.48847452 0.020926345 0
-0.054203846 0.038788229 0.072372027 0.84584916 -0.53341156 -0.0033510993 0
0.01345458 0.037956063 0.072585374 -0.84409785 -0.53577638 -0.021037228 0
0.015748313 0.03574289 0.072796285 0.87831831 0.47767648 -0.019546585 0
-0.052557405 0.04252613 0.072518915 -0.76981252 0.63681781 -0.043033183 0
-0.049755219 0.044612486 0.072940819 0.71900779 -0.69499171 0.0037821317 0
0.0090180524 0.043784693 0.072387949 -0.71410924 -0.69982022 -0.017309671 0
0.011414829 0.041520357 0.072479434 0.70420504 0.61962843 -0.34663516 0
-0.050576352 0.045624491 0.072364919 -0.72657025 0.6868915 0.01660822 0
-0.04746367 0.047658373 0.072519526 0.31262797 0.78127974 -0.54024601 0
-0.044240564 0.049343869 0.072776623 0.57464403 -0.81756914 0.03694601 0
0.003684852 0.048807677 0.072269022 -0.58972615 -0.80672926 -0.037564088 0
0.0067623719 0.046633665 0.072390117 0.76511019 0.59223354 -0.25271699 0
-0.045452978 0.050112799 0.072615169 -0.58107382 0.81356859 -0.02143435 0
-0.042380068 0.051640086 0.072598733 -0.57271773 0.81729692 -0.06340494 0
-0.037887141 0.053543672 0.072767697 0.43332216 -0.90120167 0.0082159229 0
-0.033928137 0.054694027 0.072697863 0.30802831 -0.95128608 0.013169291 0
-0.0067878165 0.054425813 0.072732672 -0.33199754 -0.9430986 0.018512158 0
-0.0022083675 0.05295296 0.072374769 -0.54868466 -0.83546215 0.030792229 0
0.001749946 0.051015314 0.072752528 0.57487458 0.81491637 -0.073691711 0
-0.035782967 0.055566195 0.072762445 -0.3708573 0.92723876 -0.051896151 0
-0.032187548 0.056122981 0.072374247 -0.23291811 0.97249627 0.00035979893 0
-0.027589524 0.057108048 0.072561882 -0.13177271 0.9597255 -0.24811862 0
-0.022655828 0.057437167 0.07235904 -0.023927044 -0.9977749 0.062230591 0
-0.017282197 0.057374887 0.072232828 0.21103668 -0.94205964 -0.26074356 0
-0.012455667 0.056766126 0.072884858 -0.47938612 -0.77949619 -0.40320545 0
-0.0077963951 0.055819299 0.072459705 0.32724699 0.94357693 -0.050715383 0
-0.0048400816 0.055086527 0.072654977 0.37170839 0.92727304 -0.044694688 0
-0.036489543 -0.025732739 0.078875132 -0.36874855 -0.90833133 -0.19737917 0
-0.032305688 -0.026611058 0.078636035 -0.15540467 -0.68619978 -0.71061885 0
-0.027373251 -0.027339591 0.07869032 -0.098516516 -0.71934879 -0.68762767 0
-0.022577697 -0.027339373 0.078415774 0.0049872901 -0.29877672 -0.95430994 0
-0.017431332 -0.027768895 0.078588955 0.063419893 -0.67753714 -0.7327491 0
-0.012492289 -0.027167279 0.078653678 0.15321384 -0.68215376 -0.71497673 0
-0.0073735672 -0.026278334 0.078710303 0.23974314 -0.74880427 -0.61791205 0
-0.0039781732 -0.025466857 0.079228751 0.40609738 -0.90090835 0.15313081 0
-0.046013314 -0.020897005 0.07877221 -0.47385201 -0.7722137 -0.42326146 0
-0.04220742 -0.022293981 0.078686446 -0.32525229 -0.65014249 -0.68667728 0
-0.037375331 -0.02217022 0.078005783 -0.19222896 -0.50138378 -0.84360075 0
-0.032369379 -0.022148116 0.077395439 0.14763191 0.3568944 -0.92240506 0
-0.027457684 -0.022955624 0.077288307 0.29824513 0.81106055 0.50322026 0
-0.022310749 -0.023392616 0.077318698 0.063149087 0.91989636 0.38704371 0
-0.017468743 -0.023279289 0.077368155 -0.18239398 0.92848247 0.32350075 0
