# .PCD v0.7 - Point Cloud Data file format
VERSION 0.7
FIELDS x y z
SIZE 4 4 4
TYPE F F F
COUNT 1 1 1
WIDTH 204
HEIGHT 1
VIEWPOINT 0 0 0 1 0 0 0
POINTS 204
DATA ascii
-0.0426993 -0.040125947 0.0092866765
-0.034509126 -0.040223084 0.0079128658
-0.024912095 -0.040598709 0.0074288542
-0.014951543 -0.040931318 0.0072587766
-0.0049355691 -0.04109877 0.0066323327
0.0049689142 -0.041071679 0.0067872312
0.013842905 -0.041083395 0.0070271394
-0.052024785 -0.034680624 0.0066679078
-0.045025066 -0.036250737 0.0037876016
-0.035222977 -0.035591312 0.0025024412
-0.025061015 -0.035514202 0.0023267011
-0.015051491 -0.03542449 0.0021288015
-0.0050757718 -0.035178799 0.0017616519
0.004961451 -0.035316747 0.0016760613
0.016064461 -0.035041563 0.0041698408
-0.051887337 -0.025100362 0.0056686956
-0.045055196 -0.02493727 0.0011476462
-0.03506067 -0.025066158 0.00093841902
-0.025136705 -0.025078343 0.0010138757
-0.015142875 -0.024972672 0.00095142383
-0.0050585978 -0.025015058 0.00080914778
0.0049128262 -0.024981612 0.0006723394
0.01637841 -0.024967914 0.0035406249
-0.051747311 -0.015025636 0.005735199
-0.045074843 -0.01500065 0.0010918417
-0.034983013 -0.014961067 0.00088774465
-0.025006063 -0.014973953 0.00094140659
-0.014960352 -0.01497539 0.00086250831
-0.0049760137 -0.015084969 0.00079514744
0.0049087098 -0.014998553 0.00071022124
0.016490359 -0.015067697 0.0037709386
-0.051698249 -0.0050526331 0.006151523
-0.045159619 -0.0048727682 0.001492638
-0.034930062 -0.0050495453 0.0010147955
-0.024921767 -0.0049530999 0.0010072695
-0.014997255 -0.0049986932 0.00096755667
-0.0050596041 -0.0050242492 0.00097107305
0.0050666616 -0.0050456999 0.00099602586
0.016192228 -0.0053103864 0.0032584514
0.020073662 -0.0024405576 0.0079428097
-0.051549755 0.0050893323 0.0064627226
-0.045163609 0.0049291435 0.001942264
-0.034929462 0.0050221663 0.0012147813
-0.025035687 0.0049180882 0.0011469846
-0.014941266 0.0050184918 0.0011050449
-0.0049944972 0.0049639167 0.0011343675
0.0050307852 0.004937456 0.0013929948
0.015514472 0.0048939087 0.0026115372
0.020195693 0.0050411434 0.0076052388
-0.051439367 0.015026808 0.0066084736
-0.045231253 0.014935878 0.0020432263
-0.035060998 0.015057851 0.0013312907
-0.024993872 0.015053969 0.0012499214
-0.015008375 0.014944911 0.0012642075
-0.0050316434 0.014975592 0.0013836975
0.0049698879 0.015012179 0.0017654521
0.015802842 0.015099159 0.0031548562
0.020314408 0.014765161 0.0079824654
-0.051373709 0.02485292 0.0065668765
-0.045078393 0.025094233 0.0021662707
-0.03503773 0.024992114 0.0013651722
-0.025014007 0.024974203 0.0013176914
-0.015035318 0.024998557 0.0013893734
-0.0048605669 0.025037706 0.0015763793
0.0050721862 0.024924567 0.001990342
0.015303324 0.024959335 0.0030075088
0.020555256 0.025017159 0.0074111195
-0.051276769 0.035100661 0.0067985225
-0.045350913 0.035003372 0.0021463642
-0.035016827 0.035038199 0.0012550832
-0.025019223 0.034960475 0.0012341342
-0.015036818 0.035081573 0.0013696891
-0.0050218618 0.035002451 0.0016876309
0.0049274382 0.03500529 0.0021927604
0.015140182 0.035013601 0.0032669955
0.020593505 0.03496341 0.0075031095
-0.051137142 0.045180246 0.006173017
-0.045084748 0.045049969 0.0013944013
-0.034917429 0.045004845 0.00097846938
-0.024983967 0.04502748 0.001146641
-0.014874474 0.045048449 0.0014064406
-0.0049999263 0.044943228 0.0017633933
0.0050064204 0.045019403 0.0023640462
0.015197062 0.044976696 0.0037477824
0.020657569 0.044649206 0.0079115909
-0.0517326 0.055292178 0.0056680148
-0.044873416 0.055142894 0.0013060886
-0.035016399 0.05521385 0.0011520876
-0.025058616 0.055174585 0.001619841
-0.014951035 0.055176813 0.002208008
-0.004954129 0.055113517 0.002747498
0.004973758 0.055229075 0.0036131414
0.01517206 0.055112042 0.0059539829
0.020508964 0.051835384 0.008890071
-0.052070152 0.063876368 0.0043668589
-0.045223258 0.06521818 0.0055503855
-0.035121936 0.065126792 0.0061629252
-0.025117563 0.064799845 0.0065506524
-0.015021296 0.064731568 0.0069860932
-0.0051060957 0.064134426 0.0074310908
0.0047841948 0.063584872 0.0082588224
0.012208071 0.061845552 0.0090392781
-0.043815155 -0.040137023 0.01062687
-0.034032784 -0.040102143 0.010498795
-0.02443994 -0.040379792 0.011158847
-0.014706062 -0.040663581 0.011531834
-0.0050381371 -0.040747527 0.011768962
0.0051812772 -0.040847689 0.011827123
0.013230313 -0.040778831 0.011175183
-0.051862694 -0.034621056 0.012391144
-0.045094553 -0.035619039 0.014686837
-0.034953766 -0.035993818 0.015110969
-0.025064051 -0.035717305 0.015671885
-0.015106102 -0.035403024 0.015861668
-0.0050344476 -0.035373054 0.016097492
0.0050498457 -0.035316937 0.0159119
0.015244767 -0.034940019 0.013904356
-0.051782232 -0.024982484 0.012798571
-0.04510187 -0.024975182 0.016292946
-0.034966886 -0.02497733 0.017023541
-0.024888705 -0.024997495 0.017203283
-0.01505711 -0.025022918 0.017224625
-0.0049568634 -0.024971252 0.017102445
0.0050139935 -0.02494172 0.016722839
0.01580167 -0.024915736 0.014383217
-0.051763665 -0.014883919 0.012889097
-0.045104872 -0.015044643 0.01637307
-0.034993067 -0.015069932 0.017072331
-0.025029115 -0.014953014 0.017270975
-0.014925309 -0.014967836 0.01734696
-0.00491422 -0.015023213 0.017232409
0.0050664307 -0.015016471 0.016886495
0.015947614 -0.01493946 0.01461211
-0.051609389 -0.004899425 0.012876806
-0.045125321 -0.0049501872 0.016586272
-0.035038423 -0.0050999802 0.017242057
-0.025029443 -0.005025622 0.017423758
-0.015014297 -0.0049417038 0.017490782
-0.0050541158 -0.00495918 0.017428026
0.004907337 -0.0050272015 0.017207215
0.016087726 -0.0050246948 0.014953017
0.020036237 -0.0014266345 0.010342175
-0.051342789 0.0049542068 0.012984455
-0.045122184 0.005109732 0.016933322
-0.034966085 0.0050214808 0.017488299
-0.025025997 0.0049856124 0.017576525
-0.014981578 0.0049196184 0.017652115
-0.0049622417 0.0049551297 0.017691307
0.0050097546 0.0049181948 0.017600102
0.015889915 0.0047860211 0.016008247
0.020183552 0.0061775879 0.011375018
-0.051312912 0.015113874 0.01260744
-0.04535114 0.01501291 0.016945681
-0.034950335 0.015000805 0.017672515
-0.02494131 0.015000872 0.017743446
-0.015028619 0.015014245 0.017862404
-0.0050244429 0.014982725 0.017943507
0.0049366113 0.015062746 0.017995728
0.015589477 0.015168509 0.017008662
0.020382304 0.014845513 0.012237464
-0.051310074 0.024940969 0.013164786
-0.045052711 0.025028331 0.017221283
-0.035038661 0.025019268 0.017747065
-0.025050677 0.025103148 0.017843766
-0.015049813 0.024950219 0.018008109
-0.0050858995 0.025003701 0.018143529
0.0049413666 0.02515493 0.018275989
0.015357436 0.024914058 0.017707858
0.020600816 0.02532188 0.01301074
-0.051177107 0.035001371 0.012931365
-0.045165967 0.034962934 0.017035877
-0.034992397 0.034944739 0.017558835
-0.024914119 0.034966718 0.017788056
-0.014891022 0.034995586 0.018010816
-0.0050995769 0.035080161 0.018214054
0.0051261457 0.034985576 0.018441413
0.015339645 0.035016544 0.018073956
0.020792404 0.035113413 0.013228692
-0.051001068 0.044970423 0.012602481
-0.045288626 0.045031428 0.016395604
-0.035056207 0.045000404 0.017112628
-0.02504278 0.045000982 0.017368849
-0.015108623 0.044975098 0.017645717
-0.0049249926 0.044969775 0.01802936
0.005056846 0.044995513 0.018481359
0.014951103 0.045080479 0.018319633
0.020882176 0.045109771 0.013581733
-0.050676741 0.053253971 0.011732168
-0.045321457 0.05527813 0.014436131
-0.035002317 0.055171993 0.015668737
-0.024999723 0.055233371 0.01593044
-0.015034566 0.055074845 0.016155221
-0.0050008055 0.055174742 0.016514037
0.0050301906 0.055224892 0.017194038
0.015200826 0.055173654 0.0174639
0.02123809 0.055069134 0.014193996
-0.044212792 0.061657101 0.011414574
-0.034818269 0.062727161 0.011906398
-0.024864687 0.063484386 0.011951218
-0.014997003 0.063772291 0.011937697
-0.0050128847 0.064237908 0.012145727
0.0051109544 0.064743675 0.012775767
0.015304052 0.064467117 0.013337271
0.021619108 0.063408427 0.014783545
