# .PCD v0.7 - Point Cloud Data file format
VERSION 0.7
FIELDS x y z normal_x normal_y normal_z curvature
SIZE 4 4 4 4 4 4 4
TYPE F F F F F F F
COUNT 1 1 1 1 1 1 1
WIDTH 635
HEIGHT 1
VIEWPOINT 0 0 0 1 0 0 0
POINTS 635
DATA ascii
0.012445994 0.017496752 0.0022508525 0.023472434 0.090333104 -0.99563491 0
0.017465489 0.017685607 0.0029967006 0.42350963 0.019211629 -0.90568787 0
0.02008657 0.01660176 0.0047195647 0.97258121 0.054832708 -0.22600728 0
-0.050766323 0.022487421 0.0038414504 -0.79245383 0.082045995 -0.60438848 0
-0.047670867 0.022573624 0.0022582987 -0.24163753 0.054131169 -0.96885568 0
-0.042395648 0.022367485 0.001631138 -0.026740693 0.021263992 -0.99941623 0
-0.037578445 0.022593087 0.0014713143 -0.045582525 -0.02444833 -0.99866134 0
-0.032313552 0.022520266 0.001320426 -0.018195093 -0.046102751 -0.99877101 0
-0.027400533 0.022515969 0.0012572401 0.040824741 -0.016820254 -0.99902475 0
-0.022328544 0.022225786 0.001357876 -0.01693126 -0.0039473693 -0.99984884 0
-0.017093746 0.02263117 0.0013781107 -0.0016843437 -0.034838635 -0.99939156 0
-0.012391681 0.022080068 0.0014214722 -0.031254597 0.0081014158 -0.99947858 0
-0.0075775022 0.02246769 0.0014709261 0.042326916 -0.011900131 -0.99903297 0
-0.0026714713 0.022528147 0.0016139427 0.0036977455 -0.011075239 -0.99993187 0
0.0025310693 0.022625502 0.0018427938 0.071247272 0.012645391 -0.99737853 0
0.007659378 0.022689423 0.0020781485 0.067647785 0.023388801 -0.99743503 0
0.012396808 0.022582129 0.0024024535 0.056008469 0.013698145 -0.99833632 0
0.017754588 0.022526922 0.0032833456 0.46178228 0.011066291 -0.88692427 0
0.020073993 0.022336252 0.0048569255 0.78863889 -0.077861585 -0.60990673 0
-0.050765961 0.027357303 0.0040523061 -0.80952328 0.070614547 -0.58282554 0
-0.047577195 0.027774524 0.0023285262 -0.27816692 0.0050982903 -0.96051925 0
-0.042556886 0.027473338 0.0016430616 -0.044208173 -0.048041426 -0.99786657 0
-0.037656311 0.027600514 0.0014392713 -0.021370916 0.048530329 -0.99859303 0
-0.032538973 0.027478777 0.0012885703 -0.028090203 -0.019303471 -0.99941897 0
-0.027453162 0.027610261 0.0012922584 0.019284215 -0.0073685562 -0.99978685 0
-0.022608025 0.027547672 0.0013780543 -0.037632059 -0.035810962 -0.99864978 0
-0.017364481 0.027485238 0.0013893597 0.0067384667 0.024830308 -0.99966896 0
-0.012307192 0.02756851 0.0014720047 0.020713307 -0.028821193 -0.99936998 0
-0.0077040615 0.027385587 0.0015673451 0.020560609 0.060585517 -0.99795121 0
-0.0025335823 0.027497284 0.0017210206 0.052747443 0.032110736 -0.99809146 0
0.0026973593 0.027483478 0.0019538205 0.036124937 0.042507466 -0.99844289 0
0.0072630346 0.027271163 0.0021743025 0.059679337 0.085673377 -0.99453431 0
0.012411308 0.0275157 0.0025118606 0.070829324 0.059549015 -0.99570942 0
0.017630162 0.027944619 0.0033698229 0.4042657 -0.013435523 -0.91454285 0
0.020096779 0.026488446 0.0048124297 0.91069436 -0.066919588 -0.40762419 0
-0.050690606 0.032575283 0.0040135132 -0.83475792 -0.01763401 -0.55033463 0
-0.047663856 0.032307468 0.0021819607 -0.28584972 -0.082007743 -0.95475894 0
-0.042460151 0.032447413 0.0015395147 -0.032474518 -0.025577053 -0.99914521 0
-0.037587896 0.032499224 0.0014026525 -0.027668823 -0.016816074 -0.99947566 0
-0.032477003 0.032695197 0.0012523235 -0.023806266 0.022453196 -0.99946439 0
-0.027454564 0.032297563 0.0012443041 0.026425244 -0.00021183582 -0.99965078 0
-0.022365376 0.032465052 0.0013597766 -0.015489648 -0.00079507794 -0.99987978 0
-0.017276583 0.032616351 0.0013606359 0.0066894051 -0.029471662 -0.99954319 0
-0.012624577 0.032619886 0.0014817979 0.018480783 0.000571604 -0.99982899 0
-0.0075175078 0.0326638 0.0016254807 0.038224235 0.0018604622 -0.99926746 0
-0.0023657654 0.032446444 0.0017808717 0.044042148 -0.0042782221 -0.99902052 0
0.0026516239 0.032624781 0.0020654316 0.03985085 0.0036188473 -0.99919909 0
0.0076724421 0.032569595 0.0023516158 0.017611928 0.030412368 -0.9993822 0
0.012514239 0.032130171 0.0026249324 0.053617053 0.08923658 -0.9945662 0
0.017713275 0.032547776 0.0033623974 0.38759509 0.046971448 -0.9206323 0
0.020142628 0.032090731 0.0046479013 0.79725426 0.049446288 -0.60161513 0
-0.050682593 0.037728809 0.0038427573 -0.84877598 -0.039216414 -0.5272963 0
-0.047498718 0.037435748 0.0019686657 -0.29729709 -0.066856757 -0.95244139 0
-0.04254644 0.037679397 0.0013755948 -0.038607124 -0.035954647 -0.9986074 0
-0.037470251 0.037614383 0.0012392739 -0.049434103 -0.098946311 -0.99386412 0
-0.032701693 0.037476093 0.0011876203 0.021583492 -0.022640735 -0.99951065 0
-0.027647972 0.037526321 0.0011919095 0.017598001 0.032301992 -0.99932325 0
-0.022426395 0.037522703 0.0013430617 0.001080044 -0.045909453 -0.998945 0
-0.017474487 0.037502311 0.0013509835 0.028236253 -0.043268498 -0.99866438 0
-0.012240237 0.037343357 0.001477773 0.049816418 -0.027837988 -0.99837035 0
-0.0073914588 0.037525114 0.0016529638 0.050221883 -0.016150901 -0.99860752 0
-0.0024709157 0.037675943 0.0018625092 0.04178283 0.0027832459 -0.9991228 0
0.0025718664 0.03738917 0.0021210995 0.056144584 0.001810691 -0.99842101 0
0.0073986431 0.03754662 0.0023822568 0.051598504 0.035102937 -0.99805081 0
0.0123091 0.037597548 0.0026934475 0.085916691 0.050548885 -0.99501914 0
0.017690446 0.037376542 0.0034675673 0.37231737 0.040443193 -0.92722386 0
0.020135313 0.037845027 0.0047795032 0.72077203 0.060464337 -0.69053006 0
-0.050727647 0.042296682 0.0037696164 -0.89554399 -0.076408438 -0.43836364 0
-0.047587577 0.042532105 0.0017570086 -0.27656719 -0.10163423 -0.95560515 0
-0.042523418 0.042577259 0.0010991008 -0.007885471 -0.10170317 -0.99478358 0
-0.037428632 0.042790413 0.0010611886 -0.012697373 -0.060635291 -0.99807924 0
-0.032526668 0.042454347 0.0010179506 -0.0041491878 -0.054829039 -0.99848711 0
-0.027728027 0.042547416 0.0011183841 0.00049755833 -0.11005978 -0.99392486 0
-0.022608219 0.04244243 0.001296156 0.021346683 -0.031702515 -0.99926937 0
-0.01735978 0.04242114 0.0013530212 0.0012578268 0.0077973721 -0.99996883 0
-0.012461317 0.042460997 0.0015280584 0.047585841 0.0050316378 -0.99885452 0
-0.0074968571 0.042497411 0.0016852665 0.045936398 0.015218776 -0.99882847 0
-0.0025604195 0.042540509 0.0018818827 0.061042815 0.020515202 -0.99792427 0
0.0025677746 0.042457037 0.0021240124 0.0224082 0.013243255 -0.99966115 0
0.0075677871 0.042508218 0.0024497907 0.066981584 0.013671565 -0.99766052 0
0.012656281 0.042377558 0.0028090884 0.066614583 0.037220038 -0.99708438 0
0.017876618 0.042388152 0.003655222 0.3678948 0.06140995 -0.92783737 0
0.020194203 0.041968558 0.0047778729 0.5905894 -0.11391127 -0.79889196 0
-0.050851345 0.047651231 0.0034448782 -0.87061936 -0.090478763 -0.48356542 0
-0.047824863 0.047549997 0.0013845494 -0.28419963 -0.046579991 -0.95763296 0
-0.042529646 0.047628682 0.00087906874 0.0020644492 -0.021652121 -0.99976349 0
-0.03766669 0.047534641 0.00090213923 -0.018750221 -0.060213666 -0.99800938 0
-0.032612044 0.047493324 0.00085984974 -0.022200231 -0.026959507 -0.99938995 0
-0.027650172 0.047652248 0.00099937129 0.026970189 -0.037547868 -0.99893081 0
-0.022501007 0.047436535 0.0012108812 0.050949164 0.0025293299 -0.998698 0
-0.017525163 0.047069069 0.0013106981 0.016970053 0.013636149 -0.99976307 0
-0.012565563 0.047391754 0.0015383626 0.050087564 0.051730819 -0.99740422 0
-0.0076164524 0.047368169 0.0016972383 0.015234209 0.011100673 -0.99982232 0
-0.002439315 0.047377963 0.0019114369 0.094530337 -0.0042493786 -0.9955129 0
0.0022536539 0.04745654 0.0022339076 0.055618595 0.062638104 -0.99648535 0
0.0074411179 0.047327805 0.002534902 0.038182478 0.043838594 -0.99830872 0
0.012686127 0.047586694 0.0029651967 0.093360461 0.072271593 -0.99300581 0
0.017351687 0.047429092 0.0037638929 0.34228462 0.12636423 -0.93106037 0
-0.051199213 0.052456047 0.0032016127 -0.83949828 -0.11852265 -0.53027833 0
-0.047682915 0.052457601 0.0010963518 -0.19401048 -0.018262632 -0.98082942 0
-0.042555429 0.052440356 0.00077191147 -0.010792664 -0.00029459354 -0.99994165 0
-0.03758169 0.052502636 0.00076808652 0.0048633446 -0.045328282 -0.99896026 0
-0.032298785 0.052479547 0.00079635775 0.01931053 -0.0080022216 -0.99978149 0
-0.027640492 0.052385543 0.00097320089 0.037614003 0.045234237 -0.99826801 0
-0.022620495 0.052306909 0.001235403 0.055176996 0.024402486 -0.99817836 0
-0.0175582 0.05246418 0.0014477824 0.032583445 0.0081423186 -0.99943584 0
-0.012397421 0.052443903 0.0016827114 0.034872048 0.070742622 -0.99688488 0
-0.0074454746 0.052630015 0.001901495 0.013203157 0.066017628 -0.99773109 0
-0.0025349385 0.052726194 0.0021229794 0.073549323 0.09685839 -0.99257696 0
0.0028876022 0.052329618 0.0024592704 0.11780774 0.071245618 -0.99047738 0
0.0073983939 0.052556213 0.0029137454 0.054862045 0.14704996 -0.98760647 0
0.012778494 0.052530654 0.0034641307 0.14725722 0.15004273 -0.97765148 0
0.016867349 0.052242029 0.0042438959 0.35892439 0.21798006 -0.90755606 0
-0.051853865 0.057571501 0.0033241985 -0.65451312 -0.031276047 -0.75540352 0
-0.047473785 0.057780154 0.0014242891 -0.17636023 0.22920035 -0.95726913 0
-0.042566977 0.057551499 0.0010175464 -0.026143033 0.19449431 -0.98055518 0
-0.037443694 0.057254281 0.0010056762 0.032876626 0.23744801 -0.97084373 0
-0.032697465 0.057450101 0.0012150239 0.049500946 0.2374336 -0.97014165 0
-0.027583098 0.057551336 0.0015996685 0.078303337 0.27274778 -0.95889378 0
-0.022511389 0.057354551 0.0019281453 0.10481307 0.27531043 -0.95562458 0
-0.017330863 0.057639357 0.0023377093 0.024108538 0.31160802 -0.9499048 0
-0.012399036 0.057632852 0.0025993779 0.063150324 0.37574989 -0.92456698 0
-0.0075960332 0.057717152 0.0029881799 0.049564317 0.41734082 -0.90739733 0
-0.002425082 0.057613444 0.0031882168 0.083831653 0.36293027 -0.92803758 0
0.0024043219 0.057466634 0.0036321802 0.091838725 0.41526473 -0.90505296 0
0.0074435547 0.057141781 0.0040424778 0.098061703 0.36642879 -0.92526418 0
0.012029735 0.056447022 0.0043346505 0.18109351 0.33264831 -0.92550004 0
0.015905941 0.055704482 0.0047318381 0.23695332 0.11489271 -0.9647035 0
-0.05289207 0.062612236 0.0028884665 -0.50634259 -0.36004451 -0.78357202 0
-0.047475789 0.062423434 0.0031253695 0.11964412 0.20805861 -0.97077125 0
-0.042809054 0.062374912 0.0034696339 0.055509102 0.5699088 -0.81983089 0
-0.037503444 0.061464731 0.0029889385 0.083368033 0.72524488 -0.68342495 0
-0.0323174 0.061487816 0.0034877157 0.057490885 0.76852965 -0.63722599 0
-0.027648037 0.061254881 0.0037473559 0.075977802 0.72904217 -0.68023884 0
-0.02262021 0.061213136 0.0039435374 0.01320518 0.72206986 -0.69169414 0
-0.017770143 0.061061759 0.0041029342 0.015466852 0.63274395 -0.77420664 0
-0.012508403 0.060698088 0.0043542599 0.083093397 0.61415744 -0.78479689 0
-0.006967633 0.060476527 0.0045486307 -0.034618892 0.46659523 -0.88379329 0
-0.0029980517 0.060444117 0.0047478238 0.096793868 0.4798992 -0.87196767 0
-0.052719597 0.06706886 0.0032439558 -0.47448915 0.77738142 -0.41296268 0
-0.047566082 0.067161456 0.0034598967 0.23549956 0.43626913 -0.86845219 0
-0.042699508 0.066510625 0.0043720598 0.2097005 0.065159984 -0.97559208 0
-0.039703704 0.066660471 0.0048455163 0.19092675 -0.0066327979 -0.98158187 0
-0.051384456 -0.040174752 0.0097897723 -0.17862982 -0.92617542 -0.33210024 0
-0.047247235 -0.040292785 0.0096839229 -0.026816461 -0.78496855 -0.6189549 0
-0.042340688 -0.040340643 0.009195975 -0.098049574 -0.96441829 -0.24552706 0
-0.03690232 -0.040341828 0.0081527308 0.0041246447 -0.99652106 -0.083238542 0
-0.032656431 -0.040428147 0.0074657653 -0.066882774 -0.99395585 -0.087053582 0
-0.027496934 -0.040736932 0.0073417779 -0.065758809 -0.9893828 -0.12960507 0
-0.022397887 -0.041051958 0.0076287203 -0.039488204 -0.9945966 -0.096011989 0
-0.017501105 -0.041152611 0.0076470352 -0.038859509 -0.98493105 -0.16852501 0
-0.012299539 -0.041300934 0.0073903054 0.0077688228 -0.9936589 -0.11216802 0
-0.0075178589 -0.041476876 0.007544016 -0.047269229 -0.99668896 -0.066158548 0
-0.0023419219 -0.041583583 0.0075706556 -0.0051100021 -0.99535573 -0.096129395 0
0.002598315 -0.041738968 0.0076526068 -7.6589327e-05 -0.99237293 -0.12327183 0
0.0075479611 -0.041687053 0.0074530598 -0.029159915 -0.9870792 -0.15755787 0
0.012460252 -0.041784912 0.0076713054 0.012835428 -0.99637657 -0.084076852 0
0.017818859 -0.041536365 0.0073770634 0.40281567 -0.90292311 -0.1498979 0
-0.052663609 -0.037835516 0.0074964864 -0.78409433 -0.44454387 -0.43310142 0
-0.047562931 -0.039567307 0.0071278475 -0.052497771 -0.97928792 -0.19554834 0
-0.042900391 -0.039729126 0.0067899851 -0.067299485 -0.99573618 -0.063090071 0
-0.038306378 -0.039865591 0.0063147228 -0.076954991 -0.99625909 0.039315276 0
0.019317834 -0.037618343 0.0074229171 0.99506354 -0.0060440358 -0.099055767 0
-0.052857403 -0.032435682 0.0075869299 -0.98857236 0.053462125 -0.14094812 0
0.019198621 -0.03262978 0.0075451173 0.99686795 0.017399721 -0.077146016 0
-0.05263545 -0.027674789 0.0073915781 -0.99416196 0.04473836 -0.098185152 0
0.019270195 -0.027466211 0.007281485 0.99836016 -0.023908641 -0.052012924 0
-0.052486483 -0.022466967 0.0074513904 -0.99616253 0.012652317 -0.086603343 0
0.01944524 -0.022461437 0.0076622628 0.99941814 -0.031557661 -0.012943316 0
-0.052506436 -0.017220668 0.007650475 -0.998613 0.021443652 -0.048086673 0
0.019641269 -0.017336888 0.007480016 0.99683231 -0.052496392 -0.059745353 0
-0.052425798 -0.01241596 0.0074764728 -0.99851769 0.024863413 -0.048416078 0
0.019817488 -0.012850696 0.0072951107 0.99808294 -0.061504576 -0.0068986691 0
0.020045286 -0.011071219 0.0070277452 0.98961502 -0.083641209 -0.11690378 0
-0.052328616 -0.0076484657 0.0074678562 -0.99826568 0.0045683631 -0.058692653 0
0.019944109 -0.0082052955 0.0073204827 0.99611068 -0.049824923 -0.072669812 0
0.020109253 -0.0073710391 0.0075621768 0.99933743 -0.03482705 0.010575179 0
-0.052245393 -0.0025170979 0.0072780577 -0.99639952 0.019549258 -0.082497023 0
0.019894008 -0.0036958018 0.0052394904 0.94049102 -0.083653584 -0.32936114 0
0.020177947 -0.0022509689 0.007654442 0.99997187 0.00047793158 -0.0074824817 0
-0.052138779 0.0023822365 0.0075631356 -0.99458575 0.031348739 -0.099077523 0
0.019981023 0.0011245824 0.0051344223 0.88248938 -0.1674822 -0.43950233 0
0.02030547 0.0023986241 0.0074785296 0.99843323 -0.030934468 -0.046627674 0
-0.052043844 0.0076285568 0.0075005312 -0.9969722 0.032933537 -0.070439592 0
0.01994787 0.0060239346 0.0050626043 0.88313216 -0.05847659 -0.46546552 0
0.020432143 0.0077733058 0.0074704885 0.99777573 -0.017352631 -0.064362153 0
-0.052007638 0.012351704 0.0075828861 -0.99220777 -0.0046067489 -0.12450901 0
0.020513209 0.012553985 0.0073429155 0.99330145 -0.044920169 -0.106463 0
-0.051956695 0.017509092 0.0076187039 -0.99527699 0.037861358 -0.089388318 0
0.020659044 0.01736779 0.0075028259 0.99397707 -0.019810101 -0.10778261 0
-0.051817015 0.022345906 0.0075522112 -0.99569625 0.026722278 -0.08874096 0
0.02070298 0.022588601 0.0073462711 0.98755121 -0.029628929 -0.15448228 0
-0.051688787 0.027353121 0.0073423274 -0.98873687 0.010719953 -0.14927971 0
0.020799182 0.027656244 0.007522109 0.97900987 -0.0093356883 -0.20359918 0
-0.051620066 0.032380808 0.0076074954 -0.99388766 0.011986405 -0.10974349 0
0.020843983 0.032339018 0.0072376374 0.97793651 -0.041851938 -0.204667 0
-0.051656216 0.03732647 0.007360165 -0.9940936 -0.0020733571 -0.10850668 0
0.020978788 0.037434958 0.0076240352 0.98313183 0.013044497 -0.18243286 0
-0.051574856 0.042748459 0.0073636123 -0.99502724 0.038760129 -0.091752678 0
0.019919502 0.044457324 0.0050164992 0.90676951 -0.051364891 -0.41848624 0
0.020933067 0.042415425 0.0073807198 0.98146874 0.018752107 -0.19070275 0
-0.051618412 0.047398608 0.0075221541 -0.99904776 -0.04351496 -0.0031782968 0
0.019725239 0.049404938 0.0055022449 0.84206134 0.060523897 -0.53597534 0
0.020830376 0.04777034 0.0076381308 0.95959812 0.041752622 -0.27825922 0
-0.051818639 0.052480314 0.0075985733 -0.99378431 -0.029730262 0.10727897 0
0.019072101 0.053023491 0.0060954792 0.71104658 0.26774833 -0.65017205 0
0.020687917 0.05211094 0.0083814329 0.94102168 0.12693879 -0.31363136 0
-0.051917579 0.057467457 0.0075503662 -0.91910505 0.054183595 0.39026931 0
0.0043644286 0.059801161 0.005237509 -0.049242411 0.21313927 -0.97578013 0
0.0077799056 0.059457526 0.0054316521 0.12418708 0.65240782 -0.74762398 0
0.012643922 0.058707666 0.0057416447 0.16486819 0.56600761 -0.80774617 0
0.01761815 0.057416674 0.0073473342 0.59032643 0.50660086 -0.62838703 0
0.020147502 0.056473829 0.0097495811 0.8574239 0.24751623 -0.45117614 0
-0.051751528 0.062211879 0.0066417782 -0.70073962 0.15890764 0.69549435 0
-0.047981795 0.063471153 0.0087423865 -0.3465941 0.64623833 0.67988873 0
-0.042676669 0.064038061 0.0087167947 -0.11048904 0.73941475 0.66412187 0
-0.037553079 0.064076081 0.0065348311 0.050200593 0.50786155 -0.85997462 0
-0.032173693 0.063461602 0.0057548266 0.096488141 0.47093743 -0.87687403 0
-0.027622478 0.063432842 0.0061917068 0.083982997 0.57903141 -0.81096828 0
-0.022448324 0.063449845 0.0065890299 0.055885963 0.55753505 -0.8282702 0
-0.017500671 0.063151516 0.0065431814 0.080779709 0.67044193 -0.73755151 0
-0.012449172 0.063099056 0.0069444524 0.042284407 0.51849252 -0.85403603 0
-0.0075822454 0.062549978 0.0068585081 0.053325519 0.66497439 -0.74496007 0
-0.0026556209 0.062530071 0.0070932754 0.095461652 0.58429897 -0.80590433 0
0.0024235451 0.06243363 0.007723358 0.081147656 0.48534197 -0.87055051 0
0.0077354875 0.062218811 0.0082155596 0.173925 0.53813273 -0.82472008 0
0.011955015 0.06162066 0.0084677739 0.1704815 0.67800426 -0.71501487 0
0.016079852 0.060529478 0.0090032294 0.40688694 0.806234 -0.42945284 0
-0.051354673 0.066699013 0.0060150297 -0.37199128 0.32302019 0.87021858 0
-0.04727114 0.067609169 0.0067878431 -0.32265052 0.5198167 0.79100388 0
-0.042492762 0.067893006 0.0075663691 0.0066605429 0.73293352 0.68026769 0
-0.037299994 0.06718266 0.0074143251 0.017870009 0.99819869 0.05727075 0
-0.032709289 0.06739822 0.0078013362 0.076596379 0.99066508 -0.11276422 0
-0.027636956 0.067512572 0.0078795757 -0.047668062 0.88166302 -0.46946582 0
-0.022359323 0.067758866 0.0078485245 -0.010018558 0.62571251 -0.77998942 0
-0.017562918 0.067693286 0.0079148635 0.050270788 0.59179235 -0.80452138 0
-0.012820402 0.067332685 0.0081164474 0.091294497 0.53195465 -0.84183705 0
-0.0076992735 0.067098677 0.0082473373 0.058442272 0.49080959 -0.8693046 0
-0.0025357977 0.067141749 0.0087301442 0.15246174 0.50614399 -0.84886616 0
0.0025372007 0.066494279 0.0089382259 0.053288147 0.37317106 -0.92623091 0
0.0072781383 0.066329785 0.0093408646 0.081267662 0.37819287 -0.92215288 0
0.011142218 0.06599661 0.0097650643 0.3089039 0.29892853 -0.90289545 0
-0.051059518 -0.040358432 0.010898265 -0.24235851 -0.94243485 0.23038852 0
-0.047675107 -0.040537894 0.010861638 0.011929657 -0.99924475 0.036981262 0
-0.042068735 -0.040348042 0.010982527 0.0050592739 -0.89774585 0.44048476 0
-0.03766267 -0.040377647 0.010763001 0.010296296 -0.94475204 0.32762423 0
-0.032319047 -0.040346444 0.010842846 -0.037861258 -0.90164542 0.43081555 0
-0.027304877 -0.040453043 0.011198835 -0.063743293 -0.95056373 0.30391705 0
-0.022449777 -0.040488601 0.011795044 -0.060304206 -0.95985138 0.27394995 0
-0.017463854 -0.040696707 0.011614625 -0.036820833 -0.92755306 0.37187314 0
-0.012620815 -0.040799428 0.011726107 -0.0190382 -0.93018341 0.36660117 0
-0.0074757831 -0.040859096 0.011955268 -0.03382694 -0.94167107 0.33483043 0
-0.0023393033 -0.041017246 0.011882271 -0.014630185 -0.92865801 0.37064853 0
0.0024002474 -0.04115998 0.011881107 -0.049549192 -0.93321556 0.35588437 0
0.007406869 -0.041112859 0.012125534 0.018923279 -0.89875227 0.4380483 0
0.012684764 -0.040860869 0.011696529 0.10358957 -0.88236791 0.45901632 0
0.016539292 -0.040870629 0.010878365 0.21641162 -0.67633027 0.70409042 0
-0.052082818 -0.037437283 0.012263061 -0.6870743 -0.29451752 0.66421998 0
-0.04748353 -0.038637329 0.013405968 -0.09675768 -0.75154233 0.65255046 0
-0.042567961 -0.038978986 0.013352446 -0.027070811 -0.8253541 0.56396621 0
-0.037642766 -0.039174061 0.013169833 0.010226053 -0.86598241 0.49996978 0
-0.032734677 -0.03922344 0.013407785 -0.042157635 -0.88144726 0.47039723 0
-0.028003551 -0.039308704 0.013804633 -0.071194038 -0.84046268 0.5371722 0
-0.022557663 -0.039286327 0.01407439 0.032606546 -0.77281791 0.6337896 0
-0.017832989 -0.039280538 0.014145632 -0.032386258 -0.75327867 0.65690356 0
-0.01252618 -0.03929846 0.014281935 -0.028621292 -0.772165 0.63477713 0
-0.0077552963 -0.039404321 0.014313364 -0.0071867849 -0.77684718 0.62964815 0
-0.0020549123 -0.0394486 0.014365963 -0.021284983 -0.76728618 0.64095163 0
0.0024536676 -0.039570455 0.014437667 -0.013809277 -0.75620645 0.65418738 0
0.0077514779 -0.039354399 0.014523304 0.022229949 -0.7232812 0.69019574 0
0.012523074 -0.039177414 0.014148626 0.14922577 -0.70461136 0.69372499 0
0.017478524 -0.037380669 0.012711039 0.68787688 -0.36939347 0.62479901 0
-0.052393563 -0.032602903 0.012788936 -0.92662692 -0.0090001859 0.37587413 0
0.01852352 -0.032523386 0.012760866 0.90053904 -0.047385812 0.43218499 0
-0.05232925 -0.027560558 0.012571203 -0.95855951 0.023441115 0.28392619 0
0.018678233 -0.027641291 0.012791094 0.90713787 -0.011603303 0.42067364 0
-0.05212874 -0.022588391 0.012704851 -0.94695395 0.016502252 0.32094526 0
0.018812133 -0.022308784 0.012731618 0.91386807 -0.0061361697 0.405965 0
-0.052166935 -0.017566666 0.012594634 -0.95105767 0.0051034656 0.30897123 0
0.018918136 -0.017503414 0.012847329 0.89461488 -0.046657242 0.44439554 0
-0.052132867 -0.012607582 0.012593723 -0.95516598 0.023713676 0.29511964 0
0.019314514 -0.012447688 0.012464861 0.94863069 -0.031175435 0.31484565 0
-0.052069411 -0.007573342 0.012565135 -0.97201717 0.021575017 0.23391697 0
0.019462282 -0.0076740552 0.01261117 0.95154387 -0.037276745 0.30524525 0
0.020062095 -0.0056763156 0.010412221 0.99537939 -0.067184731 0.068600431 0
-0.052018482 -0.0024110109 0.012677826 -0.96532536 0.010251789 0.26084849 0
0.019518267 -0.0028943957 0.013344388 0.93806046 -0.057756603 0.34162381 0
0.020093709 -0.0022124227 0.010944711 0.98677576 0.031362712 0.15902789 0
-0.051972698 0.0024238024 0.01252802 -0.97630215 -0.01029175 0.21616706 0
0.019679081 0.0019784607 0.013568815 0.94689912 -0.088784732 0.30902964 0
0.02014396 0.0025289985 0.011082033 0.99141234 -0.010412343 0.13035767 0
-0.051933255 0.0072161257 0.012592427 -0.97824073 -0.0060821394 0.20738383 0
0.01973143 0.0065640048 0.014596364 0.92780977 -0.11195983 0.3558569 0
0.020212732 0.0076792231 0.012165805 0.99481142 -0.059470974 0.082543038 0
-0.051887859 0.012549601 0.012481162 -0.98487365 0.0073805326 0.17311727 0
0.019893438 0.011263161 0.014753183 0.90561473 0.052418586 0.42084935 0
0.020402381 0.012464548 0.012342373 0.99586147 -0.02004721 0.088646069 0
-0.051821344 0.017208455 0.012597336 -0.98013449 0.020270148 0.19729556 0
0.020544458 0.017577114 0.012739883 0.99070829 -0.0084120221 0.13574362 0
-0.051803753 0.022539224 0.012646213 -0.98912579 0.020154733 0.14568438 0
0.020727232 0.022522846 0.012484469 0.9951973 -0.056543384 0.079907477 0
-0.051756009 0.027453991 0.01247601 -0.98790485 -0.020477287 0.153703 0
0.020917086 0.027479444 0.012606976 0.99779987 -0.033544406 0.057185769 0
-0.051629558 0.032562755 0.012719884 -0.9816432 0.025176451 0.18905787 0
0.021023072 0.03241922 0.01262095 0.99786872 -0.0084198797 0.064708248 0
-0.051583182 0.037612561 0.012361039 -0.98472935 0.013912006 0.17353572 0
0.021120589 0.037499629 0.012549362 0.99961179 0.01968237 0.019720886 0
-0.051448006 0.042511787 0.012511063 -0.9742527 0.025771061 0.22398128 0
0.021170763 0.04277391 0.012546561 0.99844015 -0.0025460583 0.055774167 0
-0.051104445 0.047719501 0.012522899 -0.95038289 0.091736794 0.29724851 0
-0.049887765 0.049160231 0.014940175 -0.5145005 0.018408433 0.85729241 0
0.021296367 0.047397092 0.01251499 0.999219 -0.03900218 0.0063390294 0
-0.050971217 0.052362945 0.012143895 -0.92949718 0.10786603 0.3527036 0
-0.049521483 0.053026654 0.014550161 -0.69347721 0.20422788 0.69092721 0
0.021512737 0.05254769 0.012675034 0.99446994 -0.02859899 -0.10105217 0
-0.050511524 0.057015453 0.011508835 -0.90738147 0.19975773 0.3698048 0
-0.04777991 0.057947941 0.013531453 -0.40520549 0.43195194 0.80574566 0
-0.042845748 0.05861932 0.014346376 -0.10120748 0.42638135 0.89886367 0
-0.037765056 0.059237707 0.014556637 -0.078624994 0.38763565 0.91845345 0
-0.032639474 0.059318695 0.014781203 -0.017463323 0.36701238 0.93005216 0
-0.027378945 0.05933607 0.014782223 0.041515466 0.34679562 0.93702149 0
-0.022651495 0.059339967 0.014812772 0.010395045 0.37622198 0.92647129 0
-0.017632172 0.05959503 0.01474888 0.028303362 0.56824797 0.82237047 0
-0.011835244 0.059613645 0.01470241 0.02615647 0.6591962 0.75151604 0
-0.0075845146 0.059668422 0.014800503 -0.044958524 0.63046712 0.77491289 0
-0.0026238912 0.059818488 0.014807207 0.0039910134 0.48551938 0.87421679 0
0.0025355592 0.059843391 0.014914015 0.014785019 0.63880789 0.76922423 0
0.019222381 0.059034947 0.010656939 0.64193439 0.42953157 -0.6351558 0
0.021472646 0.057480831 0.012901344 0.87485707 0.1530264 -0.45957389 0
-0.050205961 0.060073592 0.010328698 -0.77120382 0.52020866 0.36691624 0
-0.047068283 0.061429694 0.011427944 -0.26601708 0.6781866 0.68505311 0
-0.04250484 0.061821055 0.011959267 -0.091302678 0.73812222 0.66846049 0
-0.037466686 0.062097497 0.012260556 -0.083463475 0.67810756 0.73020816 0
-0.032540146 0.062411722 0.01241655 -0.047516298 0.63372022 0.77210152 0
-0.027458908 0.062408701 0.012479767 0.043799989 0.57334965 0.81813914 0
-0.022718715 0.062361144 0.012379619 -0.070421852 0.60163534 0.7956605 0
-0.017401177 0.062196955 0.012787097 -0.0066764071 0.59648442 0.80259693 0
-0.012438895 0.062389992 0.012493697 0.021714911 0.51599938 0.85631371 0
-0.0074434006 0.06225929 0.012781388 -0.054316305 0.56282008 0.82479292 0
-0.0025809149 0.062554322 0.012749904 -0.042392902 0.42290571 0.90518147 0
0.002527311 0.062416513 0.013185469 -0.065812662 0.37871203 0.9231717 0
0.0074965078 0.062516168 0.013657717 -0.15095007 0.40395713 0.90223759 0
0.01261943 0.063339815 0.012707653 -0.1448181 0.69129711 0.70790952 0
0.017538486 0.062525548 0.011950814 0.43914509 0.23104744 -0.86819857 0
0.021861661 0.062586315 0.01372712 0.54318386 -0.18123914 -0.81981927 0
-0.031653162 0.065455824 0.010158571 -0.097415894 0.45448703 0.88541043 0
-0.027265191 0.066379823 0.010357291 -0.10693892 0.34662461 0.9318881 0
-0.022321632 0.067006007 0.010588896 -0.062705517 0.18228674 0.98124391 0
-0.01748045 0.066671669 0.010765247 -0.048316684 0.23299658 0.97127652 0
-0.012377176 0.066989638 0.010971605 -0.062163632 0.32936087 0.9421556 0
-0.0075452649 0.067133866 0.011071439 0.0071797655 0.40296572 0.91518688 0
-0.0025017587 0.06722609 0.011367816 -0.1002256 0.50157505 0.85928881 0
0.0025414808 0.067144625 0.01168035 -0.016853141 0.66283476 0.74857599 0
0.0074538304 0.067153931 0.012084648 -0.12785591 0.72977078 0.67163044 0
0.012560007 0.067163236 0.012363097 -0.063517042 0.99207187 0.10843901 0
0.017170627 0.06706167 0.012860574 0.19244714 0.92967272 -0.3141222 0
0.021938754 0.066418126 0.013497752 0.52188176 0.51286387 -0.6816231 0
-0.05001213 -0.035290647 0.015010568 -0.51907003 -0.18444739 0.834593 0
-0.047211505 -0.036038369 0.015502273 -0.12612115 -0.38992831 0.91216737 0
-0.04249502 -0.036327511 0.01577948 -0.068056509 -0.45391452 0.8884424 0
-0.037377663 -0.036412034 0.015942287 -0.027510559 -0.44623974 0.89449054 0
-0.03277377 -0.036931545 0.015848914 -0.058917388 -0.46368006 0.88404161 0
-0.027595235 -0.036912713 0.016024794 -0.0092338901 -0.48305693 0.87554026 0
-0.02242228 -0.036908567 0.016106965 -0.018518735 -0.45734417 0.88909698 0
-0.017383724 -0.036985151 0.016063703 0.012468255 -0.42504033 0.90508854 0
-0.012540338 -0.037159506 0.01593723 -0.0019791869 -0.41723412 0.90879691 0
-0.0075351126 -0.037085388 0.016086306 -0.01572877 -0.41660696 0.90895057 0
-0.002455865 -0.037009683 0.016125262 0.0010525007 -0.40390223 0.9148016 0
0.0022053639 -0.037075099 0.016069766 0.02921211 -0.34684837 0.9374662 0
0.0073845247 -0.037045397 0.015937055 0.03248895 -0.31052268 0.9500106 0
0.012051702 -0.036763899 0.015676115 0.15977669 -0.31583765 0.93526357 0
0.015575706 -0.035914347 0.015161785 0.28050372 -0.287312 0.91584355 0
-0.050583314 -0.032199882 0.015343367 -0.49562952 -0.02633821 0.86813456 0
-0.047569767 -0.03247223 0.016164623 -0.16494335 -0.047891539 0.98513961 0
-0.042456515 -0.032379176 0.016650504 -0.04529272 -0.025454208 0.99864942 0
-0.037342448 -0.032193299 0.016779548 -0.011133363 -0.072656758 0.9972949 0
-0.032750033 -0.032471064 0.016922954 -0.0017617818 -0.077524185 0.99698889 0
-0.027447872 -0.032518636 0.016993321 -0.039166365 -0.074142605 0.99647826 0
-0.022393536 -0.032341655 0.017066889 -0.02082276 -0.12095603 0.99243945 0
-0.01750318 -0.032693058 0.01696329 0.033315741 -0.06215645 0.99751019 0
-0.012283366 -0.032324407 0.016982311 -0.0056394613 -0.070286311 0.99751097 0
-0.0073097507 -0.032552086 0.016981533 0.015570732 -0.073705807 0.99715841 0
-0.0025338356 -0.032594752 0.016895134 0.033489835 -0.080898851 0.99615955 0
0.0025547023 -0.032663461 0.016781129 0.05835053 -0.087050259 0.99449366 0
0.0075657675 -0.032354109 0.016514255 0.086265765 -0.029484533 0.99583578 0
0.012467018 -0.032538358 0.016142363 0.1408913 -0.023857677 0.98973757 0
0.015879147 -0.032347653 0.01540639 0.34277031 -0.060847532 0.93744659 0
-0.050577231 -0.027580449 0.015356628 -0.46922219 -0.0064878655 0.88305634 0
-0.047456488 -0.027400432 0.016167069 -0.18991421 0.041027773 0.98094308 0
-0.042520873 -0.027440902 0.016689198 -0.076247253 -0.0061790943 0.99706978 0
-0.037427824 -0.027477697 0.016929777 -0.033428781 0.0034052848 0.99943531 0
-0.032621473 -0.02759809 0.017094761 0.013510842 -0.0076789013 0.99987924 0
-0.027551582 -0.027602497 0.017154831 -0.041863505 -0.0069386582 0.99909931 0
-0.022369102 -0.027281506 0.017192144 0.0018562037 -0.010597807 0.99994218 0
-0.017628256 -0.027443631 0.017177491 0.008188013 -0.055325374 0.99843484 0
-0.012292314 -0.027422125 0.017171362 0.020015448 -0.033310786 0.99924463 0
-0.0074755028 -0.027440069 0.017135719 -0.00056484039 -0.040651266 0.99917322 0
-0.002599078 -0.027542423 0.017023126 0.014764669 -0.0027157376 0.99988729 0
0.0024014823 -0.027443772 0.016916892 0.067249522 -0.03480839 0.99712884 0
0.0074578431 -0.027545063 0.016556242 0.073162675 -0.01474843 0.99721098 0
0.012574991 -0.027450813 0.016116599 0.12223829 -0.009418088 0.99245614 0
0.016055323 -0.027513849 0.015385486 0.36615995 0.026695773 0.93016893 0
-0.050385185 -0.021995291 0.015292604 -0.43904263 -0.018801771 0.89826947 0
-0.047289934 -0.022493649 0.01613185 -0.18826051 0.017857006 0.98195684 0
-0.04269867 -0.02250012 0.016630711 -0.031186506 0.0069921031 0.99948913 0
-0.037470747 -0.022442913 0.016877227 -0.024110414 0.01054741 0.99965364 0
-0.032585591 -0.022545246 0.017065825 -0.013876793 0.057717409 0.99823654 0
-0.02744434 -0.022583671 0.01712996 -0.052722324 -0.014704157 0.99850094 0
-0.022278551 -0.022581724 0.017234521 -0.015810721 -0.023609933 0.99959618 0
-0.017587632 -0.02248103 0.017231472 0.0034730404 0.0023629481 0.99999118 0
-0.012464046 -0.022572849 0.017190414 0.014317998 -0.029073793 0.99947464 0
-0.0075470312 -0.022724066 0.017109839 0.013725072 0.013191358 0.99981874 0
-0.0022820623 -0.022421986 0.017014353 -0.0014241954 -0.020180348 0.99979538 0
0.0026533767 -0.022586975 0.016895415 0.033749823 0.035969414 0.99878281 0
0.0076884241 -0.022590337 0.016557332 0.063072778 0.0065981927 0.99798709 0
0.012658615 -0.022614472 0.016074365 0.13738403 -0.012775467 0.99043548 0
0.016016407 -0.022566006 0.015417665 0.35217005 -0.04453291 0.93487597 0
-0.050462581 -0.017062746 0.015251924 -0.45947897 0.0449722 0.88704938 0
-0.047439117 -0.01746699 0.016109135 -0.19302672 -0.067435279 0.97887337 0
-0.042330522 -0.017450668 0.016746329 -0.042108689 -0.040607691 0.99828744 0
-0.037387561 -0.017306846 0.016993072 -0.019590387 -0.0063212039 0.99978811 0
-0.032593377 -0.017484196 0.017097233 -0.0091148615 0.0047576311 0.99994713 0
-0.027544269 -0.017797045 0.017168518 -0.032939024 -0.0026385619 0.9994539 0
-0.022651589 -0.017466301 0.017294729 -0.00064039265 -0.015635388 0.99987757 0
-0.0175087 -0.01762725 0.017324675 -0.010373627 0.017212486 0.99979812 0
-0.012516755 -0.01762207 0.017294051 0.0041333749 0.0084954202 0.99995536 0
-0.0075684455 -0.017755736 0.017214268 0.033418469 -0.034805357 0.99883521 0
-0.0023223737 -0.017565193 0.017113041 -0.0095290495 -0.013637296 0.99986166 0
0.0023400143 -0.017584564 0.016974671 0.060077544 -0.069970734 0.99573827 0
0.0072862529 -0.017364234 0.016705522 0.083914481 -0.065153942 0.99434072 0
0.012559824 -0.017490517 0.016195172 0.14838144 -0.033766486 0.98835355 0
0.01612491 -0.017569629 0.01550642 0.33230612 -0.024913814 0.94284248 0
-0.05043935 -0.012261492 0.015303987 -0.4758656 -0.04175714 0.87852621 0
-0.047665853 -0.012642471 0.016248055 -0.2230297 -0.074247889 0.97197986 0
-0.042473625 -0.012503785 0.016798072 -0.097880505 -0.048610024 0.99401027 0
-0.037564926 -0.012815077 0.017068008 -0.03938717 -0.026107762 0.99888289 0
-0.032530986 -0.012658235 0.017145118 0.0030078904 -0.049474247 0.99877089 0
-0.027457982 -0.012467202 0.017210161 -0.037291858 -0.012131711 0.9992308 0
-0.022546927 -0.012640111 0.017306276 -0.012607204 0.010677132 0.99986356 0
-0.017691599 -0.012458128 0.017342037 -0.019291008 -0.024275536 0.99951917 0
-0.012352035 -0.012479911 0.017334968 0.0026368732 0.026252501 0.99965185 0
-0.0074204742 -0.012340966 0.017280273 0.0043145814 -0.038109548 0.9992643 0
-0.002402226 -0.01255603 0.017225241 0.00445126 0.011604083 0.99992275 0
0.0022808905 -0.012374886 0.017070509 0.051558588 -0.018267646 0.99850285 0
0.0075015319 -0.012673278 0.016822364 0.071703523 -0.069183104 0.99502385 0
0.012648352 -0.012364938 0.016457774 0.08954829 -0.062689416 0.99400753 0
0.016417889 -0.012368645 0.015690966 0.38093528 -0.059137475 0.92270857 0
-0.050419848 -0.0073944675 0.015473352 -0.59986997 -0.0093709733 0.80004263 0
-0.047454093 -0.0074451272 0.016464891 -0.19191685 -0.044767104 0.9803896 0
-0.042515866 -0.0076072719 0.016958632 -0.061006144 -0.013044869 0.99805218 0
-0.037393793 -0.0076023173 0.017179882 -0.035462849 -0.029155204 0.99894565 0
-0.032538988 -0.0074436087 0.0172485 0.00048393241 -0.0045845872 0.99998933 0
-0.027507175 -0.0073639587 0.017317548 -0.042904712 -0.034893643 0.99846971 0
-0.02258393 -0.0075896676 0.017390136 -0.006530554 -0.088226363 0.99607897 0
-0.017398408 -0.0076061762 0.017434195 0.001847858 0.049372252 0.99877876 0
-0.012547878 -0.0073864493 0.017442083 -0.024117256 -0.0083527016 0.9996742 0
-0.0075147091 -0.0074886614 0.017379956 0.01833367 -0.017472208 0.99967921 0
-0.0028445404 -0.0074620391 0.017317947 0.028892694 -0.039703738 0.99879366 0
0.0027023016 -0.0073995576 0.017208403 0.025402363 -0.031712264 0.99917418 0
0.0076586837 -0.0076424545 0.017033661 0.031602658 -0.026038866 0.99916136 0
0.012469686 -0.0076727369 0.016722435 0.09716814 -0.034363441 0.99467456 0
0.016844139 -0.0077685891 0.015813155 0.43518764 -0.064877614 0.89799923 0
-0.05059921 -0.0020756624 0.015489 -0.61886626 -0.074826546 0.78192431 0
-0.047601033 -0.0025056629 0.016626569 -0.21956746 -0.048700314 0.97438103 0
-0.042498853 -0.0025132757 0.017165875 -0.041871175 -0.010747903 0.99906528 0
-0.037529279 -0.0025680352 0.017275078 -0.015965125 -0.008157921 0.99983931 0
-0.032576952 -0.0025142541 0.017370187 -0.024000889 -0.027707111 0.99932802 0
-0.027551616 -0.0024034271 0.017411398 -0.025001675 -0.0087794755 0.99964887 0
-0.02253099 -0.0023754984 0.017468126 0.0063284249 -0.044388808 0.99899429 0
-0.017465619 -0.0024057543 0.017501477 -0.017627174 -0.049073473 0.99863958 0
-0.012681449 -0.00246886 0.017513912 0.0080729611 -0.012417259 0.99989033 0
-0.0074647609 -0.0025370035 0.01746138 -0.017566962 -0.0030198109 0.99984115 0
-0.0026110981 -0.0026723011 0.01742653 0.00057599327 -0.0016592664 0.99999845 0
0.0023233937 -0.0025304456 0.017369568 0.01212367 -0.03270283 0.99939162 0
0.0075626322 -0.0027039403 0.017225528 0.060390867 -0.030388786 0.99771208 0
0.01225518 -0.0025972868 0.017071916 0.06729155 -0.077230968 0.99473971 0
0.016903326 -0.0023609099 0.01613782 0.43019125 -0.073367156 0.89975148 0
-0.05058147 0.0025429742 0.015630422 -0.64696938 -0.023933712 0.76214033 0
-0.047460772 0.0025790795 0.016842425 -0.20104641 -0.048716143 0.97836965 0
-0.042368524 0.0024886883 0.017273353 -0.0088261059 -0.079206891 0.99681914 0
-0.037424181 0.0024053142 0.017375868 -0.02379729 -0.035061475 0.99910176 0
-0.032210857 0.0026340908 0.017439969 0.015174702 -0.051099356 0.99857831 0
-0.027122702 0.0024257798 0.017508319 -0.049298953 -0.043942451 0.99781698 0
-0.022405161 0.0025189703 0.017593626 -0.015748506 0.00053654035 0.99987584 0
-0.017410716 0.0026309842 0.017584005 0.032958459 0.039064124 0.99869299 0
-0.012524841 0.0025446427 0.017600998 -0.021234605 -0.037821084 0.99905896 0
-0.0077236854 0.0024648099 0.017627692 -0.019471243 -0.050211221 0.99854881 0
-0.0026403151 0.0023107408 0.017549112 -0.014091461 -0.047686826 0.99876291 0
0.002633061 0.0025679041 0.01757298 0.033966944 -0.017522095 0.99926937 0
0.007548511 0.0025485025 0.017485566 0.0098448861 -0.037455074 0.99924988 0
0.012387644 0.0024409527 0.017323209 0.026972048 -0.0073035154 0.99960953 0
0.017412134 0.0025375455 0.016283965 0.50220811 -0.093217894 0.85970771 0
-0.050703906 0.0076041948 0.015502024 -0.68677002 0.0096529974 0.72681069 0
-0.047594782 0.0076714321 0.01690566 -0.21759923 -0.052014731 0.97465128 0
-0.042668305 0.0076654642 0.017419253 -0.017381269 -0.036145587 0.9991954 0
-0.037631895 0.007526618 0.017506363 0.0023763145 -0.012884885 0.99991417 0
-0.032390255 0.0075778775 0.017585717 0.0068052127 -0.022731788 0.99971849 0
-0.027632495 0.0075056166 0.017592404 0.011863076 -0.0083288159 0.99989498 0
-0.022337606 0.0074254298 0.017649028 0.032922193 0.0071362373 0.9994325 0
-0.017472768 0.007328447 0.017685961 0.015493451 -0.046447493 0.99880058 0
-0.0125165 0.0074192844 0.017733391 0.0019439082 -0.011587074 0.99993104 0
-0.0074789054 0.0075038262 0.017725002 0.005549788 -0.018440379 0.99981457 0
-0.0023942397 0.0075573227 0.017683847 0.016187752 -0.020711279 0.99965447 0
0.0026724071 0.007301135 0.017714249 -0.0056246123 -0.010520384 0.99992883 0
0.0075453282 0.0073938123 0.017671004 -0.0041749449 -0.044370633 0.99900639 0
0.012615524 0.0078073069 0.0175595 0.050496444 -0.025393259 0.99840134 0
0.017598664 0.0074157133 0.016611941 0.47586003 -0.099655077 0.87385708 0
-0.050626356 0.01279206 0.015571051 -0.70348883 -0.041015167 0.70952183 0
-0.047720011 0.012504908 0.016981384 -0.24766955 0.010208276 0.96879071 0
-0.042530335 0.012448066 0.01756962 -0.028273124 -0.00383806 0.9995929 0
-0.037660904 0.012386011 0.017598141 0.013161142 -0.0077438368 0.99988341 0
-0.032368254 0.012448885 0.017631613 0.019125782 -0.0064412933 0.99979627 0
-0.027388707 0.012573422 0.017708758 -0.042069234 -0.00017711571 0.99911469 0
-0.02241814 0.012369273 0.017729238 -0.012394745 -0.098977022 0.99501252 0
-0.017478308 0.012416486 0.017768878 0.0098138526 -0.041487873 0.99909079 0
-0.01260784 0.012622259 0.017796831 0.0062242006 -0.03644466 0.99931628 0
-0.007530713 0.012466555 0.017820278 -0.0023355607 -0.039494686 0.99921709 0
-0.0024493316 0.012265733 0.017846363 0.0050765635 -0.032248378 0.99946702 0
0.0024061943 0.012663148 0.017892169 -0.018467393 -0.040593382 0.99900508 0
0.0076337773 0.012544069 0.017898623 0.0099389097 -0.072190627 0.99734128 0
0.012263126 0.012565116 0.01783851 0.035575923 -0.056751836 0.99775422 0
0.017746001 0.012454571 0.016869064 0.47788101 -0.023091067 0.87812102 0
0.020118644 0.01429347 0.01527266 0.88026941 0.0077477214 0.47441092 0
-0.050664276 0.01777773 0.015692975 -0.73478913 -0.032004848 0.67754012 0
-0.047440846 0.017611763 0.017149853 -0.24883007 -0.014967111 0.96843153 0
-0.042405207 0.017486 0.017601283 -0.0089880312 -0.020387569 0.99975175 0
-0.037590582 0.017744349 0.017653564 -0.037557732 -0.0012775437 0.99929368 0
-0.032460462 0.017700387 0.017714292 -0.025077028 0.013595718 0.99959308 0
-0.02735121 0.017458854 0.01773642 -0.013428917 0.021368906 0.99968147 0
-0.022366503 0.017602326 0.017797276 -0.030238131 -0.016539274 0.99940592 0
-0.017600963 0.017575594 0.017855152 0.013290577 -0.050065208 0.99865752 0
-0.012613095 0.017329253 0.017870344 -0.0039766212 -0.030755226 0.99951911 0
-0.0075262589 0.017333275 0.017947868 0.012824345 0.018457644 0.9997474 0
-0.0024094223 0.017424038 0.018030552 -0.025382627 -0.063483983 0.99765998 0
0.0025207391 0.017420677 0.018068796 0.0063515375 -0.020038122 0.99977905 0
0.0074980627 0.017547959 0.018096505 0.011740116 -0.028174501 0.99953413 0
0.012657588 0.017480494 0.018049086 0.051285155 -0.042518605 0.99777853 0
0.017823903 0.017484188 0.017091336 0.46344757 -0.034091379 0.88546836 0
0.020167854 0.017776575 0.015237985 0.9045825 -0.057507522 0.42240191 0
-0.050751645 0.02246042 0.015691966 -0.78067821 0.034051243 0.6240049 0
-0.047525838 0.022490643 0.017179843 -0.23065235 -0.0079992441 0.97300333 0
-0.042362638 0.022461552 0.017643537 -0.02374007 -0.021951443 0.99947721 0
-0.037528843 0.022633156 0.017680505 -0.045715217 0.026702633 0.99859762 0
-0.032563441 0.022420028 0.017716322 0.032187995 -0.026787426 0.9991228 0
-0.027462397 0.022724822 0.017775277 -0.0086196205 -0.039136633 0.99919671 0
-0.022483816 0.022576418 0.017855972 -0.010065061 0.013291482 0.99986106 0
-0.017551526 0.022424744 0.017944628 -0.014187674 0.0059071239 0.99988186 0
-0.012673441 0.022400664 0.017998006 -0.032361731 -0.042476632 0.99857318 0
-0.007592211 0.022626281 0.018064503 -0.0067555071 -0.014592628 0.99987072 0
-0.002398055 0.022886692 0.018100385 -0.018948495 -0.019189367 0.99963623 0
0.0024341666 0.02244362 0.018214609 -0.012109555 -0.018493636 0.99975568 0
0.0071531963 0.022430252 0.01822456 0.020450031 -0.032278653 0.99926966 0
0.012421251 0.022677181 0.018269897 0.00087626529 -0.047900505 0.99885178 0
0.017746817 0.022478966 0.017418487 0.41393539 -0.091022655 0.90574402 0
0.020371737 0.022994017 0.015521936 0.9053604 -0.069403134 0.41893402 0
-0.050579015 0.027845325 0.015725011 -0.74272424 -0.0042032618 0.66958416 0
-0.047503434 0.027675945 0.017111702 -0.26066726 -0.012289592 0.96535045 0
-0.042439304 0.02749878 0.017607508 -0.0010833212 -0.0028273698 0.99999541 0
-0.037472084 0.027452111 0.017690597 -0.019666078 0.023340896 0.99953419 0
-0.032505397 0.027558556 0.017742414 -0.0053381221 -0.015226492 0.99986982 0
-0.027424186 0.027467661 0.017770443 -0.0072630895 -0.017234903 0.99982506 0
-0.022322532 0.027550953 0.017902324 -0.028476672 0.02129516 0.99936759 0
-0.017521482 0.027460182 0.017964296 -0.01203405 -0.021531051 0.99969578 0
-0.012285752 0.027680565 0.018044427 -0.015473686 0.0054674018 0.99986529 0
-0.0075081354 0.02745619 0.018128039 -0.046642311 0.0033620421 0.99890602 0
-0.0025943078 0.027564367 0.018203653 -0.0097735077 -0.0028955846 0.99994808 0
0.0026455526 0.027531506 0.018271884 -0.0054642186 -0.023496168 0.99970901 0
0.0074439002 0.02740798 0.018372113 -0.024988277 -0.037565708 0.99898165 0
0.012374519 0.027522316 0.018375045 0.0021444261 -0.034336329 0.99940801 0
0.017734747 0.027538277 0.017737309 0.31203386 -0.031714 0.94954145 0
0.020367259 0.027696457 0.015956542 0.9164899 -0.049383111 0.39699802 0
-0.050579388 0.032414086 0.015649104 -0.75179136 0.024256192 0.65895474 0
-0.047523785 0.032495636 0.017040258 -0.20770006 0.0071050329 0.97816676 0
-0.042359173 0.032776754 0.01751391 -0.042293731 0.00099432061 0.99910474 0
-0.037573334 0.03263478 0.017566888 -0.045928944 0.035511624 0.99831331 0
-0.03258051 0.032781165 0.017673083 -0.011912361 0.01747442 0.99977636 0
-0.027438177 0.032599311 0.017808797 -0.032457024 -0.020879764 0.999255 0
-0.02257999 0.032506552 0.017857289 -0.019761175 0.0047228793 0.99979359 0
-0.017559642 0.032407258 0.017954044 0.014045318 0.027830599 0.99951398 0
-0.012508789 0.032629825 0.018051289 -0.0087948823 0.01893702 0.99978197 0
-0.0073488248 0.032448482 0.018160854 -0.014541001 -0.0013617199 0.99989337 0
-0.0025951101 0.032341622 0.018260544 -0.0041871862 0.0025048589 0.99998808 0
0.0024395122 0.032661963 0.018351752 -0.033756778 0.029636838 0.9989906 0
0.0075185611 0.032294285 0.018452469 -0.0058236574 -0.023718575 0.99970168 0
0.0126109 0.032586701 0.018514683 0.028047608 -0.058805935 0.99787539 0
0.017701682 0.032242972 0.017932205 0.2975609 -0.045908913 0.95359838 0
0.020585097 0.032723442 0.015930608 0.90567273 -0.057766695 0.42002371 0
-0.050476328 0.037176482 0.015573527 -0.81015563 0.035071634 0.58516479 0
-0.04756888 0.03751722 0.016822996 -0.24704015 0.060191557 0.967134 0
-0.042446095 0.037783768 0.017343884 -0.024800524 -0.011174728 0.99962997 0
-0.037454139 0.037592705 0.017448647 -0.035087179 -0.0072489358 0.99935794 0
-0.032662585 0.037616327 0.017538026 -0.039094958 0.051092245 0.99792844 0
-0.027515741 0.037575167 0.017670721 -0.029406706 0.016519388 0.99943101 0
-0.022404572 0.037297599 0.017808292 -0.021967024 0.047767442 0.99861687 0
-0.017457664 0.037356947 0.017892923 0.0077977893 0.050202761 0.99870867 0
-0.012670561 0.037555505 0.017984571 -0.042278294 0.017786292 0.9989475 0
-0.0075020799 0.037595365 0.018147204 -0.044049934 0.022676012 0.99877197 0
-0.0026127929 0.037609253 0.01822054 -0.0060394332 0.0091641918 0.9999398 0
0.0025544188 0.037499376 0.018408602 -0.050388653 0.0055850921 0.99871409 0
0.0076412149 0.037467692 0.018582104 -0.013476444 -0.015597647 0.99978757 0
0.012451577 0.037472211 0.018620435 -0.0093758721 -0.014704118 0.99984789 0
0.017842134 0.037454788 0.018085295 0.32187819 -0.051369529 0.94538653 0
0.020589413 0.037490122 0.016248522 0.88302535 -0.079143576 0.46260405 0
-0.050346628 0.042461172 0.015412544 -0.71847653 0.024985079 0.69510227 0
-0.047667298 0.042760659 0.016563421 -0.24654992 0.057970289 0.96739471 0
-0.042557262 0.042684399 0.017128987 0.0022411982 0.045448851 0.99896419 0
-0.037215054 0.042488851 0.017240217 -0.035168592 0.089354187 0.99537879 0
-0.032540105 0.042596683 0.017359015 -0.024856789 0.039507348 0.99891013 0
-0.027632205 0.042485174 0.01743399 -0.020133026 0.068420842 0.99745339 0
-0.022437779 0.042588249 0.017595259 -0.033241112 0.018766832 0.99927115 0
-0.017491877 0.042351354 0.017735712 -0.019672554 0.016566385 0.99966925 0
-0.012736237 0.042471867 0.017845776 -0.037860144 0.07272426 0.99663323 0
-0.007335457 0.04266062 0.018066546 -0.036338285 0.023003489 0.99907476 0
-0.0024475059 0.042536724 0.018185968 -0.0090108905 0.0011666197 0.99995875 0
0.0024558941 0.042458154 0.018445125 -0.033092458 -0.023761246 0.99916983 0
0.0075656702 0.042318989 0.018604891 -0.024773885 -0.0055575571 0.9996776 0
0.012468521 0.042554963 0.01872696 -0.0052412674 -0.034045774 0.99940652 0
0.017587587 0.042503182 0.018303057 0.27292481 -0.094980106 0.95733529 0
0.02065417 0.042617697 0.016455783 0.86575007 -0.03157739 0.49947941 0
-0.050218988 0.046343215 0.015254293 -0.83888412 0.12051959 0.53079987 0
-0.047541559 0.047550891 0.016176693 -0.26139104 0.10201459 0.95982695 0
-0.042718962 0.047645036 0.016734878 -0.0496719 0.08349631 0.99526936 0
-0.037428509 0.047567651 0.016895192 -0.068820223 0.080802962 0.99435133 0
-0.032596838 0.047541536 0.017022911 -0.014478663 0.096368842 0.99524033 0
-0.027401073 0.04764571 0.017157545 -0.031592902 0.07435371 0.9967314 0
-0.022468686 0.047569044 0.017283758 -0.0055918852 0.068467058 0.99763769 0
-0.017496523 0.047558267 0.017445529 -0.023648195 0.069487333 0.99730253 0
-0.012631345 0.047607031 0.017615708 -0.03287233 0.067501225 0.99717748 0
-0.007476998 0.047779176 0.01785391 -0.030709602 0.073733062 0.99680507 0
-0.0025375281 0.047442488 0.018069528 -0.080917411 0.068583153 0.99435842 0
0.0026580715 0.047516674 0.018411268 -0.058187466 0.044265103 0.99732381 0
0.0074736658 0.047502153 0.018663622 -0.013322642 0.007699444 0.99988163 0
0.012308775 0.047306314 0.01878407 -0.043923829 -0.0024402824 0.9990319 0
0.017666576 0.047591984 0.018601824 0.18304583 -0.041324057 0.98223549 0
0.02083887 0.047647495 0.01654914 0.90477127 -0.072156176 0.41974071 0
