# .PCD v0.7 - Point Cloud Data file format
VERSION 0.7
FIELDS x y z
SIZE 4 4 4
TYPE F F F
COUNT 1 1 1
WIDTH 986
HEIGHT 1
VIEWPOINT 0 0 0 1 0 0 0
POINTS 986
DATA ascii
0.053771064 -0.060403146 0.0051181982
0.0062048831 -0.050672222 0.0050618611
0.015131651 -0.052315935 0.004093885
0.025168508 -0.054030284 0.0035957934
0.035027709 -0.055462338 0.0031683189
0.045109041 -0.056776185 0.0027444961
0.056425702 -0.055650774 0.0024418021
0.060353164 -0.051798712 0.0066654636
-0.023579005 -0.043085646 0.0041409833
-0.0150668 -0.044952646 0.0031161048
-0.0049091084 -0.046458803 0.0031535805
0.0042218738 -0.045867231 0.0011956329
0.015187545 -0.044862833 0.00033071593
0.024976492 -0.044952404 0.00035206531
0.035006393 -0.045122419 0.00039466459
0.044984132 -0.044988025 0.00040707336
0.055047363 -0.044994373 0.00041554717
0.061727971 -0.04492015 0.0042679342
-0.024529237 -0.034958754 0.003101497
-0.015113115 -0.034930281 0.00038469833
-0.005239693 -0.035085518 0.00044120345
0.0049591395 -0.034807336 0.00047541253
0.015077883 -0.0348779 0.00050238176
0.025109889 -0.034955192 0.00051663554
0.035002496 -0.034983832 0.00049341162
0.044861197 -0.034811109 0.00050033047
0.055036813 -0.034952104 0.00047351644
0.063442983 -0.034818918 0.0037357986
-0.023366146 -0.024912585 0.0039471849
-0.015078844 -0.025269335 0.00053208647
-0.0047527906 -0.024909174 0.00055374677
0.0050253686 -0.024989679 0.00057468063
0.0149849 -0.025160518 0.00058831833
0.025174141 -0.024958672 0.00058415835
0.035048746 -0.024936086 0.00056278316
0.044849027 -0.024792602 0.00052102096
0.055013757 -0.024961039 0.00046454265
0.064903937 -0.024824809 0.0032236753
-0.021974493 -0.015191303 0.0046036392
-0.015139021 -0.015115281 0.00056789164
-0.0050179474 -0.014943011 0.00059027207
0.0050832531 -0.015018583 0.00061164785
0.014996485 -0.015039079 0.00059955841
0.024983531 -0.015074166 0.00056499545
0.035128355 -0.015132216 0.00051901338
0.045227263 -0.014993191 0.00046152296
0.055053055 -0.014904763 0.00040822139
0.066378891 -0.014900883 0.0030281139
-0.02056567 -0.0069829612 0.0052598491
-0.016247226 -0.0041373968 0.0017778915
-0.0049887379 -0.0048529175 0.00054105103
0.0050088619 -0.0050678183 0.00054597942
0.015101306 -0.0051181247 0.00052639976
0.024610074 -0.0049600666 0.00049306796
0.034906931 -0.0048604705 0.00043249145
0.045098003 -0.0049813045 0.00037045593
0.055240367 -0.0051687723 0.00031752934
0.0658115 -0.0056959027 0.0012051496
0.070766166 -0.0034910641 0.0046414696
-0.016299115 0.0049665286 0.0029666501
-0.0049382607 0.0051135137 0.00043047123
0.0049764509 0.0051464471 0.0004333329
0.015294568 0.0047673858 0.00039522213
0.024801409 0.0048931749 0.00035442915
0.035232533 0.0050479304 0.00030839036
0.044924617 0.0048391134 0.00027213199
0.055003073 0.0050650197 0.00023507565
0.064818799 0.0050672009 0.00018209408
0.072404876 0.0051576025 0.0041439771
-0.014973489 0.014984761 0.0034103047
-0.0047806473 0.014951409 0.00031172516
0.0049894052 0.014883795 0.00029593764
0.015068078 0.014865215 0.00026790737
0.025193313 0.015121579 0.00024537844
0.034858756 0.014758653 0.00022550777
0.044848897 0.014897975 0.00020468765
0.054976869 0.015032608 0.00019012328
0.064824581 0.015012577 0.00018338583
0.074067444 0.015117134 0.0037664308
-0.013127855 0.024813099 0.003931249
-0.0049706814 0.025043171 0.00031587083
0.0051040421 0.025013452 0.0002617123
0.015057195 0.025256392 0.00025364012
0.024882697 0.025004402 0.00025993559
0.035089452 0.024975613 0.0002560704
0.045772161 0.026543759 0.0020949841
0.054923184 0.025885621 0.0031377329
0.064877659 0.024317738 0.0033488716
0.073110916 0.022543266 0.0043383138
-0.011173768 0.034758963 0.0046817753
-0.0051615513 0.035282731 0.00042201998
0.0051265624 0.036931153 0.0028951024
0.014928624 0.035295412 0.0030715556
0.024840672 0.033631321 0.0037391665
0.03482886 0.031805586 0.0043823728
0.041969538 0.030384991 0.0049149189
-0.0051225559 0.040837407 0.0047092601
0.00037981835 0.040111758 0.0050158878
0.053546872 -0.060449045 0.015006005
0.0057699308 -0.050846647 0.015079927
0.014993727 -0.052798558 0.014965815
0.025018983 -0.054901652 0.01522558
0.035157017 -0.05695039 0.014908332
0.044990707 -0.058961812 0.015064451
0.058566004 -0.057506047 0.014850773
0.060544431 -0.05212447 0.014939774
-0.024016304 -0.043443352 0.014971984
-0.015102073 -0.046478566 0.015058949
-0.0050302516 -0.048576042 0.015018479
0.00090738182 -0.049824815 0.014838222
0.061856907 -0.04530498 0.015140038
-0.025858739 -0.034901146 0.015082474
0.063962363 -0.034886986 0.014947969
-0.024111805 -0.025126243 0.015152252
0.066063859 -0.024898846 0.01501321
-0.022213234 -0.014936453 0.015123283
0.068214253 -0.014888374 0.015032673
-0.020626284 -0.0066789421 0.015102664
-0.019677214 -0.0017461671 0.015035374
0.069669396 -0.0082924934 0.015094845
0.07073988 -0.003464509 0.01479495
-0.018370837 0.0047636167 0.014839863
0.072592519 0.0049411878 0.014852792
-0.016088836 0.014981981 0.014834814
0.074758515 0.01511884 0.014903003
-0.013773014 0.024954218 0.014770526
0.046971485 0.029298298 0.015075828
0.055083841 0.02743043 0.015100958
0.064919867 0.025184171 0.014807776
0.073272943 0.02263312 0.014888006
-0.011353886 0.034719795 0.014808364
-0.0095198816 0.039695214 0.015855188
0.0050226063 0.038806122 0.014979053
0.015056025 0.036481496 0.015126115
0.024847617 0.034296531 0.015080806
0.03504857 0.031963341 0.014912235
0.041918606 0.030415414 0.014959523
-0.0049437378 0.040823616 0.014937174
0.0002429211 0.040056676 0.012401511
0.049896851 -0.060014416 0.02576058
0.05371096 -0.060497642 0.024927108
0.0056838528 -0.050879665 0.025518319
0.014976843 -0.052863408 0.024976816
0.025090236 -0.054987647 0.024811601
0.034989405 -0.056960739 0.025087737
0.045011595 -0.05902027 0.025035705
0.05874313 -0.057396185 0.024936449
0.06047323 -0.052098259 0.024994841
-0.023946393 -0.043669958 0.024716171
-0.014992908 -0.046568647 0.025173558
-0.0050070575 -0.048638832 0.024841772
0.00070280209 -0.049832284 0.02513461
0.061863706 -0.045032378 0.024959847
-0.02599841 -0.035213131 0.025098948
0.063907161 -0.034792505 0.025051074
-0.024153827 -0.024799149 0.024979737
0.065935247 -0.025088739 0.025140414
-0.022302661 -0.014894594 0.02479542
0.068076991 -0.015164273 0.024937062
-0.020662241 -0.0063654799 0.025056476
-0.019708363 -0.0014298662 0.0250095
0.069583088 -0.008322672 0.025344383
0.070720971 -0.0031802354 0.025045963
-0.01842753 0.0049554058 0.025078127
0.072511859 0.004974246 0.025001675
-0.016176501 0.01497564 0.0250843
0.074617736 0.014979273 0.024958162
-0.013820556 0.025045741 0.025041448
0.046883423 0.029307703 0.025002487
0.055129547 0.027405014 0.02500792
0.065059729 0.025171911 0.025002986
0.073127739 0.022749629 0.025236733
-0.011370207 0.034721233 0.0250786
-0.0076501733 0.039719284 0.024725227
0.0051499675 0.038729027 0.024922926
0.015067927 0.036487974 0.025156716
0.025152331 0.034278378 0.02506792
0.035113811 0.031973913 0.024978036
0.041895472 0.030420447 0.025250208
-0.0050450955 0.040850833 0.024814913
0.049680408 -0.060051296 0.035639465
0.053205326 -0.060544655 0.03512343
0.0057336204 -0.050926939 0.034775086
0.015015959 -0.05289495 0.035052188
0.024925807 -0.054962426 0.035053719
0.035115819 -0.057038631 0.03520054
0.044684425 -0.059012726 0.034984693
0.058837838 -0.057061471 0.035111796
0.060419746 -0.051949497 0.034900151
-0.024167987 -0.043593597 0.03504806
-0.015073851 -0.046595652 0.035031926
-0.0049291439 -0.048710529 0.03505788
0.00063339924 -0.049866844 0.035028055
0.061796341 -0.045062907 0.034996077
-0.026022216 -0.034765638 0.035002165
0.063826822 -0.034948833 0.035142541
-0.024346936 -0.025315518 0.035131253
0.065879703 -0.025080387 0.035025053
-0.022394519 -0.0148408 0.034951691
0.068107091 -0.014760041 0.034885436
-0.020693816 -0.0060188025 0.034806911
-0.019758938 -0.0013051867 0.034324627
0.069588169 -0.0080329422 0.03519012
0.070692092 -0.003005133 0.035029467
-0.018500745 0.0050229859 0.034910403
0.072439134 0.0049874512 0.034832925
-0.01630516 0.014927393 0.035012733
0.074485719 0.015008042 0.034843259
-0.013906714 0.025059702 0.035205662
0.046731066 0.029311277 0.03515055
0.054856002 0.027452337 0.035159063
0.065167464 0.025147364 0.034833912
0.073188975 0.022672527 0.035023183
-0.011498586 0.034703124 0.035039604
-0.0089672571 0.039684825 0.033690583
0.0049137692 0.038843501 0.035121579
0.015048943 0.036557347 0.034927346
0.025276791 0.034255665 0.035068676
0.035147861 0.031969983 0.034894399
0.04180488 0.030428695 0.035210889
-0.004843188 0.040769592 0.035062462
0.049589761 -0.060079586 0.044519234
0.05337045 -0.060592592 0.044880472
0.0055211587 -0.05089784 0.045177937
0.014999595 -0.052891489 0.044951834
0.025160808 -0.055031262 0.045071613
0.035028733 -0.057074632 0.045049619
0.044654887 -0.059059747 0.044935331
0.058823366 -0.056854609 0.044989023
0.060365204 -0.051569164 0.044595871
-0.024210315 -0.043608382 0.044973493
-0.014992273 -0.046646319 0.045171622
-0.0050911163 -0.048701279 0.045156009
0.00060329051 -0.049876954 0.04535456
0.061766345 -0.044920612 0.04511261
-0.026134687 -0.034906294 0.0448323
0.06379205 -0.034921873 0.044998605
-0.024404947 -0.025170134 0.045139197
0.065820903 -0.025161162 0.04507228
-0.022498978 -0.014961139 0.045106892
0.067983545 -0.015136138 0.044817667
-0.020780956 -0.005978677 0.044915184
-0.019787274 -0.00098454743 0.045246765
0.069527425 -0.0081110336 0.044777717
0.07064674 -0.0029639048 0.044866998
-0.018568436 0.0051140976 0.0452656
0.072393559 0.0050797639 0.044996638
-0.016430544 0.014891298 0.0451301
0.074364491 0.015067494 0.044871286
-0.014024438 0.025051225 0.044961862
0.046657421 0.029294049 0.045231845
0.05501458 0.027397973 0.045094557
0.064839862 0.02519214 0.044751439
0.073156051 0.022654921 0.045027278
-0.011579357 0.034902193 0.044974636
-0.0091183791 0.039803516 0.044838481
0.0049028709 0.03887815 0.04492826
0.015014812 0.036602095 0.044974543
0.024805721 0.034351543 0.045112051
0.035056517 0.031975944 0.045145061
0.041792255 0.030400794 0.045063097
-0.0050407667 0.040765218 0.045086592
0.049540643 -0.060124125 0.05507376
0.05350659 -0.060624469 0.055134192
0.0055754781 -0.050922696 0.055074174
0.0150494 -0.052956928 0.054832123
0.024805959 -0.055024218 0.054993395
0.034926891 -0.057104789 0.05507718
0.044435747 -0.059062436 0.055065814
0.05872637 -0.056725804 0.055144127
0.060311746 -0.05145327 0.055508036
-0.024309885 -0.043747574 0.055035848
-0.015017633 -0.046669744 0.055087689
-0.0051301252 -0.048705325 0.054884113
0.00049860316 -0.049862441 0.054913465
0.061690729 -0.045023456 0.054981016
-0.02625468 -0.034919374 0.055116087
0.063762866 -0.034857765 0.054909121
-0.024451206 -0.024896083 0.054933786
0.065803237 -0.025066271 0.054944932
-0.022530394 -0.014851203 0.055231187
0.067977719 -0.014995457 0.054800883
-0.020809853 -0.0059975376 0.055181399
-0.019814271 -0.00090292533 0.054633237
0.069526345 -0.0078759408 0.054880638
0.070595369 -0.0029439004 0.054694798
-0.0186361 0.005118215 0.054959655
0.072321996 0.0050512529 0.054983333
-0.016469549 0.015209867 0.054936737
0.074308172 0.014919289 0.054950833
-0.014243789 0.02470913 0.054916363
0.046627916 0.029268272 0.055295493
0.055011246 0.027343234 0.055018451
0.064999215 0.025101574 0.055050924
0.073099792 0.022681873 0.054885171
-0.011628859 0.035121039 0.054795019
-0.0086312974 0.039880015 0.05466035
0.0050195856 0.038852204 0.054925285
0.014890407 0.036607329 0.054852046
0.024925278 0.034304053 0.055134151
0.034909934 0.031983193 0.05474218
0.041617651 0.030407529 0.0551349
-0.0050282939 0.040800609 0.054871399
0.049314357 -0.060132656 0.065758258
0.053375423 -0.060672224 0.065176196
0.005535237 -0.050960943 0.065039031
0.014949162 -0.053026352 0.064956792
0.025148897 -0.055155892 0.064983174
0.035122342 -0.057188325 0.065085851
0.044431332 -0.059109654 0.064859562
0.058738142 -0.056532126 0.065290056
0.060329713 -0.051360995 0.065160297
-0.024482589 -0.043616291 0.064983971
-0.015048327 -0.046683818 0.064973399
-0.0050945226 -0.048731852 0.065037526
0.00050876796 -0.049884785 0.064758934
0.061604727 -0.045158379 0.064981394
-0.026392121 -0.035111677 0.064878695
0.063675478 -0.03498387 0.065141499
-0.024565032 -0.024904309 0.065028243
0.065722011 -0.02505235 0.06509199
-0.022707267 -0.01520745 0.065183088
0.067878045 -0.015076801 0.064980954
-0.020837303 -0.005552297 0.06493789
-0.019873306 -0.0006460789 0.064570852
0.069488868 -0.0078214202 0.065138623
0.070584022 -0.0027648227 0.065147601
-0.018755332 0.0050045047 0.065071158
0.072301686 0.0051612612 0.065137625
-0.016627582 0.014882192 0.065043174
0.074369252 0.015003014 0.065092146
-0.014301525 0.024822848 0.064876497
0.04662279 0.029242314 0.065063819
0.054985952 0.027296742 0.065055393
0.064809501 0.025091048 0.06503769
0.073218852 0.022550948 0.064894564
-0.011645788 0.035266351 0.06507621
-0.0035785192 0.039961822 0.065179549
0.0048740115 0.038830861 0.06501691
0.015100507 0.036505472 0.064867236
0.025033975 0.034250516 0.064985327
0.034830257 0.031971842 0.064753607
0.041490655 0.03040429 0.064989068
-0.0053734956 0.040869899 0.065224409
0.049203467 -0.060158104 0.07491076
0.053683411 -0.06067929 0.0750691
0.0056562712 -0.05102665 0.075065769
0.015047284 -0.05306666 0.075216219
0.024859844 -0.055137463 0.074857995
0.035114989 -0.057238571 0.074926659
0.044310465 -0.059136912 0.074961312
0.058816545 -0.056431983 0.07497596
0.060290899 -0.051352005 0.075118572
-0.024314953 -0.043853458 0.075059958
-0.015057561 -0.046700731 0.074958965
-0.0049853432 -0.04878791 0.074880168
0.00040914305 -0.049909338 0.074757241
0.061560683 -0.045079805 0.074997179
-0.026505711 -0.035101511 0.075058304
0.06364055 -0.034928631 0.074875951
-0.024677996 -0.02491045 0.075183652
0.065677494 -0.025143363 0.074982516
-0.022785151 -0.015046737 0.075069457
0.067848988 -0.014970788 0.07517609
-0.02090002 -0.0052587548 0.075294837
-0.019913267 -0.0003350061 0.074785069
0.069473572 -0.007685401 0.075047866
0.070569783 -0.0026417025 0.075075671
-0.018812153 0.0051180199 0.075004309
0.072246037 0.0050733374 0.074922152
-0.016628148 0.015136885 0.075007521
0.074315906 0.014826487 0.074998103
-0.014346357 0.024852268 0.075027108
0.04649765 0.02924587 0.074933492
0.055004995 0.02725512 0.075206377
0.064868473 0.025032906 0.075303145
0.073164195 0.022592846 0.074968852
-0.011707118 0.035193894 0.074952573
-0.00017063793 0.039966624 0.073940068
0.0048381216 0.038798444 0.074864388
0.014888153 0.036512002 0.075097255
0.02506035 0.034216147 0.074824356
0.0348146 0.031949449 0.075060107
0.041541815 0.030362837 0.07477732
-0.010001297 0.040009551 0.079429679
-0.0052001029 0.040824667 0.074765779
0.049101952 -0.060192257 0.085190333
0.053639125 -0.060696099 0.085217826
0.0052216537 -0.050986238 0.085094221
0.015091583 -0.053114679 0.085084736
0.025023771 -0.0552251 0.08514706
0.034992058 -0.057271332 0.085075952
0.04413984 -0.059155129 0.085061543
0.058779631 -0.056425188 0.084957086
0.060247503 -0.051263425 0.085089713
-0.024340874 -0.043837514 0.08501365
-0.015050017 -0.04673177 0.084911719
-0.0047936691 -0.048873812 0.085074358
0.00027806876 -0.049933922 0.084632769
0.061554968 -0.044844192 0.084883347
-0.026568122 -0.034847651 0.08491341
0.063581862 -0.035063237 0.084867716
-0.024792299 -0.024987884 0.085002422
0.065707579 -0.024895212 0.08501216
-0.02286767 -0.01492657 0.085107587
0.067735955 -0.015178267 0.085237637
-0.020966329 -0.0052282717 0.084952049
-0.019961713 -0.0002261756 0.084470659
0.069454663 -0.0075269006 0.085155122
0.070550054 -0.0025507864 0.0847883
-0.018902684 0.0050285757 0.084798962
0.072199255 0.0050235018 0.085009098
-0.016699694 0.015066586 0.085024394
0.074317947 0.015048436 0.085094929
-0.014391326 0.024856523 0.084992208
0.046490118 0.029215185 0.084999688
0.054994624 0.027224757 0.085135601
0.064940825 0.02498823 0.085157432
0.073011637 0.022611246 0.084970124
-0.011830363 0.034925312 0.085017152
-0.0001896992 0.03995933 0.085152917
0.0048935995 0.038772121 0.084963724
0.015127881 0.036439363 0.084996432
0.024975115 0.034208167 0.084941328
0.03518346 0.031849422 0.084955461
0.041418847 0.030360151 0.084534436
-0.010011483 0.04001211 0.085316502
-0.0055452469 0.040856458 0.085101321
0.049034342 -0.060229074 0.09494295
0.053240724 -0.060723081 0.094907217
0.0052115074 -0.051044855 0.095015354
0.015131793 -0.053176157 0.094840631
0.025232228 -0.055316109 0.094842449
0.034758933 -0.057277463 0.094874039
0.04388674 -0.059155241 0.095121466
0.058749009 -0.056305498 0.09520898
0.060228292 -0.051042769 0.09463954
-0.024362909 -0.043836609 0.095224909
-0.01499555 -0.046796214 0.095101386
-0.005086977 -0.048860706 0.094842166
0.00019050871 -0.049970414 0.094488129
0.061464176 -0.045007698 0.095038854
-0.026672728 -0.034957282 0.095120192
0.063533947 -0.035128649 0.094903238
-0.024872147 -0.024949973 0.095007755
0.065660894 -0.024882376 0.095064014
-0.022999238 -0.01517919 0.094967455
0.06768816 -0.015048183 0.094949476
-0.020996083 -0.0050350912 0.095085196
-0.019979365 -5.0742907e-05 0.092404574
0.069411963 -0.007488769 0.094983853
0.070554137 -0.0023376499 0.094886497
-0.018968031 0.0050521884 0.094973996
0.072135024 0.0049357642 0.094906971
-0.016770605 0.014951151 0.094970681
0.074249513 0.014938321 0.095071845
-0.01441457 0.024861682 0.094914339
0.046495341 0.029173642 0.095114112
0.05525792 0.027131394 0.095046818
0.065048836 0.02494045 0.095040597
0.072897732 0.022602398 0.094795376
-0.011869526 0.03490261 0.094976678
-0.00021066521 0.039954673 0.095059387
0.0049747899 0.038746189 0.095096692
0.01517736 0.036416866 0.094873302
0.024837211 0.034214608 0.094908759
0.034925517 0.031895149 0.094784431
0.041464459 0.030307084 0.095001563
-0.01001013 0.040009916 0.093824759
-0.0053289342 0.040826526 0.094725065
0.0488966 -0.06025131 0.10548705
0.053328961 -0.060745161 0.10516533
-2.3624405e-05 -0.050011266 0.10840826
0.005045061 -0.051072706 0.10505648
0.015326511 -0.053262882 0.10482272
0.025027404 -0.055320632 0.10514798
0.035211578 -0.057420406 0.10489387
0.043825753 -0.059193179 0.10478828
0.058688309 -0.056219928 0.10506464
0.060185034 -0.050896049 0.10475146
-0.024607081 -0.04376591 0.10505805
-0.014889256 -0.046875589 0.10486931
-0.0051379041 -0.048907682 0.10503829
7.5359916e-05 -0.049991846 0.10178105
0.06137782 -0.045055043 0.10502262
-0.02677761 -0.035087474 0.10495877
0.063455112 -0.035222903 0.10517796
-0.024950795 -0.025091067 0.10491921
0.065623671 -0.024953097 0.10506859
-0.023059802 -0.015186977 0.10497744
0.067744873 -0.014856155 0.10506348
-0.021070413 -0.0051004821 0.10504814
0.069415145 -0.0073753363 0.10503729
0.070479393 -0.0024856019 0.10493467
-0.02001936 0.00012384908 0.10584722
-0.018947707 0.0053568757 0.10482962
0.072086483 0.0049377554 0.10521353
-0.016786065 0.014996985 0.10501412
0.07421121 0.014954742 0.10489473
-0.014429076 0.024827745 0.10525437
0.046290562 0.029179407 0.10502987
0.05518195 0.027117848 0.10510314
0.064995788 0.024924016 0.104851
0.073001795 0.022388695 0.10505574
-0.011791802 0.035121635 0.10506544
-0.0002253011 0.039944295 0.10554155
0.0051100613 0.038710944 0.1048612
0.014886792 0.036471862 0.10502661
0.02506985 0.034129452 0.10488508
0.035116598 0.031804211 0.10493711
0.041398007 0.030284116 0.10497335
-0.010007832 0.040019825 0.10316264
-0.0054946463 0.040869303 0.10501274
0.048708905 -0.060258627 0.11540052
0.053230334 -0.06083696 0.11520745
-0.000152776 -0.050037108 0.11713885
0.0049851555 -0.051117305 0.11512067
0.015015177 -0.053239599 0.11506378
0.024929989 -0.055349685 0.11512517
0.035073936 -0.057441216 0.11487331
0.04375992 -0.059230976 0.11495165
0.058725692 -0.055946317 0.11504154
0.060135894 -0.050665017 0.11464894
-0.024600714 -0.043843452 0.11485225
-0.014909632 -0.046932444 0.11521702
-0.0052822507 -0.048940469 0.11528257
0.061295688 -0.044974461 0.11501967
-0.026800549 -0.034832895 0.11502928
0.063423857 -0.035080306 0.11486567
-0.024993878 -0.025032839 0.11497306
0.06554471 -0.025084423 0.11511932
-0.023069695 -0.015018188 0.11493636
0.067668386 -0.015165984 0.11499292
-0.021068923 -0.0048967148 0.11474165
0.069443606 -0.0070640747 0.11486806
0.070493244 -0.0022222702 0.11518513
-0.020040188 0.00019661536 0.11562576
-0.018997777 0.0052702199 0.11480984
0.072032131 0.0048694704 0.11513476
-0.016818622 0.014935401 0.1149819
0.074192472 0.015041744 0.1148858
-0.014413221 0.024835004 0.11511774
0.04619325 0.029158248 0.11512075
0.055054434 0.027091401 0.11516919
0.06527862 0.024799753 0.11528184
0.072925173 0.022343108 0.11471016
-0.011696609 0.035204262 0.11508036
-0.00065829931 0.0399432 0.11598122
0.0048623118 0.038755585 0.11497089
0.014963637 0.03642679 0.11489818
0.024913758 0.034118686 0.11509613
0.035178334 0.031735878 0.11495031
0.041316535 0.030264163 0.11559498
-0.010022038 0.040021773 0.11357512
-0.0054209372 0.040845465 0.11492362
0.048716806 -0.060308043 0.12525691
0.053319193 -0.060869705 0.12489136
-0.00027114444 -0.050057359 0.12511188
0.0048695267 -0.051140539 0.12503184
0.014899817 -0.053256966 0.12492362
0.024892792 -0.055393539 0.12502162
0.03495203 -0.057459883 0.12497769
0.0437227 -0.059271328 0.12483861
0.058626566 -0.055954352 0.12503496
0.060092252 -0.050480839 0.12464522
-0.024516404 -0.043940209 0.12496005
-0.014821895 -0.04701101 0.12497223
-0.005332619 -0.048988961 0.12490401
0.061191592 -0.045087535 0.1250421
-0.026871206 -0.034963258 0.12519214
0.063393623 -0.034879494 0.12480354
-0.025073944 -0.025148407 0.12501739
0.065474108 -0.025153309 0.12483361
-0.02311697 -0.015010717 0.12494706
0.067632824 -0.015102871 0.12523501
-0.021137932 -0.0050409073 0.12493346
0.069373719 -0.0071886391 0.12503646
0.070464395 -0.0021761642 0.12535632
-0.020071246 0.00021947594 0.12510775
-0.019006243 0.0053722537 0.12513423
0.072033636 0.0050257118 0.12505873
-0.01676794 0.015212476 0.12490574
0.07414449 0.01480066 0.12495603
-0.014352771 0.025072129 0.12495169
0.045958769 0.029150669 0.12524863
0.05514922 0.026997425 0.12510031
0.065052167 0.02477435 0.1247889
0.073042378 0.022330455 0.1250238
-0.011665558 0.035257354 0.1250208
-0.00089940982 0.039897714 0.12577011
0.0048775128 0.038702894 0.12496118
0.015201048 0.036325108 0.12499672
0.025045061 0.034041915 0.12477866
0.035053942 0.031712607 0.12498398
0.041179679 0.030257186 0.12487914
-0.0055180574 0.040849239 0.12494133
0.048547432 -0.060321767 0.13505383
0.05337052 -0.060900677 0.1348028
-0.00032053381 -0.050098937 0.13479601
0.0049137278 -0.051200379 0.13490875
0.014952342 -0.053322498 0.13512382
0.025135623 -0.055501863 0.13519846
0.03485949 -0.057486862 0.1351067
0.04348436 -0.059269261 0.13496821
0.058687054 -0.055571005 0.13496488
0.060053404 -0.050310269 0.13421991
-0.024943031 -0.04367261 0.13495523
-0.014694729 -0.047099255 0.13519685
-0.0054577403 -0.049025886 0.13467585
0.061154384 -0.04495696 0.13499583
-0.026925292 -0.034996022 0.13508053
0.063313484 -0.034896139 0.13487844
-0.025100013 -0.024988005 0.13519572
0.065429375 -0.025064213 0.13513152
-0.023158917 -0.014941297 0.1352074
0.067604989 -0.01497724 0.13499519
-0.021128157 -0.0047948598 0.13503297
0.069366775 -0.0069442689 0.13495304
0.070463933 -0.0019408202 0.13493843
-0.020086939 0.00035149447 0.1354982
-0.018992908 0.0055322931 0.13506499
0.071953923 0.0048313364 0.13505937
-0.016876675 0.014795172 0.13498989
0.074090727 0.014613433 0.13482694
-0.014404292 0.024923233 0.13517727
0.046161599 0.02903739 0.13514109
0.055063825 0.02694854 0.13499071
0.064666115 0.024773991 0.13520579
0.072870381 0.02233289 0.13492881
-0.011748721 0.035095766 0.13492955
-0.00056060305 0.039869964 0.13545847
0.0050687389 0.038594689 0.13500853
0.014804654 0.036363125 0.13500164
0.025033182 0.033993803 0.13492249
0.035180334 0.031637054 0.1350342
0.040972695 0.030258764 0.134408
-0.010033982 0.040030546 0.1357609
-0.0055423109 0.040795684 0.13524221
0.048456792 -0.060347531 0.14520839
0.053493746 -0.060915012 0.14508227
-0.00058623333 -0.050112382 0.14499868
0.004978437 -0.051279757 0.14512451
0.015173104 -0.053440191 0.14491855
0.024924822 -0.05551682 0.14496312
0.03501074 -0.057576966 0.14506888
0.043434814 -0.059310161 0.14483136
0.058723934 -0.055299845 0.14500563
0.060034454 -0.050102599 0.14405006
-0.024476543 -0.043980464 0.14506997
-0.015009367 -0.047093157 0.14497876
-0.0055615529 -0.049079131 0.14502659
0.061113983 -0.044901434 0.14470735
-0.026953755 -0.034967877 0.1449835
0.063256592 -0.034863874 0.14502122
-0.025140956 -0.024889987 0.14520666
0.065364309 -0.025036257 0.14508127
-0.023216974 -0.015041751 0.14511108
0.067497343 -0.015168671 0.14504544
-0.021230018 -0.005121503 0.14485736
0.069277577 -0.0070379758 0.14523123
0.070435308 -0.0017667158 0.14497632
-0.020095501 0.00051281886 0.145235
-0.018988779 0.0055812537 0.14522597
0.071895443 0.0047666025 0.14512436
-0.016860973 0.014915058 0.14500508
0.074109711 0.014907259 0.14530022
-0.014412528 0.024991889 0.14477724
0.045924313 0.029030671 0.14493641
0.054741416 0.02696568 0.14491579
0.064927533 0.024662917 0.14492773
0.072879791 0.022244198 0.14503746
-0.011771977 0.035047989 0.14495717
-0.00070168718 0.039838262 0.14456023
0.005018441 0.038518302 0.14492662
0.014931518 0.036246512 0.14488465
0.025019748 0.033945963 0.14501168
0.03500919 0.031619444 0.14493039
0.040961325 0.030213431 0.14478868
-0.010018411 0.040050309 0.14189199
-0.0058227512 0.040833641 0.14497438
0.048244566 -0.060352158 0.15494731
0.053428773 -0.060921866 0.15490831
-0.00076402578 -0.050152469 0.15557651
0.0052101999 -0.05139406 0.1548695
0.015101747 -0.053496685 0.15504633
0.02473926 -0.055536326 0.15495309
0.03521385 -0.057681341 0.15506887
0.043304715 -0.059339795 0.15481937
0.058623701 -0.05530607 0.15488692
0.060000807 -0.050058141 0.15106407
-0.024541035 -0.043964818 0.1550456
-0.014951482 -0.047189683 0.155177
-0.0058512692 -0.04909109 0.15496209
0.059978832 -0.049904183 0.15776257
0.061074864 -0.044757769 0.15518834
-0.026982106 -0.034871776 0.15504004
0.063170053 -0.034980506 0.15517043
-0.025178507 -0.024797516 0.15510394
0.065247908 -0.025182612 0.1552262
-0.023205664 -0.0148257 0.15511706
0.067456022 -0.015016202 0.15500472
-0.021258768 -0.00508472 0.15486014
0.069230139 -0.0069657094 0.15479366
0.070384845 -0.0017587346 0.15502214
-0.020130107 0.00058455486 0.15577212
-0.019012066 0.0055724774 0.15502751
0.071936347 0.0051030596 0.154815
-0.016898829 0.014932569 0.15489727
0.074070737 0.014935452 0.15475868
-0.014415171 0.025133705 0.15517828
0.045791697 0.029006789 0.1553137
0.055104788 0.026864305 0.15506999
0.065029465 0.024653476 0.15494932
0.072808042 0.022277422 0.15504991
-0.011794983 0.035014782 0.15491898
-0.00085380016 0.039831936 0.15502502
0.004800776 0.038517196 0.15469891
0.014961484 0.03619374 0.15504488
0.024955966 0.033914581 0.15499203
0.034890193 0.03158164 0.15495777
0.040773261 0.030206099 0.15509373
-0.010008216 0.040004864 0.15195079
-0.0060680881 0.040829886 0.15507457
0.047897503 -0.06035652 0.1652129
0.053273223 -0.060968723 0.1649999
-0.00087969453 -0.050195418 0.16504787
0.0048800474 -0.051392633 0.164753
0.0152502 -0.053590372 0.1649566
0.02525218 -0.055698842 0.16481578
0.035030268 -0.057703394 0.16487379
0.043271378 -0.059391923 0.16468461
0.058561236 -0.055335909 0.16514385
-0.02452088 -0.043988433 0.16510753
-0.014835202 -0.047278818 0.16496906
-0.006128266 -0.04910057 0.16486277
0.059934724 -0.049766887 0.16612928
0.060998738 -0.044697341 0.16519016
-0.027042955 -0.034885984 0.16495341
0.063128419 -0.034837876 0.16484615
-0.025249712 -0.024954909 0.16489175
0.065212585 -0.024923922 0.16516042
-0.023317024 -0.015064612 0.16506302
0.067344956 -0.015140711 0.16500641
-0.021312943 -0.0049434016 0.16509175
0.069253497 -0.0065360139 0.16492948
0.070348054 -0.0016451051 0.16455364
-0.020127874 0.00088458142 0.16487642
-0.019021535 0.0058288402 0.16494808
0.071835771 0.005016773 0.1651196
-0.016946722 0.014933415 0.1649491
0.073986448 0.014800143 0.16512017
-0.01448389 0.024979141 0.16509569
0.045643803 0.029005755 0.1651358
0.054889094 0.026885489 0.16496657
0.064980365 0.024654668 0.16514969
0.072728947 0.022322353 0.16477142
-0.011798732 0.03512913 0.16515227
-0.0015050905 0.03982069 0.16519567
0.005024326 0.038435243 0.16507253
0.015113955 0.036129508 0.16498888
0.024892762 0.033878129 0.16528198
0.034905232 0.031524509 0.16504014
0.040725887 0.030168097 0.16449982
-0.0060472237 0.040753029 0.16506657
0.048038229 -0.060452908 0.1752294
0.053254314 -0.060917851 0.17507173
-0.0010889753 -0.050221808 0.17541401
0.0050917002 -0.051505227 0.17494971
0.015042835 -0.053596243 0.17507894
0.024941744 -0.055685878 0.17506707
0.03496528 -0.057751462 0.17525654
0.042839643 -0.059365947 0.17482883
0.058424994 -0.055555988 0.17493984
-0.024761984 -0.043850493 0.17508651
-0.015115521 -0.047220077 0.17516835
-0.0061294581 -0.049164739 0.17498748
0.059901077 -0.049575236 0.17584908
0.060943399 -0.044578414 0.17485708
-0.027155392 -0.034773752 0.17487125
0.063019492 -0.035063706 0.17486776
-0.025378771 -0.025191838 0.17498954
0.065070204 -0.025215972 0.17491058
-0.02339619 -0.014992601 0.17501552
0.067281842 -0.015042158 0.1749991
-0.021378128 -0.0048793964 0.17516831
0.069235884 -0.0062154285 0.17516997
0.07030908 -0.0013666407 0.17508723
-0.020189285 0.00092258025 0.17520976
-0.019075939 0.0059769838 0.17491205
0.071730033 0.0049905754 0.17500268
-0.017033605 0.014847042 0.17505209
0.073956765 0.015122899 0.17481858
-0.01449085 0.025118433 0.17518252
0.045458961 0.029013176 0.17502007
0.054957736 0.026847018 0.17504819
0.064733706 0.024664508 0.17505695
0.072807401 0.022275802 0.17482652
-0.011837953 0.03512831 0.17518549
-0.0010858431 0.039786082 0.1751444
0.0052184216 0.03836187 0.17486197
0.014949969 0.036119241 0.17516568
0.024672726 0.03388131 0.17519993
0.034941331 0.031463556 0.17487937
0.040557813 0.030153032 0.17478965
-0.0060727955 0.040763203 0.17508374
0.047840524 -0.06046018 0.18534821
0.053331006 -0.060894888 0.18491642
-0.0011763173 -0.050263558 0.18477523
0.0051078708 -0.051577304 0.18500538
0.015133347 -0.053662632 0.18492714
0.024939509 -0.055729572 0.18511467
0.035007086 -0.057812888 0.18504505
0.042581767 -0.059379283 0.1849523
0.058457591 -0.055122219 0.18490465
-0.024984593 -0.043948412 0.18503535
-0.014925698 -0.047357451 0.18525065
-0.0062866556 -0.049195752 0.18490387
0.059851557 -0.049331792 0.18534833
0.060974024 -0.044103328 0.18479441
-0.027204974 -0.035031341 0.18505108
0.062927708 -0.035244331 0.18477783
-0.025413921 -0.024963669 0.18510796
0.065024026 -0.025003549 0.18495674
-0.023470214 -0.01496254 0.1849383
0.067131087 -0.014937428 0.1849656
-0.021483058 -0.0050799963 0.18517846
0.069160514 -0.0060753743 0.18511426
0.070273995 -0.0011469892 0.18495364
-0.020228704 0.0010549945 0.18528369
-0.019121233 0.0061625675 0.18495376
0.071650036 0.0050600045 0.18510485
-0.017079365 0.014975625 0.18478544
0.073821358 0.015004208 0.18492228
-0.014566815 0.025049016 0.18508734
0.045618124 0.028923405 0.18505976
0.055092961 0.026745075 0.18496779
0.06497059 0.024558403 0.18515363
0.07264325 0.022314334 0.18495883
-0.01192192 0.034999095 0.18499517
-0.0012200865 0.03976842 0.18519923
0.0049247555 0.038380228 0.18500003
0.014853545 0.036078207 0.18506241
0.024980007 0.033759177 0.18508179
0.035082895 0.031371545 0.1848608
0.040530674 0.03010009 0.18516932
-0.0061583812 0.040760752 0.18499345
0.047695324 -0.060378209 0.19474021
0.053084683 -0.060855895 0.19478306
-0.0012530603 -0.050257172 0.19486885
0.0048159268 -0.051473513 0.1949628
0.014952682 -0.053598236 0.19485994
0.025114069 -0.055758782 0.19495487
0.035261441 -0.057921745 0.19489811
0.042657942 -0.059453461 0.19496661
0.058236696 -0.05531498 0.19488893
-0.02475339 -0.044013135 0.19513878
-0.014870924 -0.047451898 0.19485231
-0.0061817924 -0.049263243 0.19509055
0.059824713 -0.048998389 0.19574921
0.060957167 -0.043879665 0.19497111
-0.027167143 -0.034592837 0.19486013
0.062902935 -0.035091136 0.19499485
-0.025486536 -0.024947843 0.19497749
0.064971864 -0.024675846 0.19474216
-0.023544399 -0.01494739 0.19498624
0.066836402 -0.015200822 0.19493461
-0.021487258 -0.0048237545 0.19514553
0.068944089 -0.0058062333 0.19545287
0.070220374 -0.0008055924 0.19452351
-0.020245012 0.0011547898 0.19535436
-0.01917267 0.0061092423 0.19503878
0.071546704 0.0049872827 0.19502941
-0.017128557 0.015035989 0.19490413
0.07368391 0.01497531 0.19497742
-0.014699535 0.024903467 0.19487821
0.045241322 0.028929027 0.19505873
0.055050485 0.026648263 0.19535908
0.064957872 0.024490219 0.19501169
0.07268656 0.022034371 0.19496274
-0.011959593 0.034989852 0.19512464
-0.0021443188 0.039715745 0.19543703
0.0048469305 0.038301557 0.1950108
0.015119081 0.035952285 0.19521092
0.025077105 0.033677064 0.19514117
0.03498625 0.031324275 0.19490267
0.040334579 0.030073719 0.19462579
-0.0060884459 0.040748186 0.19468358
0.04861661 -0.060191859 0.20169395
0.052700203 -0.060460962 0.20221801
-0.00085155416 -0.050147504 0.20144953
0.0055444771 -0.051143769 0.20260994
0.015234501 -0.052580472 0.20344058
0.025326123 -0.054120075 0.20383489
0.034904156 -0.055337582 0.203934
0.044848721 -0.055545744 0.2041851
0.055778109 -0.054947142 0.20389067
-0.0235593 -0.04366228 0.20314837
-0.015123679 -0.044953085 0.20371851
-0.0051384992 -0.045865301 0.2040614
0.00497683 -0.045131728 0.20501406
0.015001009 -0.045012806 0.20511903
0.024951736 -0.044896949 0.20516725
0.034966052 -0.045087226 0.20523106
0.044955797 -0.045002427 0.20531578
0.055318121 -0.045450576 0.20509769
0.060998779 -0.043238275 0.2032965
-0.025083296 -0.03519408 0.20370875
-0.01497204 -0.034921303 0.20482306
-0.0050342116 -0.035222691 0.20492804
0.0050574648 -0.034837157 0.20498861
0.015043679 -0.035124686 0.20506059
0.025199536 -0.034904156 0.20508653
0.034912169 -0.034937989 0.20515485
0.04501773 -0.03520501 0.20523159
0.055103905 -0.03507584 0.20532413
0.062354881 -0.035371523 0.20371599
-0.024103647 -0.025174441 0.20351985
-0.015129676 -0.025043035 0.20482543
-0.0049648033 -0.024858542 0.20488845
0.00482046 -0.025143526 0.20494208
0.015185634 -0.024930315 0.20492482
0.025197258 -0.025060195 0.20510869
0.034904227 -0.02489375 0.20511997
0.045112576 -0.024927055 0.20522286
0.054825954 -0.024978522 0.20539244
0.063377574 -0.025180629 0.20371419
-0.022860974 -0.015254111 0.20343147
-0.014823585 -0.014968321 0.20479362
-0.0050393427 -0.015038731 0.20481159
0.0048080869 -0.01499196 0.20488147
0.015274138 -0.014992238 0.20503438
0.025072712 -0.015013806 0.20508365
0.035074659 -0.014988839 0.20511849
0.045144733 -0.014976952 0.2052578
0.055154361 -0.014712751 0.20543207
0.064678907 -0.014683967 0.20419817
-0.021403639 -0.005322244 0.20279248
-0.014824474 -0.0050410535 0.20475121
-0.0049506244 -0.0049465415 0.20477957
0.004941165 -0.004901771 0.20480061
0.014953212 -0.0051717726 0.20490558
0.025014507 -0.0052265516 0.20508188
0.034849372 -0.0052315756 0.20497392
0.045018032 -0.0049234601 0.2052438
0.055174995 -0.0050608581 0.20539795
0.066037267 -0.0048945625 0.20438984
0.070108972 -0.00056540006 0.20149291
-0.020203564 0.0012883713 0.20226043
-0.015723791 0.0048743985 0.20403045
-0.0051283399 0.0050070444 0.2048025
0.0051653609 0.0052110818 0.20477833
0.014939016 0.0048876833 0.20472752
0.024974689 0.0050449152 0.20492193
0.035134163 0.0048148911 0.20488247
0.045155812 0.0050524166 0.20511647
0.055197082 0.0050850296 0.20533997
0.064896442 0.0049878513 0.20527561
0.071115218 0.0051305597 0.20297275
-0.01493964 0.014942267 0.20357986
-0.0050282846 0.0148822 0.20463066
0.0049388711 0.014965097 0.20449109
0.015036164 0.014881774 0.20462272
0.02516057 0.015091276 0.20471612
0.034839936 0.015240841 0.20491964
0.045254257 0.015075561 0.20505317
0.054848365 0.01502139 0.20517506
0.065027855 0.014881302 0.20517853
0.072691508 0.014871925 0.20328076
-0.013718194 0.024700439 0.20348828
-0.0049587013 0.02506738 0.20467503
0.0049960357 0.025024582 0.20462123
0.01493205 0.024832131 0.20468798
0.025068771 0.024992924 0.20479177
0.034930684 0.024899799 0.20500988
0.045034576 0.025961626 0.20409109
0.054720063 0.024791611 0.20405807
0.064704642 0.02347726 0.20355539
0.072193891 0.02167411 0.2023385
-0.011851193 0.034092262 0.20286031
-0.004715079 0.035673413 0.20416592
0.0047162152 0.035727717 0.2037503
0.014861899 0.034241352 0.20367426
0.024783559 0.03299823 0.20337473
0.034643367 0.031196736 0.20296595
0.040146999 0.03006909 0.20169184
-0.0058566104 0.040639419 0.20225576
