# .PCD v0.7 - Point Cloud Data file format
VERSION 0.7
FIELDS x y z
SIZE 4 4 4
TYPE F F F
COUNT 1 1 1
WIDTH 185
HEIGHT 1
VIEWPOINT 0 0 0 1 0 0 0
POINTS 185
DATA ascii
0.017617989 -0.06040547 -7.1560367e-05
0.014181163 -0.055127438 -0.00013916571
0.0099039711 -0.048667215 -2.4654304e-05
0.011082949 -0.049010508 -5.9391085e-05
-0.020441985 0.0034714129 -1.3757008e-05
-0.017967338 0.0051823477 -1.6150378e-05
0.017026708 -0.061854959 0.005046594
0.024888758 -0.063047595 0.004432993
0.032235395 -0.061358005 0.0058791228
0.0089075575 -0.052404866 0.0049254559
0.01514345 -0.055441372 0.0043485099
0.024754815 -0.057962369 0.0051176967
0.035211395 -0.055174112 0.0049995976
0.041028742 -0.051784869 0.0066016749
-0.030918071 -0.040856507 0.0070749624
-0.025040509 -0.042926721 0.0052259313
-0.015238338 -0.04292129 0.0057915333
-0.0086093424 -0.040908307 0.0074857152
0.0074089444 -0.044906281 0.0043010991
0.015063899 -0.044897243 0.0041831979
0.038063433 -0.04618657 0.0059075821
0.043263316 -0.044484451 0.0049631344
-0.033954348 -0.03457503 0.0045441519
-0.025258645 -0.034912787 0.0048455675
-0.014788553 -0.035040632 0.0054267673
-0.0052788467 -0.034765813 0.0051857042
0.0065211351 -0.034747194 0.0044784751
0.015751682 -0.035244856 0.0037745005
0.020384265 -0.031444248 0.0083749844
0.044490095 -0.035038188 0.0054816855
-0.034467865 -0.024913782 0.0047798413
-0.029247053 -0.02882399 0.0077224635
-0.0041477173 -0.025564821 0.005663442
0.0056033493 -0.024815928 0.0052433051
0.015285421 -0.025024734 0.0021916761
0.021410206 -0.024658585 0.0072227721
0.045514397 -0.025031429 0.0054513551
-0.034254059 -0.015412392 0.0043781232
-0.028813127 -0.012608524 0.0067619085
-0.0017127534 -0.015171804 0.0067199343
0.0061802301 -0.014977328 0.0046209912
0.01440393 -0.014680609 0.0030572377
0.022399686 -0.014829039 0.0064114071
0.044354357 -0.015037822 0.0054650609
-0.032415215 -0.0060055344 0.0047745407
-0.02553607 -0.0046074474 0.00412165
-0.015516043 -0.0019548028 0.0066674706
-0.0042034015 -0.0043055229 0.0057990719
0.0053829686 -0.0048257126 0.0040361681
0.013928319 -0.0051623061 0.0037534039
0.024459103 -0.0042368369 0.0053491751
0.036718935 -0.0035362928 0.0057417932
0.04278807 -0.0056707561 0.0051950244
-0.024095545 0.0036104044 0.0043943566
-0.015586318 0.0056144586 0.00242073
-0.0049907193 0.0047011729 0.0012263628
0.0056437305 0.0044112508 0.0021350048
0.014397226 0.0044569867 0.002662936
0.025167245 0.0048085521 0.0011619782
0.035645202 0.0049155164 0.0036214511
0.040614605 0.0014475003 0.0067477324
-0.013001384 0.011651712 0.0051357336
-0.0047841859 0.015050192 0.0040579792
0.0045478521 0.015552672 0.0022634689
0.015006288 0.015031758 0.0016836701
0.025008777 0.014943281 0.0010443212
0.034558378 0.014844747 0.0046145101
0.0061136689 0.022615045 0.0054429979
0.014452399 0.025697777 0.0033302403
0.025065197 0.024971195 0.00073053886
0.033998296 0.025194442 0.0049693584
0.017212538 0.03451471 0.0054657785
0.024963254 0.034959689 0.00098168373
0.035392035 0.035091285 0.0041124425
0.019600332 0.041436702 0.0064940318
0.023846466 0.045365538 0.0032547717
0.036141593 0.045118164 0.0036384924
0.026727466 0.05436679 0.0063495287
0.035285972 0.054464586 0.0054309
0.04073967 0.05714405 0.0070697153
0.028784769 0.063927434 0.0083524622
0.034505248 0.065077633 0.0061691618
0.042100426 0.065409325 0.0071014911
0.029850557 0.070475072 0.0089222565
0.034393143 0.074741527 0.0070492555
0.04378951 0.075297117 0.0068454621
0.03630209 0.084691674 0.0076720431
0.045256183 0.085175551 0.0068521602
0.050055079 0.08969909 0.0068429909
0.03827031 0.094573624 0.0084084971
0.045777228 0.095057301 0.0069027194
0.050905794 0.095966414 0.0066597285
0.039474029 0.10181652 0.0090950457
0.045407284 0.10493821 0.0074495072
0.051916592 0.10535828 0.0067766318
0.046439059 0.11483686 0.00820293
0.052779637 0.11519089 0.0071245544
0.048117731 0.12421747 0.0089271534
0.053429358 0.12512039 0.0075709191
0.049578357 0.13045339 0.0089197904
0.053997315 0.13240011 0.0081234397
0.017423918 -0.061716665 0.012013073
0.024966728 -0.062412146 0.012251574
0.032116681 -0.061312471 0.011758679
0.0094362535 -0.05192985 0.011381637
0.014562148 -0.05530614 0.012419461
0.025190497 -0.058777776 0.011500059
0.035524923 -0.055596445 0.011824869
0.040970176 -0.051730581 0.011352756
-0.030699885 -0.040759772 0.010705308
-0.024608532 -0.042283013 0.011122952
-0.015861884 -0.042133566 0.010868373
-0.008345752 -0.040705655 0.010417468
0.0088532511 -0.04485539 0.011751619
0.014102748 -0.04476909 0.012879
0.038765572 -0.047363255 0.011060555
0.042931236 -0.044472512 0.011786135
-0.033006132 -0.034280591 0.011446073
-0.025877131 -0.036729082 0.010812356
-0.014180603 -0.037473578 0.010686205
-0.0051842346 -0.034716543 0.011202634
0.0073941601 -0.034636013 0.011268105
0.014986872 -0.034770761 0.013209325
0.020290289 -0.030940427 0.010776451
0.04508654 -0.035100035 0.011795749
-0.034928143 -0.025056154 0.011564638
-0.029987793 -0.029783405 0.010020404
-0.002356993 -0.026063688 0.010952419
0.0034723193 -0.024880156 0.011279362
0.014753186 -0.024942098 0.013359487
0.021312153 -0.024458127 0.011770868
0.046084564 -0.025001545 0.011944961
-0.033928894 -0.015211264 0.011663733
-0.02927839 -0.011519332 0.010785722
-0.00075888389 -0.014962331 0.010652778
0.0039282632 -0.014852879 0.011735372
0.015377979 -0.015184695 0.013156042
0.022234287 -0.014597691 0.012566701
0.044637259 -0.014934049 0.01210063
-0.032022465 -0.0067270542 0.01184951
-0.025856389 -0.0041224216 0.011982463
-0.015474856 -0.0011948136 0.01112886
-0.0037517652 -0.0036535813 0.011519878
0.0046756966 -0.0048295124 0.012259816
0.016346976 -0.0050943722 0.013153266
0.02410748 -0.0044283532 0.013160303
0.036421865 -0.0027303249 0.012042168
0.042517945 -0.0057972264 0.012348434
-0.0234206 0.0033101391 0.012421507
-0.015189152 0.0052123815 0.012905617
-0.0051447391 0.0049490556 0.013228529
0.0051547079 0.0048485245 0.012997583
0.014790457 0.0048932466 0.013103279
0.025068775 0.0049010101 0.014655268
0.035237275 0.0049428809 0.013436311
0.040598381 0.0012207911 0.011562008
-0.012685388 0.011466367 0.011938779
-0.0045622233 0.014082008 0.012586991
0.0049407175 0.015109545 0.012801177
0.015085264 0.015044981 0.012998712
0.024977265 0.015034101 0.014586253
0.03373526 0.014702152 0.012936906
0.0067396178 0.022342281 0.011743894
0.015188362 0.024995517 0.01240817
0.024930904 0.02504207 0.014473708
0.033217344 0.025093313 0.012767799
0.017955827 0.033834338 0.011589316
0.024908494 0.035118129 0.01394402
0.034388267 0.035278626 0.0129745
0.01967619 0.041032653 0.010876997
0.024715139 0.045074187 0.012868186
0.0348524 0.045016777 0.012919262
0.026924446 0.051720943 0.012189116
0.034440372 0.054388702 0.01102143
0.035640262 0.06490238 0.010084471
0.040409543 0.068074077 0.010115519
0.036581997 0.074659228 0.010085247
0.041177485 0.075609766 0.010122634
0.038106836 0.084276453 0.010076373
0.041816048 0.085348882 0.010119118
0.038987 0.092708647 0.01002323
0.042660318 0.095370442 0.010076091
0.044360157 0.10477598 0.010053108
0.045630641 0.11287408 0.010033074
0.047424365 0.1215354 0.010007746
