# .PCD v0.7 - Point Cloud Data file format
VERSION 0.7
FIELDS x y z
SIZE 4 4 4
TYPE F F F
COUNT 1 1 1
WIDTH 113
HEIGHT 1
VIEWPOINT 0 0 0 1 0 0 0
POINTS 113
DATA ascii
0.0092090527 -0.081754059 -3.0880765e-05
0.01338211 -0.081295587 -0.00014948938
0.0098864352 -0.07979124 -1.9780031e-05
0.016182644 -0.076058663 -0.00014503386
0.020307068 -0.0709837 -3.184237e-05
0.049634632 -0.070220903 -0.0001362771
0.052781362 -0.070469752 -0.00022743142
0.019461486 -0.069492638 -5.5620341e-05
0.020653674 -0.069404513 -4.9736584e-05
0.037211496 -0.060113914 -2.5677571e-05
0.046599783 -0.064259954 -0.0016317208
0.05257827 -0.065189742 -0.0013211524
0.036866132 -0.054936081 -0.00036656504
0.045040097 -0.05531184 -0.0010310576
0.051253334 -0.057768408 -0.00099505018
0.035575174 -0.049401116 -0.00012263819
-0.061220858 0.059449252 -8.5060266e-05
-0.059850745 0.058396004 -1.5233317e-05
-0.062814213 0.064841956 -0.00016751366
-0.061147764 0.071546234 -0.00011882465
-0.058510881 0.074753173 -5.9772228e-05
0.01952537 -0.10012015 0.0069183214
0.025516134 -0.10108048 0.0056996141
0.0335094 -0.10092508 0.0062817247
0.0082229394 -0.092430584 0.004923237
0.015249148 -0.0950827 0.005423395
0.024968879 -0.095097631 0.0057238112
0.034637127 -0.095409334 0.0060178931
0.040530801 -0.09765096 0.0063535054
0.0061500538 -0.084841542 0.0048098438
0.015849354 -0.086081043 0.0039363154
0.024539949 -0.085175008 0.0054115709
0.031041747 -0.0894159 0.0055256328
0.0062279878 -0.075071916 0.0049362374
0.013445864 -0.073913395 0.0056120325
0.025458209 -0.075206935 0.0050398908
0.031008551 -0.07125295 0.0047349473
0.049015041 -0.070871957 0.0029958747
0.054589018 -0.072912261 0.0036771351
0.0065252143 -0.065101862 0.0048158979
0.015005706 -0.064874977 0.0048682974
0.024892086 -0.064561673 0.0049605495
0.034554094 -0.06450814 0.0047432831
0.044823747 -0.064823925 0.0044434797
0.054679528 -0.065259032 0.0045566079
0.0066621574 -0.054930303 0.0044893692
0.014818638 -0.055860199 0.00459194
0.025061656 -0.054964621 0.0047888202
0.034160092 -0.055047926 0.0065420526
0.044712562 -0.054948129 0.0062109162
0.052281242 -0.05625074 0.0037789333
-0.00016940787 -0.040231846 0.0038925726
0.0054623466 -0.044712547 0.0041636243
0.014638616 -0.044629361 0.0042191935
0.025112562 -0.045034554 0.0047553424
0.034968361 -0.045935292 0.0049408944
0.043626647 -0.04600497 0.0045103813
-0.002056916 -0.033823334 0.0037088364
0.0049617449 -0.034996606 0.0039285179
0.014389689 -0.035642296 0.0041886675
0.022469081 -0.038778108 0.0046442966
0.04375238 -0.039421685 0.0045417054
-0.010780084 -0.021243347 0.0035309931
-0.0046702055 -0.024609812 0.0036351527
0.0049813716 -0.025053352 0.0039559719
0.01142963 -0.027788009 0.0041539366
-0.013339503 -0.014075315 0.0031034434
-0.0049842643 -0.014989193 0.0035294113
0.0028732696 -0.015839187 0.0038089533
-0.021816999 -0.0029734019 0.0030390355
-0.015210926 -0.0049340851 0.0030378082
-0.0054382295 -0.0054066777 0.0033457119
0.00057882624 -0.0089787124 0.0034661284
-0.030479837 0.009303527 0.0028523507
-0.024540458 0.0054533565 0.0028725429
-0.014856158 0.0049354616 0.0029946326
-0.0079949209 0.0038365435 0.0033578184
-0.032850873 0.015984304 0.0026320759
-0.025059119 0.014964679 0.00271501
-0.015718216 0.014385889 0.0031287945
-0.0097850123 0.010475072 0.0032923818
-0.041442219 0.02781463 0.0024915405
-0.03502892 0.025015812 0.0023776849
-0.024966607 0.025070641 0.002637866
-0.018300496 0.023102388 0.0030326366
-0.050200608 0.039709728 0.0018114563
-0.04429093 0.035674617 0.0022529825
-0.034946948 0.034993332 0.0023303297
-0.026233844 0.034486186 0.0026584032
-0.052522257 0.046104133 0.0018898314
-0.04515421 0.044908151 0.0019512404
-0.03486428 0.044854917 0.0022259324
-0.028602464 0.042553917 0.0026042964
-0.061209425 0.057671692 0.0016663863
-0.05503935 0.054795127 0.0016853224
-0.045559663 0.05493715 0.0016357551
-0.036770776 0.054196894 0.0020959473
-0.063050874 0.065033413 0.0012159979
-0.059047215 0.06030364 0.0013408151
-0.043991506 0.064434148 0.0018711392
-0.03935029 0.061555009 0.0017660691
-0.061822556 0.07244695 0.0013765539
-0.055058192 0.075177543 0.0013613713
-0.047102578 0.072730094 0.0017156205
0.0093598682 -0.090741612 0.010087952
0.010778118 -0.09094929 0.010032699
0.0090550836 -0.085642032 0.010172228
0.013243019 -0.083637394 0.010157902
0.017141068 -0.076134771 0.010079019
0.026136683 -0.072937526 0.010136492
0.030699374 -0.071146846 0.010377673
0.029427659 -0.069391169 0.010127502
0.031154538 -0.068802357 0.010273986
