# .PCD v0.7 - Point Cloud Data file format
VERSION 0.7
FIELDS x y z
SIZE 4 4 4
TYPE F F F
COUNT 1 1 1
WIDTH 188
HEIGHT 1
VIEWPOINT 0 0 0 1 0 0 0
POINTS 188
DATA ascii
-0.1336091 -0.045832023 0.0089116953
-0.12586087 -0.042870101 0.0086186975
-0.11818905 -0.040775415 0.0092461044
-0.12302296 -0.038677573 0.0090036429
-0.11467865 -0.036466863 0.0089005483
-0.10596392 -0.032829735 0.0091293994
-0.098690301 -0.030704565 0.009551038
-0.10227855 -0.028860239 0.009398208
-0.094822392 -0.026652208 0.0094054816
-0.086016454 -0.022491047 0.0096238526
-0.079579212 -0.020245841 0.0098716719
-0.081819668 -0.019329915 0.009784705
-0.078512132 -0.01830747 0.0099126799
-0.04161182 -0.010777719 0.008591325
-0.037162203 -0.011107227 0.0079384595
-0.050482932 -0.0018317092 0.0089919539
-0.044983 -0.0049881772 0.0047881436
-0.035071127 -0.0053172647 0.0044045504
-0.026102824 -0.0025802362 0.0075679584
-0.019306414 -0.00029832395 0.0092732515
-0.050556239 0.0033438676 0.0086679319
-0.045588095 0.0052385307 0.0037201475
-0.035083316 0.0050029475 0.0030519678
-0.02492536 0.0049161417 0.0050299261
-0.015224003 0.005108688 0.0062523396
-0.0052853082 0.0072710193 0.0070492271
0.0044432278 0.0085685942 0.0079758996
0.010931673 0.0095659802 0.0093446011
-0.044297375 0.011356057 0.0076213409
-0.034545738 0.013019895 0.00683353
-0.0249737 0.015233391 0.005805403
-0.015068403 0.015153108 0.003697399
-0.0049355906 0.014944847 0.0026530209
0.0051477081 0.014595833 0.0028617957
0.014707917 0.015194792 0.0054526096
0.023793442 0.017817637 0.0076553696
0.030591184 0.019767005 0.0096532591
-0.02173089 0.021179508 0.0085679805
-0.014326544 0.024194269 0.0067404192
-0.0051454492 0.025296785 0.0027726758
0.0049909563 0.02503334 0.00048961642
0.015089646 0.024851266 0.0010143425
0.025121231 0.024738571 0.0032233687
0.034527235 0.025538787 0.0060808575
0.043053947 0.02795429 0.0079354774
-0.010451454 0.030450596 0.0095130783
-0.0039327578 0.033236682 0.0067165033
0.0048719714 0.035265103 0.0045608175
0.01488229 0.035208568 0.0022544542
0.02501538 0.035085324 0.0014652265
0.035095066 0.034900215 0.0021279005
0.045293197 0.034907296 0.0049959631
0.050911181 0.036821838 0.0087257745
0.0075600599 0.04111426 0.0084962202
0.015670728 0.043172836 0.0069537382
0.025006715 0.045152262 0.005436047
0.034993064 0.045235194 0.003310584
0.045158166 0.045065261 0.0052485475
0.05076766 0.042595468 0.0087462766
0.028127871 0.050918642 0.0089727249
0.035420451 0.052055325 0.0077351071
0.042887125 0.051540487 0.0081646079
-0.13358347 -0.045651574 0.01160709
-0.12565084 -0.043093301 0.012409598
-0.11767859 -0.041029543 0.011813735
-0.12328764 -0.03823331 0.011973586
-0.11435334 -0.035889585 0.012706106
-0.10576051 -0.033291616 0.013015658
-0.097888716 -0.031047756 0.012300771
-0.1032534 -0.028259896 0.012515473
-0.094331414 -0.025951032 0.013068613
-0.085681453 -0.023239003 0.01319762
-0.078009844 -0.020975964 0.012786009
-0.083102755 -0.018428607 0.012890993
-0.074350379 -0.016120985 0.013062402
-0.065759502 -0.013135308 0.013230732
-0.058290146 -0.010968345 0.013568918
-0.042639527 -0.011392481 0.014785111
-0.036286891 -0.011959467 0.014921447
-0.062974721 -0.0084378915 0.013225592
-0.054039869 -0.0055545112 0.013969774
-0.04757978 -0.0076097115 0.015179373
-0.031680901 -0.0084612565 0.015321889
-0.025080958 -0.0037987279 0.015010124
-0.019104322 -0.00048883684 0.015013674
-0.051292703 0.004912185 0.014923542
-0.049701881 0.009444287 0.016170094
-0.014211295 0.0014355396 0.015045648
-0.0049711266 0.0040847999 0.014950348
0.0049339957 0.0064997515 0.014920805
0.012566651 0.0088571683 0.015099398
-0.05005426 0.010090759 0.013696435
-0.045177881 0.012443254 0.01492977
-0.03492992 0.015414219 0.014997887
-0.027797863 0.018755756 0.01477354
0.017362326 0.011330909 0.014568784
0.024994217 0.015177836 0.014848927
0.03242211 0.018807212 0.015273118
-0.02279469 0.022097489 0.015144528
-0.016307734 0.027066128 0.014897102
0.037595723 0.023651514 0.015786592
0.044696644 0.026601857 0.015211891
0.050508015 0.029324519 0.017083777
-0.011396409 0.031184003 0.015184617
-0.00515152 0.035844602 0.014974705
0.0011044363 0.039456952 0.013888823
0.038454741 0.03087702 0.017149445
0.044189565 0.030382684 0.015338942
0.052742366 0.03494484 0.015039625
0.0059680026 0.042117823 0.015209981
0.015035021 0.046644453 0.014996113
0.025191661 0.049160317 0.015593932
0.031975936 0.048842296 0.016968329
0.049197428 0.048896063 0.011124236
0.052612528 0.044921022 0.014982013
0.025741575 0.050996877 0.015026076
0.034897186 0.054371584 0.015119816
0.045063712 0.053643059 0.015074363
0.050521344 0.050528511 0.017764095
-0.041574538 -0.010707858 0.021160198
-0.037664458 -0.010900783 0.021429183
-0.050267693 -0.00093511638 0.020784635
-0.04488061 -0.0046819728 0.024268638
-0.03516918 -0.0050595738 0.024317482
-0.026103541 -0.0021162527 0.022291901
-0.019703001 -0.0001066373 0.020270713
-0.050593644 0.0032234685 0.021227131
-0.045393627 0.0052859555 0.025043631
-0.035058871 0.0050720475 0.025547419
-0.024823273 0.0048535625 0.024995057
-0.015211484 0.005057055 0.024178028
-0.0051331315 0.0067861564 0.023857523
0.0047777398 0.0079737818 0.023313902
0.011732924 0.0092764078 0.022094171
-0.043705329 0.011020398 0.021381695
-0.034394838 0.013131212 0.022598993
-0.025042878 0.015209499 0.024140177
-0.014953909 0.015051131 0.027338292
-0.0058816178 0.013747812 0.028774746
0.0053564738 0.012090332 0.02828718
0.015450246 0.013648401 0.026023261
0.024561251 0.016812781 0.024656983
0.031787228 0.019129973 0.022609642
-0.022205524 0.02133034 0.021696739
-0.014298729 0.024620138 0.02436981
-0.0073364046 0.025991268 0.028422141
0.026897803 0.021380099 0.028967639
0.036015481 0.023511674 0.025460798
0.044424333 0.027404949 0.024463434
0.050367262 0.029529069 0.021332348
-0.010816609 0.030794147 0.021236412
-0.0043959701 0.033928916 0.024530429
0.0039960872 0.037089013 0.026964681
0.011658971 0.039035071 0.029281924
0.048459388 0.03291085 0.028408447
0.052130293 0.035463266 0.024198415
0.0065935198 0.041658316 0.02294093
0.015301567 0.044732302 0.025070552
0.023675099 0.047761053 0.027158057
0.030712387 0.049519502 0.029117726
0.048394464 0.047053896 0.028205672
0.052096445 0.044428509 0.024148358
0.026577737 0.051861972 0.022993851
0.034542244 0.053860735 0.024705954
0.044547699 0.052982811 0.02458944
0.050513327 0.050518967 0.020987507
-0.0028485598 0.017560102 0.030701669
0.004907731 0.017109646 0.031275336
0.013557105 0.018564189 0.030677292
0.020230781 0.019931305 0.030026538
-0.0027267553 0.024267865 0.031062979
0.0049670287 0.025055645 0.032497961
0.01498641 0.024887105 0.032593451
0.024534479 0.025722047 0.0319883
0.034192815 0.027871918 0.031274784
0.041730471 0.029420823 0.030518334
-0.00054362539 0.03043735 0.030171195
0.0061800587 0.032498151 0.031197693
0.015188389 0.03480434 0.032247528
0.025016608 0.034953307 0.033599366
0.035004225 0.034867056 0.033839766
0.044186145 0.035408933 0.032273374
0.018328542 0.041035961 0.030657109
0.025707351 0.043245703 0.031838767
0.035034556 0.045023132 0.033259198
0.044148818 0.044586774 0.032292355
0.03660243 0.050724152 0.030639354
0.041224696 0.050534401 0.030496908
