# .PCD v0.7 - Point Cloud Data file format
VERSION 0.7
FIELDS x y z
SIZE 4 4 4
TYPE F F F
COUNT 1 1 1
WIDTH 201
HEIGHT 1
VIEWPOINT 0 0 0 1 0 0 0
POINTS 201
DATA ascii
0.028433744 -0.030608686 -3.6790392e-05
0.03098551 -0.030434707 -2.0260297e-05
0.025977019 -0.025509289 -0.00014037298
0.031234479 -0.028102547 -7.3459079e-05
-0.011248278 0.012479299 -4.7676735e-05
0.046427734 -0.06185228 0.0077748639
0.054410968 -0.062053237 0.0075197504
0.060665686 -0.060521357 0.0093118204
0.036610968 -0.053068426 0.0072107976
0.045208782 -0.054714166 0.0042002266
0.054647136 -0.054494314 0.0040420652
0.062730998 -0.05436286 0.007039676
0.019821577 -0.040092479 0.0098354453
0.026331153 -0.043443084 0.0069017964
0.034709767 -0.045258116 0.0030513913
0.045759313 -0.045484141 0.0032208972
0.0544069 -0.045407407 0.0037734983
0.062838204 -0.045513056 0.0070932289
0.016257273 -0.033807945 0.0065166764
0.024578633 -0.035502713 0.0024347177
0.035128307 -0.035101231 0.00039638183
0.045281738 -0.03476296 0.0021582842
0.054135125 -0.035839673 0.0064669778
0.060810503 -0.039196949 0.0092927329
0.0077093029 -0.023423603 0.0075825001
0.014697325 -0.025299191 0.0030869525
0.023586625 -0.023990976 0.0002795028
0.035698488 -0.024473388 0.0019371703
0.044096034 -0.025890253 0.006279246
0.050530698 -0.029458426 0.0091310926
-0.0016072142 -0.011923661 0.0082467906
0.004960415 -0.014959374 0.0054742396
0.015007865 -0.015016566 0.0021009063
0.025190679 -0.014642416 0.0026811794
0.034129668 -0.01585173 0.0062179891
0.040615503 -0.01935887 0.0091400463
-0.012377424 -0.0018534544 0.0079502482
-0.004830542 -0.0049208468 0.0061352737
0.005030714 -0.0049642711 0.0041707172
0.014966588 -0.0049532834 0.0054976963
0.023744643 -0.0077462075 0.0074042538
0.030221054 -0.0098945014 0.0098971268
-0.021534007 0.006236528 0.0075306059
-0.015385713 0.0046476685 0.0040284377
-0.0050610784 0.0050495644 0.0036539605
0.00475488 0.0048300247 0.0061410484
0.011888141 0.001536891 0.0083382893
-0.021147087 0.012398786 0.0076823514
-0.015288563 0.0152645 0.0038187422
-0.0048118504 0.015268726 0.00447175
0.0015347027 0.011753439 0.0080192219
-0.012556172 0.021160107 0.0078141689
-0.0065539959 0.021399438 0.0076444419
-0.041235019 0.039222013 0.0099525815
-0.051521901 0.049074285 0.0097153448
-0.046361715 0.044607811 0.0098396502
-0.061952014 0.058349915 0.0094122449
-0.056199107 0.054115821 0.0095507782
-0.072614059 0.067997918 0.009067568
-0.066189535 0.063957654 0.0092990194
-0.059799988 0.060304116 0.0099561559
-0.083099179 0.077292204 0.009191121
-0.076255172 0.073884323 0.0090896795
-0.069800444 0.070298061 0.0097712092
-0.090883076 0.085033327 0.0097340588
-0.085671604 0.082835153 0.0094835097
-0.079403311 0.08061818 0.009780624
0.039190285 -0.060826935 0.016898334
0.044721488 -0.064025685 0.014888234
0.055154588 -0.064986765 0.014858728
0.061953072 -0.061701849 0.015582153
0.029099943 -0.050808333 0.015907886
0.034488291 -0.055607177 0.014783788
0.040280934 -0.059755154 0.010385904
0.050413411 -0.050061245 0.019972768
0.06602937 -0.055190701 0.014862576
0.018930746 -0.040988874 0.015661905
0.024297588 -0.045913167 0.014740547
0.030161157 -0.049973361 0.010114652
0.048657928 -0.04751984 0.019505799
0.050723519 -0.04851253 0.019707626
0.066525839 -0.044862945 0.014964474
0.0094435839 -0.030832469 0.015742507
0.013885614 -0.035847526 0.014768179
0.056883644 -0.033015281 0.014566166
0.06245124 -0.037817825 0.015371679
0.0058643701 -0.024964329 0.014991536
0.010043465 -0.029803099 0.010186916
0.046738811 -0.023236653 0.014596527
0.052034851 -0.028124196 0.015440663
-0.0021787602 -0.013195493 0.014968704
0.0012358696 -0.01821514 0.014965674
0.036346581 -0.013330459 0.014719071
0.041794844 -0.018292241 0.015259308
-0.013848552 -0.002371025 0.014824827
-0.0070782988 -0.0074267974 0.015000397
0.018166486 -0.0012527255 0.014856083
0.024928782 -0.0054447637 0.014855535
0.031428307 -0.0091387518 0.015497163
-0.022749657 0.0049527069 0.014941412
-0.018727826 0.00061824801 0.015565656
0.0069864169 0.0069021359 0.014885404
0.013217824 0.0020021424 0.015109097
-0.021973066 0.01503921 0.014612044
-0.018365949 0.018852104 0.015360302
-0.0012130741 0.017687192 0.015053237
0.0021053008 0.012827108 0.015052627
-0.032069366 0.027992498 0.013130942
-0.025322596 0.02455264 0.013570782
-0.014500937 0.021670487 0.014877176
-0.0057002516 0.022376778 0.014958405
-0.042358402 0.037816942 0.012957335
-0.035498735 0.034477755 0.013026143
-0.029195882 0.030771857 0.013300767
-0.052484147 0.047516882 0.012746445
-0.04554759 0.044332743 0.012959599
-0.039027456 0.04083981 0.012916784
-0.06263607 0.057292901 0.012676889
-0.055699538 0.05421795 0.012973335
-0.049187537 0.050741632 0.012496324
-0.072781809 0.067252934 0.012240716
-0.065779239 0.064130306 0.012802901
-0.059503574 0.060450476 0.012147659
-0.082906783 0.076598249 0.011533163
-0.075611673 0.07417997 0.012351911
-0.069548763 0.070511729 0.011705582
-0.090921871 0.085380644 0.010385387
-0.085395411 0.08381249 0.011256261
-0.078994058 0.080992728 0.011362584
0.03945116 -0.060519814 0.02162615
0.04529829 -0.062981024 0.024703644
0.054989282 -0.063668787 0.025102209
0.061504513 -0.061410446 0.022803044
0.029375367 -0.050621141 0.021305706
0.035490148 -0.054506823 0.024829004
0.045227025 -0.054692332 0.027087394
0.052908104 -0.052112438 0.025567342
0.064636774 -0.055147178 0.025172267
0.01922177 -0.040681284 0.021295693
0.025577219 -0.044506196 0.024783343
0.032031931 -0.047937147 0.02828446
0.047256283 -0.046341565 0.025043273
0.05272913 -0.046809383 0.025188817
0.064882793 -0.04482732 0.025239309
0.0097489525 -0.030449865 0.020808563
0.015574035 -0.034539659 0.024650667
0.022151366 -0.037714098 0.028224844
0.048551384 -0.031262465 0.028909737
0.055495188 -0.034440856 0.025659474
0.062038362 -0.038276896 0.023057517
0.0075536664 -0.024102185 0.023190685
0.012576412 -0.025763031 0.027773099
0.038131282 -0.021698793 0.028724005
0.045075696 -0.024861908 0.025404707
0.051514301 -0.028588915 0.022603214
-0.0015959934 -0.012066975 0.021931209
0.0048429323 -0.015165209 0.025239281
0.013983084 -0.014046758 0.029055418
0.025706427 -0.012349932 0.028079102
0.034718208 -0.015051757 0.024982659
0.041366123 -0.018804964 0.021991216
-0.011908255 -0.0017170854 0.0218042
-0.0048464662 -0.0048837899 0.023916898
0.0049431012 -0.0050792973 0.026253583
0.015186974 -0.0048282798 0.02524833
0.024271185 -0.0074335169 0.023327343
0.030830175 -0.0095246797 0.021190861
-0.021378124 0.0063574798 0.021859515
-0.015221946 0.0048902575 0.02487676
-0.0049949153 0.0050450959 0.02562711
0.0049168426 0.0047245263 0.023697957
0.012074768 0.0015856038 0.021872295
-0.02110205 0.012300265 0.021660646
-0.015154952 0.015163346 0.025064448
-0.0050856806 0.014977016 0.02446012
0.0015252914 0.011505905 0.021472935
-0.012364292 0.021004338 0.02147519
-0.0070403377 0.021162314 0.021753816
0.048467502 -0.060462903 0.030355325
0.052785628 -0.060636602 0.030590955
0.038706936 -0.051299144 0.030735051
0.045836046 -0.05417582 0.032263752
0.05454918 -0.054573081 0.032456484
0.061150301 -0.052692868 0.03076859
0.028920308 -0.041095778 0.030597607
0.035684235 -0.044417989 0.032191575
0.045139786 -0.045114916 0.033095662
0.054837301 -0.045094222 0.032501403
0.0611591 -0.046869688 0.030851949
0.018993326 -0.03098404 0.030445572
0.025760787 -0.034251474 0.03190577
0.034976941 -0.035031598 0.033395097
0.044828411 -0.035195619 0.032608513
0.052470379 -0.037912633 0.031215919
0.017505409 -0.024574239 0.031087043
0.024924004 -0.025083024 0.032600608
0.034582369 -0.025492413 0.032081429
0.041803397 -0.028398741 0.03099368
0.017205397 -0.017199703 0.030669563
0.024767941 -0.017254179 0.031185212
0.031512156 -0.0189071 0.030664416
