# .PCD v0.7 - Point Cloud Data file format
VERSION 0.7
FIELDS x y z
SIZE 4 4 4
TYPE F F F
COUNT 1 1 1
WIDTH 501
HEIGHT 1
VIEWPOINT 0 0 0 1 0 0 0
POINTS 501
DATA ascii
0.035781149 -0.1805519 -0.00012288925
0.037015982 -0.17796353 -0.00011476466
0.041019998 -0.1780621 -0.00011182112
-0.030458495 0.12803161 -3.0648098e-05
-0.025789205 0.1279833 -0.00024417476
-0.02398907 0.13100921 -0.00028601396
0.019236749 -0.18236193 0.0084359935
0.025167599 -0.18452513 0.005416296
0.034984544 -0.18324353 0.0043984423
0.042703111 -0.18115011 0.0055749724
0.017668299 -0.17435028 0.007137211
0.024794616 -0.17520268 0.002292353
0.034253187 -0.17406517 0.00028954865
0.045983389 -0.17550099 0.0031270885
0.051157705 -0.17458008 0.0076028313
0.015947301 -0.16478705 0.0061011529
0.024911335 -0.16508493 0.0017276595
0.035003103 -0.16506636 0.00089557527
0.045257907 -0.16524294 0.0047942423
0.050206836 -0.16946541 0.0089938696
0.0092319893 -0.15208711 0.0088444334
0.014745307 -0.15496007 0.0050260853
0.02486456 -0.15497997 0.0017431185
0.035302583 -0.15497103 0.0021704789
0.042643957 -0.15548058 0.0065313168
0.00779917 -0.14432696 0.0076350756
0.01490209 -0.14510915 0.0036160941
0.025129981 -0.14495623 0.0019589495
0.035490785 -0.14494129 0.0047196778
0.040796567 -0.14810096 0.0084912935
0.0058028433 -0.13465586 0.0066066906
0.014843257 -0.13499586 0.0030203843
0.025044329 -0.13490415 0.0027567972
0.033505596 -0.13557604 0.0064185644
-0.0010622693 -0.12303104 0.0087039424
0.0046192934 -0.12495569 0.0052285674
0.014985799 -0.12486871 0.0026616727
0.025359569 -0.12467606 0.0043589738
0.031359132 -0.12686688 0.0080885496
-0.0030233131 -0.11457238 0.0072440808
0.0049742968 -0.11495668 0.00365688
0.014986434 -0.11504675 0.0027470633
0.024546932 -0.11518306 0.0061751017
-0.010646353 -0.10143275 0.0092133973
-0.0050838529 -0.10491474 0.0060013728
0.0049913619 -0.10500594 0.0027132377
0.015159373 -0.10506917 0.0033729733
0.022476858 -0.1056154 0.0073598889
-0.012255518 -0.094263688 0.0076955622
-0.0052045872 -0.095113225 0.0039376267
0.0051621338 -0.095109358 0.0023830084
0.015361698 -0.094964743 0.0051838737
0.020722119 -0.097840734 0.0087127713
-0.014552551 -0.084616862 0.0064463504
-0.0049478393 -0.085064799 0.0027583626
0.0051817535 -0.084969722 0.0026842419
0.013720748 -0.085288048 0.0065167733
-0.021275679 -0.073600188 0.0083508082
-0.015269219 -0.075048812 0.0046595265
-0.0050511318 -0.075028524 0.0023827159
0.0053740102 -0.074991927 0.0039215647
0.011736007 -0.076056078 0.0080263605
-0.023419991 -0.064301975 0.0071797715
-0.015150483 -0.064951219 0.0034317011
-0.0048448928 -0.065034449 0.002587239
0.004756819 -0.065217778 0.005863938
0.010206811 -0.069522113 0.0095770769
-0.030309262 -0.05114118 0.0093497075
-0.025026087 -0.054820135 0.0062482874
-0.014990281 -0.055136189 0.0030121226
-0.0048575602 -0.054878708 0.0035499311
0.0025318549 -0.055775683 0.0072399084
-0.031599991 -0.044129983 0.0083044581
-0.02520977 -0.045268718 0.0049639931
-0.014859746 -0.045040056 0.0032220159
-0.0046736593 -0.044985577 0.005770551
0.00077063311 -0.048532527 0.0087130349
-0.033352017 -0.034670804 0.0073779123
-0.025111062 -0.034912709 0.0043576607
-0.01491844 -0.035113581 0.0040973225
-0.0067522982 -0.035869777 0.0072209015
-0.040436972 -0.021376295 0.0095600262
-0.034946639 -0.024843393 0.0067776768
-0.024977654 -0.024992125 0.0044767512
-0.014934136 -0.024985023 0.0059532295
-0.0090584913 -0.028010109 0.0086495904
-0.041716486 -0.014116614 0.0085616093
-0.035152569 -0.015117376 0.0059958971
-0.024842754 -0.01491234 0.0051670447
-0.01671808 -0.015542649 0.0075592957
-0.043482896 -0.0044911392 0.0079791956
-0.035094045 -0.0049344534 0.0058367481
-0.024909968 -0.0050009061 0.0065983385
-0.018931301 -0.0077498578 0.0088322368
-0.05063951 0.0083195828 0.0095435409
-0.045048341 0.0051978156 0.0075639328
-0.035108898 0.0050381618 0.006019657
-0.026486393 0.0044133235 0.0077691586
-0.052111991 0.016039735 0.0088257715
-0.045062177 0.015106341 0.006913512
-0.034946535 0.015169495 0.0069345678
-0.028649995 0.013182508 0.0088856649
-0.053997733 0.025239518 0.0082467487
-0.044952646 0.025055725 0.0065602264
-0.035875048 0.024486432 0.0079074604
-0.061590973 0.036705378 0.009096791
-0.055219375 0.034835327 0.0072349971
-0.045127828 0.035119485 0.0065224594
-0.038096018 0.034119576 0.0085675074
-0.12666629 0.048068382 0.0053206193
-0.063793279 0.04554164 0.0080914879
-0.05513934 0.045098912 0.0061415499
-0.045144398 0.04481541 0.0072250455
-0.039613701 0.041341837 0.0094195642
-0.12469241 0.05510119 0.0047704624
-0.071701922 0.057089277 0.0087918779
-0.065038964 0.055025667 0.0066774101
-0.05489675 0.054996617 0.0054898849
-0.046394922 0.054718174 0.007524427
-0.12361942 0.064506255 0.0047780084
-0.11788105 0.065719225 0.0055699302
-0.074061014 0.06538222 0.0080954945
-0.064837523 0.064859167 0.0064582699
-0.054918334 0.065283537 0.0058024041
-0.047772072 0.064564399 0.0080951322
-0.12193262 0.074742138 0.0053815674
-0.11438934 0.075112298 0.0043952721
-0.1096757 0.079486229 0.0080183642
-0.082126468 0.076774895 0.0078656301
-0.075089656 0.074787132 0.0073116994
-0.064914025 0.075145476 0.0074979397
-0.054678846 0.07499586 0.0074731195
-0.049242079 0.072229616 0.0086943945
-0.12035952 0.080959387 0.0063000186
-0.11609398 0.085109971 0.004698371
-0.10579923 0.08543428 0.0055082175
-0.099989869 0.089980923 0.009451787
-0.084906779 0.085324541 0.0065199132
-0.074899949 0.084846288 0.0056563858
-0.064997129 0.084980093 0.0058958842
-0.05603911 0.084935255 0.0073770084
-0.11351761 0.094519921 0.0060245898
-0.10487983 0.094977118 0.0037808956
-0.095108308 0.094574645 0.0055933893
-0.085588261 0.094495811 0.0048084301
-0.074973896 0.094904035 0.0045198635
-0.064986818 0.094925314 0.004764956
-0.056693316 0.095040329 0.0065081604
-0.11090904 0.10124902 0.0079223486
-0.10505742 0.10488887 0.0059209634
-0.095157146 0.10489934 0.0040822271
-0.085069567 0.10506471 0.0037250365
-0.074942797 0.10526831 0.0036167125
-0.065008916 0.10492308 0.0037546637
-0.055305202 0.10525071 0.0060211564
-0.049643822 0.10961491 0.0092450343
-0.10180018 0.11162929 0.0077711563
-0.094593786 0.11478837 0.0064154388
-0.085180417 0.11501672 0.0044073896
-0.074944526 0.1150938 0.003662247
-0.06492804 0.11500167 0.0033378233
-0.054873947 0.1147752 0.0041750409
-0.04524596 0.11556328 0.0067775566
-0.035028823 0.11642563 0.0054990333
-0.025354574 0.11677968 0.0059057255
-0.018647067 0.11828239 0.0080585424
-0.090318322 0.12020968 0.0083060637
-0.084382027 0.12235057 0.0070219515
-0.07488925 0.12472693 0.0061152414
-0.064839765 0.12521888 0.0057987534
-0.055031031 0.12460645 0.0063811583
-0.045157135 0.12542948 0.0052714138
-0.035201699 0.12491578 0.0016497971
-0.023255587 0.12463964 0.0019201752
-0.019148825 0.12376496 0.0060568736
-0.042575762 0.1326503 0.0074327155
-0.03497513 0.1352136 0.004273294
-0.024520162 0.13489148 0.0041159345
-0.031799324 0.14054874 0.0088789295
-0.027275408 0.14102793 0.00798494
0.018624689 -0.1833505 0.015039214
0.024777535 -0.18759908 0.014976135
0.035051849 -0.18425825 0.015023513
0.04303528 -0.18121502 0.014914333
0.015750073 -0.17491992 0.015046295
0.048031989 -0.17924365 0.015006226
0.051854651 -0.1747385 0.015022723
0.01246414 -0.16492392 0.01497616
0.04844914 -0.16374899 0.015003756
0.050500307 -0.1686912 0.015031785
0.0086135752 -0.15392643 0.015154476
0.010417086 -0.15874472 0.015022811
0.044815723 -0.1549433 0.014903778
0.0055080806 -0.14497556 0.014922666
0.039211061 -0.14183094 0.015217274
0.04135038 -0.14668752 0.014811669
-0.00015137794 -0.13028792 0.015662178
0.0019642846 -0.13520421 0.014976358
0.036414567 -0.13505253 0.015088333
-0.0021367127 -0.12478665 0.014889299
0.00025606464 -0.12947576 0.012189045
0.029942026 -0.12015909 0.016573288
0.032288421 -0.1249768 0.015014417
-0.0062384033 -0.114967 0.015041753
0.028152883 -0.11453882 0.015033157
0.030250264 -0.11938012 0.014671847
-0.011322162 -0.10304309 0.015318681
-0.0091237398 -0.10801098 0.014907737
0.024435973 -0.10489152 0.015033117
-0.014686792 -0.095008813 0.014914572
0.019402293 -0.09158878 0.015591063
0.021352503 -0.09640421 0.014958347
-0.020484921 -0.081126042 0.015325339
-0.018389773 -0.085965224 0.014932574
0.017025104 -0.084945284 0.015075821
-0.022817146 -0.075033292 0.014870958
0.013190187 -0.075134791 0.0148602
-0.026759265 -0.065018579 0.014957891
0.0085028205 -0.063751064 0.015136571
0.010577684 -0.068559654 0.014899804
-0.031182218 -0.053319413 0.015282647
-0.029283218 -0.058115043 0.014290084
0.0048101172 -0.05491152 0.015051569
-0.034040499 -0.045037683 0.0147907
-0.00089235645 -0.042057604 0.015013512
0.0013759416 -0.04687915 0.015173748
-0.037614532 -0.034799889 0.014873068
-0.0041068196 -0.03492339 0.01502846
-0.041373737 -0.024205992 0.015331318
-0.039449167 -0.028476499 0.013376258
-0.010592129 -0.021297459 0.014630349
-0.0082059195 -0.026023097 0.015091121
-0.044512745 -0.015035582 0.014935853
-0.013373473 -0.015026175 0.014943039
-0.050165631 -0.0004093356 0.016413389
-0.048008826 -0.0051709041 0.014784688
-0.02039887 -0.00096927973 0.0136442
-0.017812019 -0.0053212056 0.015152827
-0.051949099 0.0052741724 0.015255951
-0.049428336 0.0015822564 0.010859814
-0.022584789 0.005117083 0.014976989
-0.01993872 0.0001597863 0.016108291
-0.055518802 0.015057251 0.014910714
-0.030255649 0.019670805 0.010212085
-0.027011063 0.015014853 0.014922523
-0.060941152 0.027893711 0.015689475
-0.058534659 0.023425795 0.014321067
-0.031700134 0.02592103 0.014765199
-0.029500989 0.021283785 0.015850002
-0.063945055 0.034933023 0.014792913
-0.05989264 0.030123303 0.010070049
-0.03533427 0.035045449 0.014891419
-0.12715922 0.048540812 0.011329276
-0.07082168 0.048499204 0.01609553
-0.068029091 0.043867897 0.014525269
-0.040582903 0.048404232 0.013565106
-0.038535845 0.04418071 0.015176469
-0.1250754 0.055458654 0.013605403
-0.073586784 0.054983992 0.014821432
-0.069836222 0.050426986 0.010482884
-0.042272281 0.055125874 0.014914018
-0.12271462 0.064919576 0.014930759
-0.11858784 0.067298703 0.013006751
-0.077181771 0.065069623 0.01482574
-0.045609206 0.06504935 0.014924427
-0.12134334 0.074920088 0.015191017
-0.11632358 0.075830556 0.01492249
-0.1096693 0.079659827 0.010121278
-0.082399949 0.076022185 0.014796476
-0.079518847 0.071117736 0.015043336
-0.051368885 0.077633075 0.014909253
-0.048811469 0.072696537 0.015230707
-0.12018594 0.080630951 0.013403798
-0.11540274 0.08451505 0.01543139
-0.10575827 0.087592848 0.014711883
-0.099857002 0.089890175 0.015061458
-0.086647771 0.085067287 0.015015024
-0.053584963 0.084948368 0.015095931
-0.11425871 0.095066562 0.015062031
-0.1056866 0.090293504 0.015816482
-0.094736286 0.092489377 0.014962829
-0.089339979 0.09128125 0.014867494
-0.055055011 0.094929904 0.014962973
-0.11100397 0.10149532 0.014949171
-0.10742294 0.10647742 0.015008498
-0.053173255 0.10419162 0.01501606
-0.04822493 0.10878038 0.015354958
-0.10235336 0.11204874 0.01505082
-0.095154956 0.1172171 0.014921755
-0.043429747 0.11166885 0.014928012
-0.035026912 0.11287948 0.014976679
-0.024921259 0.11368231 0.014995089
-0.01782405 0.11691519 0.014545746
-0.090275511 0.1201281 0.014700934
-0.084951103 0.12265097 0.014957953
-0.075051397 0.12698923 0.014909114
-0.065090597 0.12929381 0.014951739
-0.054882701 0.12909694 0.014647018
-0.049263857 0.12976326 0.010787151
-0.020199085 0.12947263 0.01449986
-0.018530166 0.12458867 0.015092947
-0.0502364 0.13017434 0.018445572
-0.044846281 0.13369215 0.014904751
-0.037941355 0.1389344 0.014994686
-0.022420524 0.13509271 0.015043059
-0.033071041 0.14129588 0.015047637
-0.026712319 0.14207515 0.015041066
0.019261951 -0.18223192 0.021111177
0.025010975 -0.18505369 0.024710922
0.034662221 -0.18367074 0.025343988
0.042722996 -0.18125162 0.024010792
0.017924156 -0.17438471 0.022766687
0.024662279 -0.1750509 0.027342806
0.035021141 -0.17499453 0.028335458
0.045496952 -0.17535435 0.025467647
0.051030971 -0.17516074 0.021723267
0.015923191 -0.16469949 0.023938555
0.025011197 -0.1651178 0.028143246
0.035090853 -0.16508107 0.02803711
0.044611916 -0.16516535 0.024200089
0.050119955 -0.16958034 0.020353643
0.0093297204 -0.15224731 0.021187164
0.014575833 -0.15520798 0.025157254
0.024879083 -0.15492551 0.028078184
0.035241246 -0.15491414 0.026605582
0.042481903 -0.15566291 0.022716044
0.0077811382 -0.14438897 0.022814091
0.01472561 -0.14517622 0.026764672
0.02494989 -0.14510368 0.02763905
0.03533195 -0.1449897 0.024308996
0.040781755 -0.14829725 0.02106397
0.005542329 -0.13462883 0.023968568
0.015042936 -0.1349335 0.027390214
0.025016908 -0.13483654 0.026754303
0.033282101 -0.13552704 0.022943545
-0.0014044148 -0.12324882 0.02178539
0.0046993489 -0.12511823 0.025642911
0.014997438 -0.12505437 0.027566629
0.025323793 -0.12495325 0.025020428
0.031205626 -0.12667434 0.02151265
-0.0035374344 -0.11437435 0.023567226
0.0048665921 -0.11490565 0.02733214
0.015095604 -0.11490707 0.027266959
0.02414556 -0.11522208 0.023577033
-0.010804965 -0.10186072 0.021541689
-0.0052354075 -0.10518854 0.025264943
0.0049874568 -0.10505122 0.028032215
0.015195411 -0.10477538 0.026358269
0.02203336 -0.10568202 0.022428967
-0.01272145 -0.094382301 0.023284769
-0.0051292055 -0.095028922 0.027498849
0.0051036398 -0.094987728 0.028153075
0.015224496 -0.095054507 0.0245947
0.020561744 -0.098556764 0.020767396
-0.020172216 -0.080425814 0.020749884
-0.01507517 -0.084855236 0.024638951
-0.0051113293 -0.084877715 0.02840898
0.0050635724 -0.084830217 0.027606566
0.013654261 -0.085414991 0.023421094
-0.021696469 -0.074045777 0.022625823
-0.015335918 -0.075133353 0.026995936
-0.0048697945 -0.074987605 0.028619874
0.0053319163 -0.074786671 0.026170306
0.011662309 -0.075888045 0.021911589
-0.024005039 -0.064549483 0.024013408
-0.015089485 -0.06501475 0.028160449
-0.004925021 -0.065001808 0.028083425
0.0048908363 -0.065200999 0.024085023
0.010213322 -0.069482297 0.020408431
-0.030693904 -0.052212823 0.021496966
-0.025426075 -0.055225883 0.025342671
-0.014890513 -0.054935839 0.028292786
-0.0048405323 -0.054836385 0.026801417
0.0025808562 -0.055651713 0.022718636
-0.032392845 -0.044529755 0.022822812
-0.025228066 -0.045135591 0.027005376
-0.014856846 -0.044955257 0.027767707
-0.0047901622 -0.045064632 0.02451919
0.00075188919 -0.048239581 0.021135919
-0.034250986 -0.034714457 0.023953902
-0.025004651 -0.035026494 0.027298078
-0.014962134 -0.035026431 0.026651699
-0.0068194573 -0.035680898 0.022966009
-0.040970944 -0.022573551 0.02146424
-0.035511557 -0.025118448 0.024987696
-0.025156925 -0.024979485 0.026920641
-0.014733718 -0.02500945 0.024473254
-0.0088711558 -0.027721914 0.021344751
-0.042536523 -0.014756606 0.022741983
-0.035208173 -0.015058199 0.026091225
-0.024916615 -0.014942936 0.026024695
-0.016521916 -0.015433805 0.022749467
-0.044577319 -0.0047659897 0.023535147
-0.03499084 -0.0049897362 0.0260858
-0.024820397 -0.0048901034 0.024298187
-0.018745478 -0.0071673146 0.021370558
-0.051246122 0.0064755804 0.021598801
-0.045334578 0.0047993851 0.024702035
-0.035094813 0.0052173049 0.025559856
-0.026292374 0.0044814176 0.022894016
-0.05325225 0.015467758 0.022793818
-0.045007043 0.015074236 0.025447499
-0.034957878 0.015117601 0.024339816
-0.028440008 0.013681336 0.021570545
-0.060540669 0.0287014 0.021064354
-0.055171791 0.025112025 0.023796426
-0.044876333 0.025166532 0.025443729
-0.035382431 0.02469825 0.022868307
-0.029791819 0.020263109 0.020045621
-0.062539592 0.035919983 0.022680314
-0.055092476 0.034894392 0.025532233
-0.044894289 0.034952614 0.024998371
-0.03750195 0.034547091 0.021997467
-0.12638815 0.047901649 0.025112256
-0.070479281 0.049132116 0.021119973
-0.065063179 0.04518969 0.024128184
-0.055098839 0.044896957 0.026289362
-0.044559013 0.045106489 0.024031185
-0.039138068 0.042075053 0.020909423
-0.12438923 0.054819793 0.024881355
-0.11980806 0.059623308 0.026685204
-0.072593562 0.055848774 0.02294171
-0.065206148 0.05477313 0.0265256
-0.055019006 0.055002842 0.026778394
-0.045899723 0.054775316 0.023408849
-0.12410166 0.064732797 0.024580497
-0.11760332 0.065282099 0.024976941
-0.075108021 0.065161057 0.024262698
-0.065144598 0.064876489 0.026481295
-0.054939929 0.064930215 0.026297014
-0.047360271 0.064623646 0.022569569
-0.12161255 0.074966095 0.024876511
-0.11300767 0.074414611 0.024333401
-0.10926655 0.079019584 0.025981523
-0.081904493 0.076707795 0.023191728
-0.075559318 0.074659146 0.025071338
-0.064929985 0.074886709 0.025245111
-0.054799974 0.075216018 0.02441862
-0.048835479 0.072543472 0.021864399
-0.12003732 0.080130547 0.022448275
-0.11758238 0.085319646 0.025828104
-0.10508838 0.085466437 0.025294824
-0.098368727 0.089838877 0.025277521
-0.085262597 0.085643671 0.025247674
-0.074947223 0.084975578 0.027014626
-0.064886391 0.084994048 0.026197778
-0.055445738 0.085066505 0.024132639
-0.11349502 0.094718821 0.025704492
-0.1046556 0.095792241 0.029824479
-0.094972663 0.093716294 0.026503369
-0.085365035 0.094493501 0.028166199
-0.074998006 0.094995864 0.028188385
-0.065025561 0.095046461 0.027407551
-0.056396138 0.095074981 0.024700882
-0.11075091 0.10146026 0.024376856
-0.10579815 0.10535432 0.026929468
-0.094933435 0.10502021 0.029653993
-0.085005417 0.10493429 0.029506924
-0.075033858 0.10507759 0.029039318
-0.064992778 0.10503698 0.028427592
-0.05528586 0.10529573 0.025081711
-0.049298085 0.10952172 0.020813299
-0.10210115 0.11188773 0.024791088
-0.094608441 0.1154791 0.026279245
-0.085097887 0.11502921 0.029226426
-0.074924484 0.11518168 0.02921864
-0.065040119 0.11511647 0.028896213
-0.054818563 0.11490881 0.027443878
-0.045443058 0.11506736 0.023716377
-0.034847938 0.11648666 0.023890274
-0.025530202 0.11699881 0.023820903
-0.018745413 0.1186858 0.022150004
-0.090104505 0.12003952 0.022026589
-0.084759675 0.12220625 0.024907729
-0.075038314 0.12508148 0.025786797
-0.065063015 0.12619495 0.025750143
-0.055257309 0.12547073 0.024832649
-0.045017768 0.12526746 0.025326224
-0.035137467 0.12478819 0.028329849
-0.024459973 0.12518293 0.028150396
-0.018878242 0.12464811 0.024081318
-0.066895537 0.13001725 0.022477753
-0.050396703 0.13013111 0.020304507
-0.043258376 0.13253969 0.022527182
-0.035226714 0.13536081 0.025612831
-0.024180921 0.13470706 0.02601362
-0.031656589 0.14063713 0.021478906
-0.026561053 0.14145602 0.022301733
-0.12462255 0.04883134 0.030528758
-0.12384938 0.055687588 0.031024558
-0.11994081 0.059790775 0.030081637
-0.1227017 0.064465694 0.031014681
-0.118468 0.066262625 0.030781461
-0.12127632 0.07319162 0.030527722
-0.11575427 0.075671904 0.030547626
-0.1096501 0.079281844 0.030099932
-0.11324432 0.083566613 0.030253548
-0.10874676 0.086467221 0.030155998
-0.11014342 0.090639815 0.030030159
-0.10634829 0.0930399 0.030088041
-0.033711389 0.12761845 0.030087521
