# .PCD v0.7 - Point Cloud Data file format
VERSION 0.7
FIELDS x y z
SIZE 4 4 4
TYPE F F F
COUNT 1 1 1
WIDTH 105
HEIGHT 1
VIEWPOINT 0 0 0 1 0 0 0
POINTS 105
DATA ascii
0.018163849 -0.02059627 -5.5924178e-05
0.020496568 -0.020322217 -3.4504566e-05
0.013830638 -0.017639128 -7.5680437e-05
0.020222533 -0.01972449 -2.0755979e-05
0.038828991 -0.040793482 0.0090454305
0.045932423 -0.042697597 0.0079259723
0.053559914 -0.043956731 0.0078307753
-0.011634433 -0.030689746 0.0074920421
-0.0047794017 -0.032733552 0.0067573278
0.004865149 -0.033360064 0.0067103589
0.014072539 -0.03154023 0.0076463902
0.026275655 -0.031761199 0.0079813609
0.035527356 -0.034315057 0.0072206818
0.043969031 -0.036798999 0.0065836641
0.050963305 -0.039298169 0.0065115415
-0.023596708 -0.022924837 0.006299993
-0.015222593 -0.025317622 0.0063362373
-0.0053300406 -0.026620131 0.0064719254
0.0059952228 -0.025824206 0.0061215889
0.0143378 -0.024781752 0.0047096512
0.024382511 -0.025020877 0.0058395313
0.033153728 -0.027949207 0.0060826866
-0.023751408 -0.01591319 0.0062699914
-0.015830325 -0.014313307 0.0064006094
-0.0087896148 -0.010650514 0.0072343587
0.0093781678 -0.014179565 0.0037969255
0.013270608 -0.01484664 0.0030417186
0.022549158 -0.015237766 0.0045486339
-0.014083168 -0.0067218961 0.0067674243
-0.0051903371 -0.0054216213 0.0063107139
0.0053620567 -0.0058249501 0.0060279593
0.015065482 -0.0054005925 0.0032586004
0.022686135 -0.0045528552 0.0056877751
-0.0030906997 0.0010636522 0.0075581572
0.0048582605 0.0015479192 0.0072725979
0.015402279 0.0015195319 0.0075361761
0.02561003 0.0043764515 0.0066715074
0.032190479 0.0071817758 0.0059514265
0.02795741 0.012452935 0.0079837646
0.035213333 0.014986208 0.0066198902
0.041708138 0.018129999 0.0055376813
0.037802409 0.022302093 0.007900659
0.044159967 0.024122477 0.0072994572
0.038221221 -0.041104741 0.013955881
0.045640156 -0.043774687 0.014947073
0.054373257 -0.04560804 0.015222744
-0.011641735 -0.030723244 0.014815613
-0.0048549362 -0.033046972 0.015933547
0.0049260557 -0.033886697 0.016127972
0.014570591 -0.031582825 0.014875188
0.025795573 -0.032417189 0.014518934
0.034956317 -0.035175931 0.015443284
0.043240495 -0.037412316 0.017450949
0.050659403 -0.039577067 0.019362871
-0.023984525 -0.023832601 0.01525166
-0.014896297 -0.025613075 0.016010864
-0.005037195 -0.025975501 0.016440647
0.0053419373 -0.02669161 0.016905766
0.012644746 -0.025431845 0.015759768
0.024771158 -0.025548834 0.015351634
0.032781273 -0.028164048 0.018500989
-0.024068935 -0.015128904 0.015266532
-0.015417988 -0.014145345 0.015996277
-0.0071117668 -0.011106038 0.014960201
0.0093509369 -0.013216086 0.016029378
0.010557119 -0.016802268 0.013357991
0.023387127 -0.014968838 0.014952531
-0.014296076 -0.006507331 0.015775099
-0.0052372753 -0.0051079723 0.017228395
0.0047009615 -0.0066692834 0.016762741
0.016733829 -0.0026457643 0.017338475
0.022485234 -0.0044575841 0.016218673
-0.0031810098 0.0011617655 0.014919251
0.0049927458 0.0017543243 0.015328512
0.015415408 0.0019705801 0.014957776
0.024957636 0.0050594681 0.016094904
0.03255941 0.0070708711 0.018497551
0.027747691 0.012548425 0.014161441
0.03461951 0.015193958 0.016163072
0.041860409 0.017595157 0.018614931
0.03736338 0.022386394 0.014049671
0.044857074 0.024765255 0.014962086
0.047577918 -0.04140215 0.020405754
0.05196904 -0.042175315 0.020445401
0.029607104 -0.030332992 0.020120615
0.036265872 -0.032419261 0.020403758
0.044209626 -0.036569536 0.020507367
0.050793305 -0.039445113 0.020536959
-0.023363296 -0.021581609 0.021097558
-0.018453175 -0.022032065 0.020431707
0.0088308938 -0.023221837 0.020484248
0.015201287 -0.023522135 0.021882515
0.024507333 -0.02445185 0.021004884
0.032669585 -0.027991556 0.020356959
-0.023489207 -0.017626666 0.021039819
-0.018553648 -0.018258397 0.020877073
0.0093164612 -0.013390747 0.021695575
0.014397227 -0.015216435 0.024358854
0.021988904 -0.015199546 0.02282282
-0.0027371389 -0.0053575099 0.020015283
0.0069994489 -0.0068743094 0.020827472
0.015156068 -0.0060384446 0.022670796
0.022411726 -0.0052994979 0.021735808
0.028169099 0.0030258866 0.020023618
0.030410679 0.0049321731 0.020016348
