# .PCD v0.7 - Point Cloud Data file format
VERSION 0.7
FIELDS x y z normal_x normal_y normal_z curvature
SIZE 4 4 4 4 4 4 4
TYPE F F F F F F F
COUNT 1 1 1 1 1 1 1
WIDTH 643
HEIGHT 1
VIEWPOINT 0 0 0 1 0 0 0
POINTS 643
DATA ascii
-0.019203994 -0.06734018 0.0051031434 -0.17730302 -0.0058646305 -0.98413891 0
-0.010219852 -0.067427874 0.0082936706 0.97638953 0.1403532 0.16420881 0
-0.0077341567 -0.067785598 0.0059913849 0.3559792 0.026833177 0.9341085 0
-0.0038183106 -0.068176858 0.0051867114 0.19481929 0.14057525 0.9707132 0
0.018717557 -0.067719705 0.0073047364 -0.98072714 0.062945902 -0.18496485 0
0.024404779 -0.068198316 0.0069170408 0.90415758 -0.33822167 -0.26096979 0
0.025649726 -0.066335194 0.0082455436 0.83310688 -0.39257216 -0.38964096 0
-0.030392434 -0.060171675 0.0091704279 -0.75855792 -0.58372813 -0.28957105 0
-0.02720212 -0.062398996 0.007611942 -0.60893089 -0.48039722 -0.63120657 0
-0.022146858 -0.062549643 0.0065548611 -0.051471736 0.036806427 -0.99799591 0
-0.017762356 -0.061440524 0.0071020075 -0.087413564 0.98847026 0.12363388 0
-0.011842956 -0.06198455 0.0077342079 0.6318351 0.55908346 0.53685194 0
-0.0076291775 -0.062666304 0.0057148067 0.40743363 0.091105185 0.90867913 0
0.018303279 -0.062648661 0.0074971798 -0.96180493 -0.20235541 -0.18434618 0
0.027609669 -0.062713869 0.0075670513 0.82306582 -0.50847453 -0.25301439 0
-0.031604055 -0.057212308 0.008524036 -0.71224934 -0.35688779 -0.60442704 0
-0.0273972 -0.057110939 0.0071649509 -0.16477947 0.04863641 -0.98513061 0
-0.022180954 -0.057232216 0.0069567501 -0.025350872 0.37276438 -0.92757964 0
-0.017918622 -0.057347417 0.006678855 0.99970704 -0.0021459043 -0.024107933 0
-0.012418667 -0.057726141 0.0065433518 0.36763653 0.085656784 0.92601633 0
-0.0093495613 -0.059002697 0.005902912 0.49952269 0.55546784 0.66478014 0
0.017702024 -0.057632707 0.0074351425 -0.84730399 0.53067452 -0.021461332 0
0.020481182 -0.055598073 0.0068398723 -0.63605607 0.75825089 -0.14313701 0
0.029431192 -0.05862949 0.0068451236 0.87642133 -0.29003146 -0.38440529 0
0.031079808 -0.056931719 0.0083554871 0.79357135 -0.53720379 -0.28575614 0
-0.035327785 -0.050560296 0.0098325778 -0.8176825 -0.24332851 -0.5217151 0
-0.032232076 -0.052287139 0.00795295 -0.44833085 -0.078386016 -0.89042413 0
-0.027420411 -0.052408297 0.0080093369 0.59648818 0.65705639 -0.46095413 0
-0.022518324 -0.052622568 0.0072397953 0.84371877 0.21596998 -0.49142206 0
-0.017443184 -0.052471399 0.0066363551 0.3459937 0.34430188 0.87277973 0
-0.013691952 -0.052598614 0.0061896052 0.83124822 0.4793773 0.28146711 0
0.022791225 -0.052453302 0.0073570567 -0.83225483 0.53409904 -0.14862767 0
0.033289384 -0.052488651 0.0075063719 0.87396884 -0.37927833 -0.30385256 0
0.035099994 -0.050126024 0.0097224368 0.88434798 -0.40597865 -0.23045607 0
-0.035554167 -0.047186572 0.0093214931 -0.69942963 -0.085439093 -0.70957613 0
-0.032490492 -0.04747564 0.0078547727 -0.31998119 0.00031384049 -0.94742382 0
-0.027461568 -0.047440831 0.0080813998 0.26670614 0.17948285 -0.94691807 0
-0.022523647 -0.047436964 0.0072996006 0.090404198 0.097430997 -0.99112779 0
-0.017493213 -0.047595177 0.0067038317 0.99919087 0.033714928 0.021931229 0
-0.014965513 -0.04946645 0.0066191 0.98664182 0.14595734 -0.072349273 0
0.024611548 -0.048437379 0.0084762871 -0.94490755 0.31110859 -0.1017899 0
0.025417173 -0.046414871 0.0068406556 -0.97657824 0.12440579 -0.1755511 0
0.034108624 -0.048363723 0.0061750985 0.80984831 -0.36797941 -0.45687732 0
0.03583103 -0.046559945 0.0081027737 0.91254336 -0.29432893 -0.28396297 0
-0.035873838 -0.042884797 0.0093805864 -0.62598664 -0.0035010639 -0.77982599 0
-0.032835331 -0.042591609 0.0079852305 -0.29644966 0.034906067 -0.95441043 0
-0.027189957 -0.042575359 0.0075929989 -0.065856829 -0.026989833 -0.99746394 0
-0.022491675 -0.042543646 0.0075553055 0.63696051 0.30727309 -0.70701098 0
-0.017799765 -0.042638894 0.0069028204 0.99428755 0.10215216 0.030939836 0
0.02476538 -0.041386846 0.007818575 -0.97768098 -0.21000566 -0.0061301771 0
0.025294006 -0.043662213 0.0071362657 -0.9853524 -0.1532281 -0.074844621 0
0.036509626 -0.042201012 0.0075618969 0.92375547 -0.093476482 -0.37140021 0
-0.035668373 -0.037193704 0.0094508594 -0.56489265 0.071411245 -0.82206857 0
-0.032629929 -0.037632976 0.0081322622 -0.29121611 0.0468328 -0.95551026 0
-0.027461616 -0.037377272 0.0084606269 0.63083071 0.76396829 0.13566509 0
-0.0223336 -0.037539579 0.0076621431 0.066298023 -0.25388384 -0.96495992 0
-0.017684754 -0.037667517 0.0071655931 0.99815756 -0.052009903 0.031249819 0
0.014086813 -0.036563572 0.0051619168 -0.021325061 -0.088130541 0.9958806 0
0.015416526 -0.038438749 0.0050422223 0.084541351 0.021022744 0.99619818 0
0.023367777 -0.037266031 0.0073718405 -0.90997481 -0.38725367 0.14825819 0
0.037069518 -0.037300091 0.0073918174 0.92983788 -0.093548246 -0.35587949 0
-0.035421062 -0.032910157 0.0098199071 -0.59576404 0.114378 -0.79497349 0
-0.032619771 -0.032457702 0.0085005658 -0.34089974 0.082696557 -0.93645537 0
-0.027268715 -0.03250695 0.008416594 0.034748904 -0.01271405 -0.99931514 0
-0.022313911 -0.0322771 0.0078401444 -0.068345636 -0.12806229 -0.98940837 0
-0.01745294 -0.032820273 0.0072452757 0.8383764 -0.36364937 -0.40605915 0
-0.014512548 -0.031060295 0.007190235 0.8508817 -0.48095638 0.21137954 0
0.012915039 -0.031878859 0.0054968665 -0.076262452 -0.17673859 0.98129898 0
0.016923567 -0.032139976 0.0051513086 0.055813249 -0.11237998 0.9920966 0
0.021629011 -0.032655999 0.0079049887 -0.91566151 -0.25750935 0.30863068 0
0.036774643 -0.032370083 0.0076927147 0.89399844 0.08071354 -0.44074041 0
-0.03240072 -0.027825492 0.0088208849 -0.38504687 0.10222741 -0.91721773 0
-0.026976814 -0.027330628 0.0082741305 -0.092500746 0.07008253 -0.99324322 0
-0.022527294 -0.027565764 0.0083066076 0.14459358 -0.0225976 0.98923302 0
-0.01767331 -0.02728707 0.0075190235 -0.24388933 0.1728573 -0.9542737 0
-0.012864968 -0.027293803 0.0071536768 0.48333794 -0.87049991 0.092813909 0
-0.0094608711 -0.025661897 0.0069139516 0.65408367 -0.71203154 0.25531486 0
0.0047067907 -0.025230246 0.0057811379 -0.45998207 -0.88681597 0.044428468 0
0.0076505113 -0.026804185 0.0060536 -0.43802521 -0.58373475 0.68365759 0
0.01219014 -0.027441576 0.0059719868 0.11183684 -0.10453511 0.988213 0
0.017634045 -0.027161587 0.0056495564 -0.17707191 -0.22339824 0.95850861 0
0.020725694 -0.028440736 0.0081900097 -0.93691885 -0.2763443 0.21404883 0
0.034292895 -0.025818115 0.0059950524 0.73529673 0.40748766 -0.54156488 0
0.036126334 -0.027678691 0.0073262197 0.82947695 0.32485384 -0.45435432 0
-0.031720921 -0.022744397 0.0090695182 -0.42203513 0.10897238 -0.90000635 0
-0.027328359 -0.022651572 0.0082746679 -0.14590546 0.025401391 -0.98897231 0
-0.022323061 -0.022560645 0.0084502185 0.14164208 -0.15422356 0.97783059 0
-0.017788904 -0.022791067 0.0075962665 -0.72452408 -0.68812513 0.039353218 0
-0.012746235 -0.022550348 0.0081822304 0.044086561 -0.022504002 0.99877417 0
-0.0073208911 -0.022570442 0.0074177654 0.34170771 -0.60050797 0.72292876 0
-0.0022222425 -0.021956543 0.0072819861 -0.017699452 -0.72053814 0.69318944 0
0.0024903254 -0.02276946 0.0070695053 -0.11584887 -0.55011648 0.82701319 0
0.0073562129 -0.022436686 0.0067836577 0.12011503 -0.045105349 0.99173486 0
0.012870954 -0.022063654 0.007051385 -0.21274309 -0.51287961 0.83168197 0
0.01690325 -0.023573225 0.0075166384 -0.52552247 -0.68857419 0.49969161 0
0.033632431 -0.022161929 0.0067698173 0.75161934 0.26038468 -0.60602659 0
0.035575952 -0.023162005 0.0091357399 0.8249191 0.15639183 -0.54318517 0
-0.031091781 -0.01768133 0.0093240971 -0.480611 0.10130153 -0.87106323 0
-0.027209632 -0.017503969 0.0080842962 -0.19781221 0.050002992 -0.97896379 0
-0.021950504 -0.017466322 0.0077866153 -0.14846461 -0.028670536 -0.98850203 0
-0.017973311 -0.017772486 0.0081972713 -0.29867938 -0.24027289 0.92361224 0
-0.012496321 -0.018651672 0.0090571381 -0.2633678 -0.52823228 0.80722243 0
-0.0073007876 -0.018959556 0.009168312 0.20011276 -0.49309322 0.84664863 0
-0.0020572084 -0.017691271 0.0086885942 0.35952348 -0.51085246 0.78087932 0
0.0027822261 -0.01738362 0.0077000549 0.11396048 -0.042067688 0.99259424 0
0.0073252106 -0.017013589 0.0071497993 0.07119678 -0.027582105 0.99708086 0
0.011228534 -0.017847994 0.0083845044 -0.79122198 -0.23807888 0.56328166 0
0.029113803 -0.016563779 0.0060744132 0.5880971 0.39137813 -0.70778883 0
0.032077216 -0.01772839 0.0081181796 0.66224855 0.49062163 -0.56631899 0
-0.030863861 -0.01308072 0.0096223336 -0.51907623 0.05281727 -0.85309452 0
-0.027606329 -0.01224729 0.0084389802 -0.25141609 0.026150191 -0.96752578 0
-0.021900602 -0.012891369 0.0077913818 -0.43303937 0.033683207 -0.90074539 0
-0.018764367 -0.013001155 0.0080532711 -0.70138502 -0.20249613 0.68341374 0
0.0027748432 -0.012810574 0.0081644356 0.37418935 -0.16616997 0.91234308 0
0.007524739 -0.012175161 0.0072756428 0.05676521 -0.035649158 0.99775088 0
0.012356764 -0.012441044 0.0078403102 -0.11868954 0.5541082 0.82393986 0
0.017261932 -0.011236137 0.0077050272 -0.66110915 0.44575223 0.60352266 0
0.024194805 -0.010632463 0.0053630001 0.50977904 0.52251512 -0.68344957 0
0.027898217 -0.012256468 0.0072018388 0.59412795 0.47894913 -0.64623505 0
0.030597381 -0.013621341 0.0089157978 0.73862696 0.45827109 -0.49438635 0
-0.03061619 -0.0067572445 0.0095224334 -0.44679812 -0.014736091 -0.89451337 0
-0.027716385 -0.0073684813 0.0085783135 -0.23084965 0.021515191 -0.9727515 0
-0.022392524 -0.0076350491 0.0078800218 -0.16974552 0.08694575 -0.98164499 0
-0.017995639 -0.0067437789 0.0073785358 -0.82984805 0.53805751 -0.14780453 0
-0.012908746 -0.0069637508 0.0087254336 -0.24842802 0.58649474 0.77091342 0
-0.0060702437 -0.0051929019 0.0097755017 0.27941468 0.91080755 0.30390286 0
-0.0023157336 -0.0062355874 0.0092367297 0.3858276 0.49089628 0.78112602 0
0.0023374897 -0.0078660203 0.0085844239 0.35175645 0.20309441 0.91379434 0
0.0077844285 -0.0072126188 0.0072824168 0.13309857 0.005731666 0.99108618 0
0.012309643 -0.0075310953 0.0068461113 0.11780263 -0.045799341 0.99198031 0
0.017399315 -0.0074428287 0.007844286 -0.79275942 0.0041353935 0.60952073 0
0.022929734 -0.0071313232 0.0063404455 0.52877629 0.33923337 -0.77802086 0
0.026092758 -0.0080186473 0.008733972 0.70102549 0.3966082 -0.59267634 0
-0.030914534 -0.0020668779 0.0094174948 -0.34588343 -0.064438567 -0.9360621 0
-0.02749256 -0.0022922794 0.0086327046 -0.15224339 0.019377813 -0.98815304 0
-0.022380929 -0.0025695558 0.0081597241 -0.064736545 0.037875466 -0.99718326 0
-0.017359648 -0.0028888173 0.0081436234 -0.015779672 0.97589415 -0.217673 0
-0.013057792 -0.0041235383 0.0074571068 0.36633074 0.83556217 0.40943584 0
-0.0072655817 -0.0036525058 0.0074800923 -0.11385878 0.96786654 0.22421092 0
-0.0024904651 -0.0029365211 0.0074224425 -0.2223504 0.97226506 0.072532721 0
0.0024058996 -0.002118743 0.0075324895 -0.0051015094 0.27869764 0.9603653 0
0.0075696637 -0.0021629701 0.0064481567 0.54694813 0.83508795 -0.058956411 0
0.012581584 -0.0025408792 0.0070164595 0.092255153 -0.032355316 0.99520957 0
0.018084286 -0.0023307949 0.0072242576 -0.63310939 0.0034819224 0.77405447 0
0.022082986 -0.0023796696 0.0083487676 0.57685155 0.38308701 -0.72144753 0
0.025119236 -0.0045577316 0.0095748454 0.76440877 0.40320021 -0.50309914 0
-0.03203604 0.0026174262 0.0094852448 -0.27296185 -0.067039311 -0.95968616 0
-0.027306819 0.0026554803 0.0086850263 -0.093345352 0.012629958 -0.99555361 0
-0.022417456 0.0026888868 0.0083887456 0.019308753 0.10283516 -0.99451095 0
-0.01918249 0.00162531 0.0089779524 0.85257798 0.52078837 -0.043477919 0
0.0031584732 0.0018774354 0.0071238307 -0.87098992 0.48791602 -0.057572108 0
0.007454956 0.0025941746 0.0066744857 0.17276083 0.15861815 0.97210807 0
0.012414577 0.0028383005 0.0067719594 0.058236443 -0.020141358 0.99809968 0
0.017696539 0.0026995868 0.0069019534 -0.75371629 -0.024557296 0.65674108 0
0.021370383 0.0023662944 0.008360995 0.65238804 -0.040611036 -0.7567963 0
-0.035614077 0.00914264 0.0099269161 -0.25059593 -0.065366939 -0.96588236 0
-0.03289317 0.0076965964 0.0094778175 -0.16036515 -0.01370865 -0.98696256 0
-0.027543938 0.0075175506 0.0088796653 -0.078178018 0.053319536 -0.99551249 0
-0.023494225 0.0070436453 0.0089860503 0.54796928 0.50039697 -0.67032272 0
0.0040802546 0.0073023434 0.0072788033 -0.96833283 0.21971415 0.11856292 0
0.0074995724 0.0075309239 0.0068297149 0.26010486 -0.34469363 -0.90195996 0
0.012404247 0.0076582721 0.0063727931 0.099945553 -0.1083582 0.98907495 0
0.017548526 0.0076321755 0.0072129811 -0.93371648 -0.12355001 0.33601922 0
0.021808056 0.0076106326 0.0081188483 0.66533554 -0.11589335 -0.73749399 0
-0.035727285 0.011449276 0.009912679 -0.21264124 0.00027058864 -0.97713029 0
-0.032403093 0.012555576 0.0095429076 -0.10802794 0.030989336 -0.99366474 0
-0.027890155 0.011844016 0.0093227159 0.38271371 0.4039683 -0.83086693 0
0.0047357795 0.010527258 0.0069428678 -0.91016567 0.40294048 0.096111648 0
0.0076213237 0.012671689 0.0071608438 -0.78478497 0.29107296 0.5471645 0
0.012306495 0.012784497 0.0065659122 0.097048663 -0.32155427 0.9419046 0
0.017342478 0.012515615 0.0066492017 -0.64879686 -0.3978194 -0.64869273 0
0.022221202 0.012666603 0.0079490691 0.62070584 -0.20260634 -0.75741333 0
0.025333975 0.013666411 0.0095619392 0.73403436 -0.35309052 -0.58010399 0
-0.03322912 0.017147645 0.0098590301 0.0078240475 0.14573114 -0.98929328 0
0.0083836718 0.017447526 0.0071510975 -0.90839994 0.40947324 0.084505565 0
0.0123864 0.017469449 0.0069809249 -0.54418105 -0.018709753 -0.83875906 0
0.017458675 0.017887535 0.0072013079 -0.13839525 0.69991326 -0.70069122 0
0.022212181 0.017718971 0.0074332496 0.47494838 0.1010072 -0.87419766 0
0.026181895 0.018198114 0.0088740112 0.67182904 -0.25576743 -0.69514656 0
0.0096806865 0.021562288 0.0072264662 -0.94409102 0.32513356 0.054591812 0
0.012447767 0.022560209 0.0068201618 -0.83168685 0.34495488 -0.43508977 0
0.017766727 0.022529393 0.00639374 0.5157944 -0.29172209 0.80551499 0
0.022471629 0.022397386 0.0068766447 -0.94500452 -0.18921629 0.26676527 0
0.026743015 0.022762243 0.0084349969 0.61272478 -0.23229513 -0.75538558 0
0.013086976 0.027173879 0.006995183 -0.9159323 0.3991212 -0.042074699 0
0.017629022 0.027398035 0.0065061171 0.96086568 -0.23620866 -0.14471576 0
0.022430807 0.027517732 0.0064285179 0.1435221 0.30321729 0.94205135 0
0.027205486 0.027627988 0.0078580463 0.35967457 -0.12800047 -0.92425644 0
0.030704532 0.028557155 0.0092840027 0.72793734 -0.24839771 -0.63906634 0
0.014144354 0.031584833 0.0070804432 -0.90181094 0.42839882 0.056670059 0
0.017657317 0.03261492 0.0068096337 -0.649607 0.27363393 0.70932025 0
0.022388995 0.032148827 0.0062663197 0.58212101 -0.13114445 -0.80245632 0
0.027612213 0.032465253 0.0073175444 -0.074296661 -0.064086169 -0.99517483 0
0.031338323 0.032659501 0.0086803529 0.64895827 -0.25257465 -0.71767628 0
0.01782071 0.03750987 0.0068714684 -0.88764596 0.35764071 -0.29013425 0
0.022765523 0.03735197 0.0064842533 0.18373537 -0.26297149 0.94714695 0
0.027387807 0.03735128 0.0065157153 -0.087231688 -0.083234169 -0.99270475 0
0.032175489 0.037350588 0.0083415238 0.59581876 -0.27751967 -0.75364631 0
0.035218894 0.039414793 0.0094959317 0.75070941 -0.28044811 -0.59815067 0
0.019019442 0.041763697 0.0069105616 -0.91506845 0.39558563 -0.078496478 0
0.022561708 0.042353086 0.0070064929 -0.80737394 -0.096246243 -0.58213741 0
0.027489312 0.042415094 0.0071042078 -0.10026124 0.023012903 -0.99469501 0
0.032194193 0.042882793 0.0073524914 0.51114351 0.16800848 -0.84291488 0
0.036113437 0.042968564 0.0092076296 0.70181835 -0.27688083 -0.65634453 0
0.019883508 0.045413129 0.0064858799 -0.87854362 0.36432275 -0.30891755 0
0.022730898 0.047408082 0.0067386311 -0.92342895 0.38352677 0.013645004 0
0.027210513 0.047048919 0.0062290081 0.74117243 -0.60432577 -0.29232478 0
0.032555845 0.047321375 0.0069030845 0.17403144 -0.70949364 -0.68288499 0
0.036918271 0.047436427 0.0086941086 0.65760642 -0.26776397 -0.70417064 0
0.023620939 0.052207969 0.0067478796 -0.89757752 0.43602118 -0.065116026 0
0.027455432 0.052664757 0.0062890439 0.17968546 -0.11949523 -0.97643942 0
0.032652497 0.052299637 0.006716744 -0.19273253 0.08480794 0.97757953 0
0.037114218 0.052352499 0.0078292172 0.57271516 -0.18935427 -0.79758531 0
0.040407255 0.053741135 0.0093332408 0.69317007 -0.25955328 -0.67241907 0
0.024739236 0.05590206 0.0068755806 -0.89685023 0.41449979 0.15443294 0
0.027233331 0.057428893 0.0066731097 -0.90194309 0.29109895 0.31899861 0
0.032581899 0.05764287 0.007177115 0.3446252 0.0187915 0.93855226 0
0.037113082 0.057458278 0.0074832309 -0.34062582 -0.56773764 -0.74943179 0
0.041322738 0.057719216 0.0086643426 0.68093157 -0.25160378 -0.68777013 0
0.028179273 0.062155712 0.0061772531 -0.79653865 0.33097497 -0.5059464 0
0.032341983 0.062689222 0.0067176083 0.070720769 -0.062910341 0.99551034 0
0.037621737 0.062489089 0.0068141632 -0.34881115 0.93437678 -0.072600834 0
0.041550219 0.062626854 0.0085617648 0.63256526 0.085841082 -0.7697354 0
0.029409485 0.066952385 0.006294027 -0.90454865 0.42340183 -0.050225798 0
0.032501947 0.067586817 0.0064808982 -0.34649307 0.59497434 -0.72522277 0
0.037318107 0.067278333 0.0073665986 0.082582071 -0.17384231 -0.98130476 0
0.041222211 0.067187235 0.0086747166 0.67656308 0.28321731 -0.67974287 0
0.032715358 0.072201364 0.0079259658 -0.6960355 0.62168843 -0.35921875 0
0.037073139 0.071574315 0.0087037701 0.47214794 0.49804515 -0.72734261 0
0.040370759 0.070563689 0.0096075516 0.68059373 0.44439489 -0.58249927 0
0.034367815 0.0751791 0.0097357063 0.00041991554 0.83811307 -0.54549628 0
-0.00013503329 -0.09017995 0.012032442 -0.52482253 -0.85021234 0.041233428 0
0.0027146675 -0.091502622 0.012378847 -0.35742909 -0.93369281 0.021500833 0
0.0075278622 -0.092289798 0.012528919 -0.089364909 -0.995363 -0.035587206 0
0.01207746 -0.091386653 0.012495318 0.63608539 -0.75917238 -0.13803135 0
-0.0057200571 -0.085178748 0.01007276 -0.25552186 0.0025499361 0.96679991 0
-0.0026680005 -0.087709196 0.012312123 -0.80968589 -0.56873381 0.14474343 0
0.01424073 -0.08888609 0.012151012 0.82639098 -0.54421341 -0.1446017 0
0.015533942 -0.086518481 0.012752139 0.93171686 -0.3315818 -0.14817955 0
-0.010607779 -0.080758676 0.010504683 -0.57555747 -0.64585847 0.50159794 0
-0.0074738129 -0.081962094 0.010433353 -0.098947749 -0.13410795 0.98601437 0
-0.0038318494 -0.082948536 0.012739679 -0.91570652 -0.02127983 0.4012838 0
0.014932611 -0.080027908 0.013824207 0.52700585 0.84851116 0.047892042 0
0.016060287 -0.082262173 0.0128439 0.98024493 0.17253567 -0.096702479 0
-0.015860884 -0.075795099 0.012577448 -0.70282805 -0.71128619 0.01022983 0
-0.012825229 -0.077972099 0.012779005 -0.36466187 -0.9280079 0.076309077 0
-0.0069574411 -0.077826031 0.012045964 -0.15014523 -0.8849839 0.44074923 0
-0.0027479338 -0.077114582 0.012928698 -0.73640049 0.63644063 0.22947288 0
0.0026272649 -0.075452052 0.012536424 0.18040855 0.98310035 0.031087296 0
0.0072468841 -0.076760642 0.012669373 0.25207716 0.96089846 0.11459196 0
0.012175459 -0.078688785 0.012513292 0.4364267 0.89966083 -0.011916739 0
0.015104601 -0.079902679 0.01004526 0.68200231 0.73042077 0.036856182 0
-0.02104863 -0.070688806 0.013233791 -0.65226519 -0.75325561 -0.08459378 0
-0.018393217 -0.073082931 0.012759753 -0.71493298 -0.69128716 -0.10484713 0
-0.010715159 -0.072013848 0.012887018 0.90848488 0.40564308 0.10054358 0
-0.0078694066 -0.07334464 0.012960607 0.1175331 0.95116585 -0.28542849 0
-0.0033699868 -0.074299999 0.012269589 0.36796165 0.92976767 -0.011668975 0
0.0021681092 -0.074959129 0.011289611 0.04185833 0.99893421 -0.019447923 0
0.013178614 -0.072636843 0.012565201 -0.98174143 0.1437888 0.12453368 0
0.017155817 -0.072603241 0.012917873 0.030177452 -0.99183178 0.12393115 0
0.022957891 -0.072219595 0.012397574 0.60455704 -0.78718984 -0.1218316 0
-0.02613499 -0.065381967 0.013398715 -0.59548736 -0.73573893 -0.32261914 0
-0.023447786 -0.068124287 0.012216111 -0.7789408 -0.61640888 -0.11528784 0
-0.011722103 -0.067749612 0.012605585 0.89179283 0.15174726 0.4262374 0
0.017684652 -0.067965247 0.013070111 -0.93298477 0.1653371 0.31969193 0
0.024718814 -0.069680616 0.011329395 0.86423731 -0.48551261 -0.13180038 0
0.026431605 -0.066994511 0.012536625 0.86363107 -0.48495734 -0.1376874 0
-0.030482482 -0.060859345 0.0124296 -0.87630296 -0.46935633 -0.10861769 0
-0.028143913 -0.06346298 0.012160589 -0.6473909 -0.74897885 -0.14112303 0
-0.022025546 -0.061760012 0.011524558 0.77885765 0.19429243 -0.59634823 0
-0.017399764 -0.061979301 0.012659277 0.011609878 0.98477471 -0.17344745 0
-0.012246378 -0.062334873 0.012557691 0.60766447 0.74563807 -0.27343708 0
-0.0095726037 -0.061920013 0.014288297 0.8702929 -0.13651443 -0.47323793 0
0.017303413 -0.062490519 0.01227583 -0.95319325 -0.27941078 -0.11555221 0
0.028772071 -0.06277024 0.01234317 0.86407417 -0.48483825 -0.13530572 0
0.030300489 -0.060524505 0.014061168 0.88581002 -0.45709938 -0.080004409 0
-0.035007998 -0.055095885 0.014754529 -0.83862591 -0.52432871 -0.1476008 0
-0.032820486 -0.057468753 0.0124911 -0.79511356 -0.58104926 -0.17371286 0
-0.026279474 -0.055777024 0.011164811 0.47318304 0.67614478 -0.56473535 0
-0.022559576 -0.057791334 0.012404984 0.79420263 0.58885628 -0.14996852 0
-0.010994824 -0.059682284 0.014616586 -0.26922992 0.63357323 -0.72532767 0
-0.0091546932 -0.059766646 0.014634877 0.6551609 -0.054306891 -0.75353497 0
0.014535464 -0.057191368 0.012851489 -0.99525994 -0.04469258 -0.086372167 0
0.016920291 -0.056991473 0.011672051 -0.58397549 0.60963482 -0.53602046 0
0.021182491 -0.055350006 0.013941353 -0.1279628 0.82310188 0.55328918 0
0.031926747 -0.057308897 0.012938369 0.86028242 -0.49448171 -0.12410434 0
-0.035650209 -0.051927101 0.012811921 -0.9029898 -0.39205596 -0.17578819 0
-0.032744829 -0.052880369 0.011170954 -0.47901064 -0.03669887 -0.87704158 0
-0.027917109 -0.052678596 0.012440119 0.69968688 0.48234108 -0.52705348 0
-0.024651946 -0.054562487 0.014436218 0.65819973 0.61968172 -0.42751345 0
0.014844322 -0.054888953 0.013721864 -0.11203942 0.96950597 0.21795726 0
0.017436385 -0.054749671 0.013635561 -0.024215326 0.99875331 0.04365053 0
0.022803383 -0.052854043 0.012640988 -0.77872479 0.55431855 0.29380009 0
0.03402378 -0.053383909 0.01223325 0.87421459 -0.46420729 -0.14233895 0
0.035293955 -0.050911244 0.013193484 0.92556703 -0.36996317 -0.080330878 0
-0.037216697 -0.047866195 0.01243912 -0.91600794 -0.20887712 -0.34249073 0
-0.031005725 -0.047498733 0.01095841 0.87527084 -0.18642715 -0.44625768 0
-0.02879555 -0.047377624 0.01351053 0.88575792 0.027226284 -0.46334818 0
0.024621651 -0.048088286 0.011940499 -0.96301526 0.23219761 0.13669589 0
0.025257545 -0.046174187 0.013488732 -0.96963251 0.10337478 0.2216448 0
0.036417566 -0.047645364 0.012717805 0.94740653 -0.29898885 -0.11413399 0
-0.037949875 -0.042557064 0.012376742 -0.88631791 -0.16306087 -0.43341869 0
-0.027684806 -0.042153798 0.012289145 0.91677684 0.12905848 0.37797388 0
-0.024633741 -0.042153064 0.010387807 0.73087484 -0.36741385 0.57517737 0
0.024785357 -0.04139832 0.011236899 -0.98459274 -0.13988456 0.10492672 0
0.025275214 -0.043073367 0.013214358 -0.97741169 -0.060254175 0.20257269 0
0.037688155 -0.042564772 0.012523834 0.97795427 -0.1860272 -0.094863713 0
-0.038067661 -0.037796859 0.012575464 -0.86027932 0.13105603 -0.49269041 0
-0.032511767 -0.037210446 0.011961615 0.83817112 0.51919508 0.1670496 0
-0.029302336 -0.03895849 0.011527049 0.57426322 0.6986165 0.42679816 0
0.024074562 -0.037354533 0.012384022 -0.95003134 -0.24259746 0.1964355 0
0.025098147 -0.039575614 0.014551104 -0.88420898 -0.27715889 0.37597537 0
0.038370524 -0.03738787 0.012657543 0.99246579 -0.049620461 -0.11202424 0
-0.037581787 -0.032676827 0.012122385 -0.79759246 0.068757884 -0.59926504 0
-0.03186471 -0.033282679 0.012234607 0.69105709 -0.72247547 0.0216644 0
-0.029415105 -0.031512465 0.011992082 0.83730471 -0.3150326 0.44685057 0
0.022838179 -0.032240704 0.012730865 -0.94181484 -0.23525469 0.24008323 0
0.038313702 -0.032057941 0.012692343 0.9904604 0.07458847 -0.11586536 0
-0.036555048 -0.0276528 0.012383478 -0.8141498 0.2012981 -0.54464591 0
-0.034719255 -0.026760088 0.01028283 -0.62743944 0.12836289 -0.76801223 0
-0.028828016 -0.027447715 0.012145948 0.97046822 -0.026262945 0.2397951 0
0.021337818 -0.027249863 0.012295744 -0.90542251 -0.33813819 0.25665674 0
0.037614021 -0.027564654 0.01212192 0.96913546 0.19552268 -0.15015763 0
-0.03624605 -0.022742011 0.0129748 -0.81362265 0.23651463 -0.53111106 0
-0.034161013 -0.022106078 0.010732524 -0.66034335 0.16090699 -0.73352265 0
-0.027641241 -0.022424582 0.012233858 0.75472653 -0.63290727 0.17267394 0
-0.024160679 -0.020224933 0.012821415 0.31486011 -0.94891971 -0.020359896 0
0.014797363 -0.020694004 0.010407835 -0.54688567 -0.7395165 0.39246845 0
0.01798263 -0.022292962 0.012193939 -0.6452924 -0.67051446 0.36607131 0
0.020295866 -0.024470588 0.013011002 -0.8286767 -0.47940627 0.28890207 0
0.036271788 -0.022327513 0.012501878 0.93705088 0.3219378 -0.13524695 0
-0.035539962 -0.017917769 0.014238689 -0.8556425 0.12272604 -0.50280637 0
-0.032403737 -0.017006367 0.012158624 -0.47976711 0.49335393 -0.72555184 0
-0.027570225 -0.016858215 0.012376871 -0.09183725 0.9488095 -0.30220255 0
-0.021783397 -0.017237784 0.012296745 0.99804145 0.046041872 0.042348798 0
-0.015312069 -0.01521966 0.010041601 -0.53428757 -0.30939308 0.78664654 0
-0.011841426 -0.016367035 0.012011722 -0.45506868 -0.77343005 0.44126922 0
-0.0078604771 -0.017870978 0.01224694 -0.26982704 -0.95933348 0.082901604 0
-0.0020996339 -0.017133143 0.012428438 0.53767753 -0.82801026 -0.15906511 0
0.00013828669 -0.015355657 0.013115814 0.85351926 -0.4898735 -0.17756359 0
0.012882023 -0.017505722 0.011897716 -0.77243 -0.49045488 0.40349218 0
0.016050914 -0.01937595 0.014080036 -0.56754649 -0.67058283 0.47771293 0
0.033808846 -0.016918855 0.011984962 0.86608571 0.44983068 -0.21805499 0
0.035336372 -0.019561779 0.01314326 0.89785981 0.42710376 -0.10691123 0
-0.035317402 -0.013715103 0.014652498 -0.86209911 0.32087332 -0.39220592 0
-0.032649286 -0.012473075 0.012614039 -0.74147934 0.23785742 -0.62740117 0
-0.027007028 -0.012085602 0.012580833 -0.034147117 -0.65390533 0.75580531 0
-0.023031145 -0.012606933 0.011615404 0.3893272 0.19069511 0.90114355 0
-0.016761679 -0.01178778 0.011606595 -0.5388059 -0.4480229 0.71341687 0
-0.01390067 -0.013061286 0.013697091 -0.76848561 -0.2948921 0.56786317 0
0.00078981614 -0.012686846 0.01249924 0.99350047 -0.1119276 -0.020712331 0
0.013194721 -0.013524647 0.012551973 -0.51510614 0.85249585 0.088974692 0
0.016734699 -0.011636273 0.012075116 -0.80029243 0.56656212 -0.19631475 0
0.029447867 -0.010670192 0.010622421 0.64320165 0.57293689 -0.50797147 0
0.031355593 -0.012497134 0.012603153 0.83556265 0.51588893 -0.18892772 0
-0.035584465 -0.0061489251 0.01432839 -0.82921416 -0.20319696 -0.52068692 0
-0.032628376 -0.0077178003 0.012831549 -0.86846358 -0.49190685 -0.061634637 0
-0.028612066 -0.0090700667 0.013733788 -0.53218132 -0.73520184 0.41983485 0
-0.022491945 -0.0077933017 0.01289207 0.21437439 -0.50118697 0.8383646 0
-0.017838692 -0.0077033523 0.012205842 0.56186455 0.35576248 0.74682075 0
-0.012177177 -0.0082641495 0.012401808 -0.508255 0.81039083 0.29145074 0
-0.008160729 -0.0057389312 0.012824714 -0.37309647 0.9124245 0.16816844 0
-0.0020676027 -0.0068689161 0.012348156 0.62466073 0.7790212 -0.054082923 0
0.00042625642 -0.0094228117 0.012733196 0.87141186 0.48358884 0.08235991 0
0.017129663 -0.0072322199 0.01264178 -0.91629905 -0.0056155357 -0.40045533 0
0.028155629 -0.0075699557 0.012425431 0.82691956 0.47455758 -0.30166081 0
0.030050511 -0.0096417479 0.014841194 0.84908348 0.51480693 -0.11845243 0
-0.036310155 -0.002119848 0.013474381 -0.75499302 -0.30449286 -0.58074915 0
-0.033319756 -0.0029185561 0.01161823 -0.61125559 -0.16553292 -0.77392858 0
-0.027449744 -0.0016603906 0.01250503 0.48450154 0.7152645 0.50364178 0
-0.022507196 -0.0028678614 0.012295049 0.41836104 0.73315859 0.53614616 0
-0.018841838 -0.0022712378 0.010972288 0.32623968 0.27838463 0.90336573 0
-0.0062750145 -0.0048069968 0.012123063 -0.064044409 0.97373259 0.21850215 0
-0.0048735491 -0.004834475 0.012816674 0.13450935 0.98641634 0.094287045 0
0.017485514 -0.0025263736 0.012662505 -0.8130917 0.12853014 -0.56776923 0
0.02425204 -0.0011686593 0.011292391 0.72896254 0.24399182 -0.63959473 0
0.025949735 -0.0030377069 0.012752349 0.87273747 0.38528475 -0.29980808 0
-0.040694594 0.0039400673 0.014305185 -0.64663261 -0.44521445 -0.61939514 0
-0.037682544 0.002942241 0.012336534 -0.56802899 -0.35230806 -0.74378896 0
-0.032574542 0.0025961795 0.012396891 0.87512892 0.46872357 0.12019809 0
-0.02762137 0.0026102741 0.010990268 0.13471717 0.021905122 0.99064195 0
-0.022528263 0.0023313852 0.010526042 0.10397906 -0.0022078007 0.99457705 0
-0.019702632 0.0014638274 0.0101477 0.42733467 0.13963427 0.8932454 0
0.018376539 0.0025971432 0.012659926 -0.75986332 0.10127033 -0.64214641 0
0.023516648 0.0028453502 0.011473844 0.80676508 0.0045187119 -0.59085512 0
0.025207156 0.002092354 0.014426422 0.9666363 0.087501846 -0.24074385 0
-0.041928187 0.0077525554 0.013377225 -0.59691167 -0.35246879 -0.72073722 0
-0.037988797 0.0070598107 0.011113053 -0.42814291 -0.20179579 -0.88089275 0
-0.032654308 0.007563273 0.012937488 0.77134907 -0.45897293 0.44086793 0
-0.02745346 0.0074171787 0.011031965 0.1318579 -0.056068245 0.98968172 0
-0.023756338 0.0066466383 0.010591015 0.29415342 0.13547124 0.94610846 0
0.018786516 0.0072395275 0.012588953 -0.94462115 0.039740678 -0.32574755 0
0.024346391 0.0071006417 0.011518751 0.87009782 -0.16312847 -0.465101 0
0.025644552 0.0081909746 0.013950541 0.93536985 -0.25221705 -0.24793085 0
-0.046152927 0.012890141 0.01402963 -0.57468218 -0.37217861 -0.72885078 0
-0.042128973 0.012500564 0.012845105 -0.60116029 -0.0061722565 -0.79910469 0
-0.037727676 0.012390106 0.0120024 -0.11920612 0.9751848 0.18655972 0
-0.032240439 0.012236563 0.012816668 0.2265476 0.58257991 0.78056186 0
-0.028122166 0.01220964 0.010959336 0.52768016 0.31944436 0.78708887 0
0.019336561 0.011549653 0.013208558 -0.8862763 0.32612777 -0.32886922 0
0.021969287 0.012715515 0.011823996 -0.6466167 0.55860704 -0.51946622 0
0.026510468 0.012640927 0.012388356 0.86342746 -0.3343533 -0.37775779 0
-0.050504338 0.018944338 0.014497986 -0.59003937 -0.38259146 -0.71096927 0
-0.047158949 0.017854385 0.013367147 -0.49284658 -0.29787955 -0.81753904 0
-0.042714674 0.017527096 0.012367362 0.90436155 0.22291449 0.36392227 0
-0.037693068 0.017627357 0.0114949 0.0080863656 0.9901427 0.13982813 0
-0.032772094 0.017420566 0.011454485 0.52721965 0.29537943 0.79673737 0
-0.029495915 0.015441287 0.010740854 0.66614908 0.70672596 -0.23829363 0
0.013728554 0.01766056 0.011198666 -0.42887747 0.046449073 0.90216768 0
0.017624591 0.017553395 0.011428845 -0.28885391 0.17258117 0.94168955 0
0.021730265 0.017493816 0.012353667 -0.79647863 0.50858748 -0.32704815 0
0.028100291 0.017600419 0.012249179 0.86784643 -0.27304405 -0.41507772 0
-0.051562198 0.02271002 0.013733954 -0.48119983 -0.29120192 -0.82683021 0
-0.047490116 0.022669055 0.013011975 -0.3407042 -0.023346774 -0.93988055 0
-0.042500094 0.022551257 0.012327629 0.24970421 -0.1149968 0.96146947 0
-0.037872978 0.022472437 0.011697858 0.73624295 0.67494482 -0.048947528 0
-0.034464367 0.020781757 0.01127679 0.7655822 0.64299417 0.021033082 0
0.023851629 0.021197537 0.014214558 -0.43151045 0.55123377 -0.71410084 0
0.027458303 0.022302411 0.011860271 -0.61700118 0.28795278 -0.73238844 0
0.030839067 0.022943927 0.013243599 0.89468843 -0.33393303 -0.29668385 0
-0.055937335 0.028026931 0.014416196 -0.48243043 -0.26406768 -0.83518207 0
-0.052146375 0.027178572 0.013418426 -0.3497037 -0.20886418 -0.91328144 0
-0.047654923 0.027663356 0.013041985 0.45179904 -0.46915421 -0.75879639 0
-0.042650204 0.027285142 0.01239373 0.70182753 0.70532 -0.099809214 0
-0.039324388 0.026297892 0.012228184 0.77526653 0.6021387 0.19076416 0
0.027646229 0.027415255 0.012105839 -0.95095921 0.30888665 -0.016294131 0
0.032357983 0.027605183 0.012436432 0.85632312 -0.34128845 -0.38759893 0
-0.06002336 0.03401731 0.014816474 -0.44585994 -0.29767331 -0.84415609 0
-0.057402536 0.032748334 0.013993125 -0.38296351 -0.19665846 -0.90258765 0
-0.05213384 0.032726653 0.013194155 -0.14923647 -0.0014660761 -0.98880041 0
-0.047338158 0.032696523 0.013034265 0.58309388 0.6156981 -0.53001624 0
-0.043682318 0.031117154 0.012796223 0.76587498 0.60880494 0.20686226 0
0.029268125 0.031844646 0.013574725 -0.72824264 0.32901904 -0.60117304 0
0.032298602 0.032483172 0.012100751 -0.15888342 0.093307525 -0.98287827 0
0.035513978 0.034337938 0.013816643 0.9283784 -0.30336377 -0.21467181 0
-0.061440669 0.037922602 0.014522989 -0.36577159 -0.17804034 -0.91351664 0
-0.057595689 0.037660141 0.013450291 -0.20408601 -0.036238931 -0.97828192 0
-0.052116759 0.037407365 0.013451219 0.11138208 0.17497157 -0.97825301 0
-0.048827749 0.036562014 0.013297682 0.70613855 0.68264502 -0.1880533 0
0.029843137 0.035350759 0.014600554 -0.58299673 0.29842943 -0.75568157 0
0.03213919 0.037398174 0.012511373 -0.93575841 0.06150227 -0.34723708 0
0.036444593 0.037798405 0.012859009 0.8608048 -0.36152834 -0.35820723 0
-0.06517984 0.043792613 0.014978265 -0.35124621 -0.13212158 -0.92691427 0
-0.062606514 0.042732742 0.014287332 -0.27348617 -0.072014906 -0.95917636 0
-0.05723729 0.042739697 0.013412279 -0.071451142 0.051959168 -0.99608982 0
-0.053433981 0.041742112 0.013625814 0.56477517 0.57327056 -0.59362435 0
0.02393394 0.042830762 0.010777433 -0.59635836 0.44001624 0.67137355 0
0.027774166 0.041908748 0.011101249 -0.21643226 -0.40572566 0.88799989 0
0.032106332 0.042316213 0.012623697 -0.78446996 0.61716932 0.060899768 0
0.037688836 0.043120969 0.01245024 0.84915268 -0.18161249 -0.49594009 0
-0.065617271 0.047625493 0.014798489 -0.29804856 -0.044700608 -0.95350349 0
-0.062609181 0.047036856 0.014158268 -0.18283111 -0.0057876399 -0.9831273 0
-0.058390636 0.046929549 0.013940339 0.36882082 0.43753225 -0.82008344 0
0.037756033 0.047020338 0.012073367 -0.92273378 0.31566426 -0.22117507 0
0.040641844 0.048424985 0.013144764 0.88542485 -0.31543654 -0.34135416 0
-0.065480597 0.05183259 0.014710832 -0.2973648 0.036362872 -0.95407122 0
-0.062630259 0.051349271 0.014298434 0.12683754 0.25262132 -0.9592157 0
0.038775865 0.052151136 0.012292778 -0.90737897 0.32869837 0.26195541 0
0.041535169 0.052690204 0.012486479 0.79823875 -0.35515255 -0.48649931 0
0.039084475 0.057274748 0.011989844 -0.92311513 -0.079516754 0.37621218 0
0.042904977 0.057961281 0.012690636 0.97044218 -0.01957511 -0.24053875 0
0.039708868 0.060572159 0.010826071 -0.79765564 0.47582024 0.37059492 0
0.043057967 0.062689677 0.012398829 0.96138418 0.068832815 0.26646313 0
0.045019653 0.060643539 0.014219486 0.98567504 0.011133885 -0.16828775 0
0.039376911 0.068467297 0.010701235 -0.66705024 -0.39588654 0.63112432 0
0.042400055 0.067502104 0.012360493 0.83860737 0.50488901 -0.20451088 0
0.033946235 0.073953219 0.011774638 -0.63624102 -0.51917285 0.57066369 0
0.038072832 0.072862849 0.012128434 -0.3960087 -0.73185688 0.55458331 0
0.04137234 0.071399726 0.012645365 0.72846782 0.56083161 -0.39344954 0
0.034309991 0.075861916 0.012190378 -0.60432988 0.78653127 -0.12709858 0
0.036700722 0.076082133 0.013253701 0.35082066 0.87961847 -0.32124165 0
-0.00015129089 -0.090066291 0.018205451 -0.4478426 -0.89407313 0.0083764633 0
0.002371368 -0.091293655 0.017562296 -0.39702228 -0.91725469 0.031890746 0
0.0076163355 -0.092646405 0.017453887 -0.14736289 -0.9879176 -0.047990918 0
0.012321976 -0.092037648 0.017645603 0.58465523 -0.79954916 -0.13747516 0
-0.0022149046 -0.087715991 0.01755327 -0.82326275 -0.56750655 -0.013219307 0
0.01462662 -0.089226335 0.017374806 0.92501611 -0.36405194 -0.10867976 0
0.016178977 -0.086783163 0.017825983 0.8324104 -0.53525281 -0.14351742 0
-0.0054885899 -0.081967115 0.019876342 -0.19898976 -0.019718109 -0.9798032 0
-0.0032467414 -0.082474642 0.01784057 -0.92750788 0.16747302 -0.33418864 0
0.017538683 -0.082220398 0.01771741 0.8555491 -0.077692196 -0.51185906 0
-0.015781308 -0.075593174 0.017338237 -0.67056072 -0.73838258 0.071689904 0
-0.012572644 -0.07786946 0.017669737 -0.30096483 -0.95238966 0.048724789 0
-0.0074001788 -0.077795967 0.017802047 0.059633236 -0.98761374 -0.14513078 0
-0.0027880962 -0.077857487 0.017769448 -0.8319512 -0.55298877 -0.045393012 0
0.0029431682 -0.075554475 0.017687449 0.10036258 0.99487215 0.012514264 0
0.0072784577 -0.076783285 0.017526438 0.32001147 0.94465548 -0.072240718 0
0.012638026 -0.078062169 0.017605124 -0.039782662 0.80878633 -0.58675539 0
0.017377185 -0.077534214 0.01777108 -0.094810188 0.050616413 -0.9942078 0
0.021397686 -0.076841794 0.018403826 0.80403757 -0.42105433 -0.41980571 0
-0.020895801 -0.070737757 0.017572923 -0.67977434 -0.72849613 0.084854081 0
-0.018064637 -0.073398843 0.017584959 -0.68986022 -0.71965301 0.078692086 0
-0.01063638 -0.071234576 0.017586939 0.95044976 0.27496564 0.14504898 0
-0.0074723032 -0.073089823 0.017618565 0.52416295 0.84226483 0.12586959 0
-0.0031727126 -0.074142933 0.017716225 0.20614317 0.97715944 -0.051616449 0
0.013392349 -0.072545677 0.017316565 -0.77572608 0.62729454 0.068925343 0
0.017635029 -0.072123073 0.017371604 -0.55000496 0.75775158 -0.35115111 0
0.023084968 -0.072860897 0.017424654 0.69980347 -0.66816324 -0.25265202 0
0.025127158 -0.070460528 0.01845867 0.87415385 -0.48346856 -0.045967776 0
-0.026094776 -0.065914482 0.017345876 -0.66774523 -0.74399763 0.024160068 0
-0.023329925 -0.068442047 0.017620139 -0.6844613 -0.72667068 0.058842354 0
-0.011176007 -0.067151852 0.016921371 0.77111739 0.14978041 -0.61882454 0
-0.009312111 -0.068642937 0.016796134 0.88418162 0.38179335 -0.26917794 0
0.019536344 -0.067467585 0.016807798 -0.94081044 -0.15662247 0.30057448 0
0.020550307 -0.06750109 0.019121347 -0.81389153 0.075023904 0.57615262 0
0.026557431 -0.067331597 0.017469915 0.91121477 -0.41147402 0.019407798 0
-0.031158838 -0.060788367 0.017443921 -0.76885462 -0.63942122 -0.001753616 0
-0.028467022 -0.063672014 0.017494872 -0.70003349 -0.71392745 0.0161466 0
-0.020475881 -0.060783535 0.019748081 0.66447526 0.70068103 0.25984347 0
-0.017608656 -0.060932998 0.017592046 0.11297059 0.94947064 0.29281914 0
-0.012171187 -0.062025908 0.018233357 0.37809142 0.79828411 0.46881691 0
-0.0095133102 -0.062444746 0.017548883 0.97462273 -0.19391555 0.11183643 0
0.01800287 -0.062326703 0.017121406 -0.81707793 -0.43749559 0.37547472 0
0.020638868 -0.063662931 0.019720362 -0.59592116 -0.40143541 0.69550532 0
0.028996181 -0.06300728 0.017289653 0.8442713 -0.53501439 -0.031074392 0
0.030340523 -0.060665283 0.01776411 0.89320898 -0.44960797 0.0055077397 0
-0.035120718 -0.055229314 0.017254543 -0.86951268 -0.49390867 0.0014085346 0
-0.033423044 -0.057767048 0.017226087 -0.82283843 -0.56743193 -0.03095063 0
-0.0215986 -0.05698438 0.017335508 0.83502513 0.55015785 -0.0077039083 0
-0.017699612 -0.057584766 0.017438492 0.76125956 0.46559525 -0.45133692 0
-0.011943717 -0.05942132 0.016673841 -0.18192255 0.97704697 0.11082985 0
-0.009276377 -0.059131008 0.016326917 0.8450675 0.53276169 0.04500958 0
0.014725004 -0.056635916 0.015599372 -0.90305763 -0.03909225 0.42773676 0
0.016969772 -0.057428896 0.01727874 -0.57973063 0.60337466 0.54758692 0
0.022704195 -0.056171082 0.017558072 -0.41923314 0.9010796 0.11090107 0
0.031744033 -0.057571091 0.017384311 0.86822015 -0.48883331 0.085063793 0
-0.036453795 -0.052356068 0.017726397 -0.89783716 -0.43552321 -0.064868748 0
-0.025967881 -0.051404178 0.016475661 0.69126016 0.50266534 -0.51912123 0
-0.022172302 -0.052434843 0.018169161 0.85903281 0.4699384 -0.20302866 0
-0.019197054 -0.053395547 0.017863864 0.82898855 0.51516849 -0.21766786 0
0.024781125 -0.054145698 0.017000737 -0.95595926 0.25887126 0.13830252 0
0.025679996 -0.05203829 0.018154169 -0.90854084 0.29857159 0.29224712 0
0.034368288 -0.053084888 0.017872579 0.92985857 -0.36609665 0.036555301 0
0.035209183 -0.050788797 0.016957656 0.96232617 -0.25768647 0.086752869 0
-0.038341414 -0.047488593 0.017479125 -0.96338993 -0.25659087 -0.077723473 0
-0.027172027 -0.047322772 0.016699938 0.7602492 0.14536649 -0.63315862 0
-0.022842322 -0.047911339 0.018511252 0.77179098 0.46463853 -0.43410802 0
0.026791921 -0.04745467 0.017702876 -0.86031377 0.17822197 0.47759518 0
0.036445387 -0.047370329 0.017712267 0.93289357 -0.35144106 0.078732118 0
-0.040031228 -0.040267382 0.019351859 -0.98719954 -0.14732707 0.061088853 0
-0.039401844 -0.042513009 0.017168893 -0.96389049 -0.23522523 -0.124837 0
-0.027352791 -0.042934112 0.017825766 0.88534647 0.39039257 -0.25249824 0
-0.024499955 -0.044764496 0.01838384 0.71759027 0.48539895 -0.49945182 0
0.026970929 -0.042019676 0.017504821 -0.84168589 -0.10302708 0.53004748 0
0.03751453 -0.042633016 0.017718876 0.98593235 -0.1102024 0.12566939 0
-0.040243771 -0.037711058 0.018616304 -0.99382275 -0.079280041 -0.077659443 0
-0.039635904 -0.03766606 0.016084073 -0.95026731 0.04673481 -0.30790883 0
-0.030227365 -0.036563918 0.0154343 0.80124551 0.1626984 -0.5757907 0
-0.029144447 -0.037693154 0.017660035 0.96057701 0.19470592 -0.19844766 0
0.024558825 -0.035967808 0.015645416 -0.93010187 -0.24769248 0.27121755 0
0.025934771 -0.037884548 0.01798824 -0.87319696 -0.35782164 0.33089387 0
0.038268607 -0.037674308 0.017565856 0.99114239 -0.064659685 0.11599896 0
-0.040221769 -0.032551087 0.018420095 -0.99277747 0.068038411 -0.098811612 0
-0.039673731 -0.032407738 0.015978524 -0.93368649 0.039024144 -0.35595891 0
-0.03025296 -0.033787575 0.015363544 0.88221753 -0.17952567 -0.43527308 0
-0.029253107 -0.032548919 0.017516872 0.96557277 -0.15682599 -0.20754452 0
0.024135642 -0.032349929 0.017436264 -0.95221275 -0.1636786 0.25787622 0
0.038064305 -0.03254034 0.017220952 0.97496623 0.024251936 0.22102663 0
-0.04004328 -0.02982527 0.019121621 -0.9934575 0.11348744 -0.012762119 0
-0.038928177 -0.027344914 0.017138695 -0.93675613 0.14654219 -0.31782588 0
-0.02833686 -0.027530124 0.017849801 0.98115778 -0.15407862 -0.11657251 0
0.023239054 -0.02756888 0.017453235 -0.89066446 -0.21991663 0.39793661 0
0.037366141 -0.027478736 0.017664375 0.93876415 0.26094317 0.22501229 0
-0.038117118 -0.022687249 0.017257383 -0.93764615 0.25865686 -0.23219885 0
-0.026832137 -0.022509895 0.017185409 0.77043051 -0.59875864 -0.2189174 0
-0.023835443 -0.020326098 0.017361503 0.38369289 -0.92345542 -0.0031490419 0
0.019160219 -0.021014072 0.015821364 -0.64528906 -0.57039839 0.50818086 0
0.021796659 -0.022718936 0.018037755 -0.76716512 -0.40152472 0.50023556 0
0.034858208 -0.020544261 0.019641083 0.85573143 0.3553597 0.37608945 0
0.036074083 -0.022485122 0.017621176 0.94224393 0.18404385 0.27982873 0
-0.036728159 -0.01726192 0.017382512 -0.94722104 0.16709624 -0.27358946 0
-0.020891018 -0.017916666 0.017392915 0.9167468 -0.37725192 -0.1313629 0
-0.019847831 -0.017721497 0.017581377 0.99272329 -0.017463453 -0.11914536 0
-0.010773394 -0.015751684 0.017376158 -0.72454435 -0.67781502 0.12490909 0
-0.0076918299 -0.017888894 0.017489403 -0.42793846 -0.90267891 0.045161169 0
-0.0022817778 -0.0178289 0.017341042 0.41599283 -0.90929139 0.011792538 0
0.00079003035 -0.015771601 0.017861279 0.78437442 -0.59545916 -0.17373852 0
0.014163222 -0.015941195 0.016151894 -0.62863171 -0.52564949 0.57316208 0
0.017387174 -0.01755234 0.017714737 -0.58354723 -0.6170882 0.52789646 0
0.02058528 -0.019252602 0.019479996 -0.62164515 -0.52825785 0.57836062 0
0.033553634 -0.017246068 0.017831227 0.80976039 0.46997905 0.35129449 0
0.035288855 -0.019387858 0.016761174 0.84746647 0.49828336 0.18306902 0
-0.036072269 -0.012551559 0.017773312 -0.9652313 0.1131287 -0.23564884 0
-0.031643212 -0.012108255 0.015552818 0.22748739 0.31436375 -0.92164248 0
-0.026914429 -0.011582802 0.016457617 0.3942405 0.42568839 -0.81447142 0
-0.023081306 -0.013393215 0.017211678 0.63504082 0.76628834 -0.097597912 0
-0.012326736 -0.012548626 0.017276224 -0.94520479 -0.091697149 0.31333596 0
0.0015544574 -0.012463571 0.016973766 0.97973865 -0.017814685 -0.19948624 0
0.014247742 -0.012945734 0.017495086 -0.98539227 0.10360076 0.13516289 0
0.015588744 -0.012715424 0.017730664 -0.9820469 -0.1886158 0.0028244788 0
0.02949308 -0.010509032 0.018963436 0.754776 0.55288523 0.35303125 0
0.031598009 -0.012851589 0.017714038 0.85325468 0.48307592 0.19645378 0
-0.036470786 -0.0075961053 0.017588669 -0.9340862 -0.24503909 -0.25968963 0
-0.032619461 -0.0070805922 0.016398558 0.3939414 0.33389524 -0.85634345 0
-0.027328799 -0.0077676098 0.016991992 0.83556825 0.33053273 0.43883237 0
-0.024800237 -0.0067678317 0.015163261 0.49501795 -0.087742254 0.86444116 0
-0.011008706 -0.0086676432 0.017505001 -0.81356442 0.55131638 0.1848329 0
-0.0076638418 -0.0060778805 0.017819405 -0.3356598 0.92201865 0.19290976 0
-0.0021985339 -0.006076497 0.017037481 0.45590082 0.8827399 -0.11368694 0
0.00085819978 -0.0088110045 0.017503032 0.85937268 0.45350957 -0.23623672 0
0.014176075 -0.0072451918 0.018108347 -0.83952075 -0.13595122 -0.52604377 0
0.015589529 -0.0076105706 0.015914833 -0.86512381 -0.098478347 -0.4917956 0
0.02852021 -0.0075761378 0.017648119 0.88028741 0.44176769 0.17301856 0
0.0301084 -0.0097323675 0.016213659 0.89707839 0.41434065 0.15353219 0
-0.040207431 -0.00028395635 0.018944956 -0.79484522 -0.58307058 -0.16807657 0
-0.038123429 -0.0024956765 0.017070733 -0.83049077 -0.44981411 -0.32856095 0
-0.033298861 -0.0031460647 0.01698946 0.6551584 -0.62316769 -0.42711774 0
-0.028860262 -0.0026003842 0.01706996 0.84486341 0.28010693 0.45579147 0
-0.023185074 -0.0023224689 0.015570413 0.016145544 -0.13073291 0.99128616 0
-0.0037119829 -0.0049916725 0.016313279 -0.10233049 0.9801271 -0.16993931 0
0.013701116 -0.002685176 0.018289685 -0.79969656 -0.010766235 -0.60030776 0
0.015537588 -0.0025434094 0.015640046 -0.84444374 0.060305037 -0.53223872 0
0.026221545 -0.0024862548 0.017551472 0.94071305 0.30172899 0.15497968 0
-0.042007539 0.0027600531 0.017869307 -0.76922053 -0.56494766 -0.29855311 0
-0.039758231 0.0008058215 0.016025936 -0.72692031 -0.52693671 -0.44036871 0
-0.031054392 0.0030975251 0.016115999 0.54312754 0.2925649 -0.78703135 0
-0.027539078 0.0024323172 0.016890876 0.8757295 -0.08596129 -0.47508794 0
-0.024159933 0.00015770391 0.01536215 0.098182656 0.97397548 0.20428398 0
0.013297419 0.0025309641 0.018479085 -0.63957179 -0.064463228 -0.76602381 0
0.015915321 0.0026128464 0.015925976 -0.78082365 0.095001183 -0.61748618 0
0.025450796 0.0024398991 0.017786399 0.99942958 0.028273864 0.018467262 0
-0.046100609 0.0084380051 0.017707029 -0.72343439 -0.56098759 -0.40241224 0
-0.043910176 0.0063178171 0.016711514 -0.72526497 -0.49982086 -0.4734658 0
-0.031695195 0.0081109442 0.016904803 0.70079345 0.3155373 -0.63978493 0
-0.028653612 0.0064131874 0.018109033 0.71218342 0.66305256 -0.23055609 0
0.012787526 0.0075196037 0.018323762 -0.59539938 0.0668616 -0.80064291 0
0.016489195 0.0077031134 0.015989618 -0.62841088 0.098828845 -0.77157807 0
0.025920818 0.0074930722 0.017491058 0.9756369 -0.21935321 0.0041072872 0
-0.050738394 0.014121478 0.018655429 -0.74954784 -0.5571577 -0.35742584 0
-0.048249722 0.012280489 0.017125614 -0.72592318 -0.50267798 -0.46941489 0
-0.042521834 0.012958619 0.016869649 0.42637151 0.61734951 -0.66112548 0
-0.037371784 0.012033291 0.017549383 0.17685089 0.71945137 -0.67164981 0
-0.03319785 0.01113516 0.017538263 0.48605374 0.87343776 -0.029293232 0
0.013939735 0.012197346 0.018444119 -0.85698193 0.33281967 -0.39346284 0
0.016806578 0.012745425 0.016252317 -0.53281647 0.12591611 -0.83681047 0
0.027550738 0.012261059 0.017469205 0.9280259 -0.37071994 -0.03653127 0
-0.055275515 0.019559653 0.01969547 -0.7438705 -0.55622 -0.37050775 0
-0.052181169 0.017410243 0.017439287 -0.69807804 -0.4826974 -0.52885759 0
-0.047614325 0.017502703 0.016928757 0.57127631 0.69268286 -0.44026557 0
-0.042770904 0.017030511 0.018936867 0.25207886 0.33155859 -0.90913427 0
-0.038647387 0.015996389 0.019561188 0.29357964 0.40719402 -0.86487228 0
0.01498774 0.015694754 0.019139772 -0.86210138 0.38749185 -0.32654446 0
0.017561384 0.017655486 0.017064212 -0.73302686 0.320941 -0.59972364 0
