# .PCD v0.7 - Point Cloud Data file format
VERSION 0.7
FIELDS x y z
SIZE 4 4 4
TYPE F F F
COUNT 1 1 1
WIDTH 513
HEIGHT 1
VIEWPOINT 0 0 0 1 0 0 0
POINTS 513
DATA ascii
-0.021283757 -0.046481375 -3.0637442e-05
-0.018023107 -0.046114646 -7.4633506e-05
-0.033152752 -0.030706856 -5.2281175e-06
-0.016388843 -0.030222688 -1.5162703e-05
-0.031865567 -0.026960826 -7.1729824e-05
-0.024573036 -0.025702382 -0.00010471459
-0.017960133 -0.026968826 -0.00010795812
0.058252081 -0.10078724 0.0094221141
0.066008128 -0.10231283 0.0080747623
0.074189462 -0.1019925 0.0082547907
0.080479167 -0.10066115 0.0094558494
0.03833976 -0.090828046 0.009491019
0.046094973 -0.092382237 0.008143397
0.055265542 -0.094264656 0.0069751227
0.06487269 -0.095161043 0.0060068653
0.07460054 -0.095948353 0.0061056409
0.081367932 -0.097441785 0.0081853587
-0.070334204 -0.080096558 0.0094494307
-0.064254247 -0.081431106 0.0080273775
-0.054911193 -0.082326725 0.0073632924
-0.045723103 -0.081495896 0.0079017272
-0.038729113 -0.080309182 0.009451339
0.018592136 -0.08065781 0.0093433727
0.026240014 -0.082335621 0.0082080588
0.03508693 -0.084378071 0.0072297924
0.045014981 -0.085103363 0.0062810429
0.05489729 -0.085192285 0.0057592848
0.063675903 -0.087460846 0.005376101
0.07063096 -0.089610696 0.0049966434
-0.090674095 -0.070307344 0.0093797678
-0.083745077 -0.072044082 0.0080741541
-0.074594244 -0.074072964 0.0077135325
-0.065144263 -0.07453128 0.007298802
-0.054995365 -0.074165344 0.006879108
-0.044809312 -0.074516356 0.0068496964
-0.035687659 -0.074457206 0.0071556121
-0.026470512 -0.072297312 0.0078541217
-0.00079481862 -0.070434757 0.0095064156
0.0063615842 -0.072192706 0.0083556725
0.015401506 -0.074205086 0.0074837403
0.025021004 -0.074835725 0.0067108949
0.034983929 -0.074984796 0.0059787589
0.044194493 -0.076955728 0.0057009766
0.051440336 -0.079156123 0.0055764429
-0.10415602 -0.062189125 0.0077779857
-0.094665982 -0.064826354 0.007102279
-0.084746629 -0.064687319 0.0071686711
-0.074628249 -0.064505599 0.0074444981
-0.065078609 -0.06494499 0.007365542
-0.05498476 -0.0649307 0.0072034444
-0.04492604 -0.06489633 0.0069112726
-0.035129271 -0.064754628 0.006866754
-0.024628861 -0.064644709 0.0068063815
-0.01547849 -0.064264663 0.0071275206
-0.0043781898 -0.064752281 0.0067999703
0.0049938587 -0.065083817 0.006698417
0.015046365 -0.065003276 0.0063852165
0.024423789 -0.06621965 0.0063653952
0.03275083 -0.068381719 0.0061507188
-0.121483 -0.05157984 0.0075580007
-0.11467075 -0.054822683 0.0071394891
-0.10470749 -0.054231741 0.0071542412
-0.09482009 -0.054791808 0.0076285661
-0.085367918 -0.055894934 0.0074643814
-0.075443134 -0.057543267 0.0075688199
-0.065443337 -0.058711052 0.0073096906
-0.054962926 -0.059206344 0.0076014386
-0.043828081 -0.057148241 0.0066111246
-0.035023082 -0.054914664 0.0063420963
-0.024863776 -0.054773357 0.0063439338
-0.014930696 -0.055005625 0.0064436276
-0.0050201891 -0.055149049 0.0064959745
0.0046548285 -0.055494484 0.0062789219
0.013516535 -0.05793586 0.0061470252
-0.1228206 -0.044825885 0.0062635867
-0.11486898 -0.045339234 0.0055658738
-0.10618628 -0.045092534 0.0077725919
-0.096748523 -0.048831277 0.0074234395
-0.034110811 -0.045286112 0.0046807094
-0.02504988 -0.045055117 0.0044199112
-0.015027125 -0.044997729 0.0049932487
-0.0060505541 -0.047518034 0.0065781758
0.0010697872 -0.049431168 0.005907339
-0.12082301 -0.039136257 0.0069737108
-0.11486556 -0.035235826 0.0060838242
-0.10458072 -0.036026791 0.006136267
-0.095677324 -0.034324583 0.006594501
-0.087587148 -0.031473577 0.0066721593
-0.03356117 -0.034873404 0.004391233
-0.025243673 -0.035148658 0.00064827927
-0.015780972 -0.035343777 0.0040139542
-0.1107962 -0.029246541 0.0077196374
-0.10454794 -0.025415996 0.0066227666
-0.094616808 -0.025499199 0.0060940301
-0.084994309 -0.025003539 0.006910061
-0.075704239 -0.023338521 0.0068556662
-0.066989362 -0.021097938 0.006896493
-0.050852768 -0.020543899 0.0058994838
-0.043825112 -0.022370068 0.0065058609
-0.035076946 -0.025158992 0.0055632666
-0.025611186 -0.023596767 0.0052390895
-0.015638426 -0.024206182 0.0052980697
-0.0090003125 -0.020972049 0.0062096361
-0.10022132 -0.019754412 0.0090194819
-0.093819924 -0.016788581 0.0073926887
-0.085004434 -0.014931118 0.0072947508
-0.075059287 -0.01498653 0.007329301
-0.0648662 -0.01531832 0.0071989358
-0.055019267 -0.015119037 0.0071146591
-0.045106083 -0.014924921 0.0069847438
-0.035006423 -0.015070688 0.006909532
-0.024876114 -0.015123439 0.006506966
-0.01517503 -0.014916515 0.0067571783
-0.0055437251 -0.014294811 0.0064777103
0.0014006825 -0.011183196 0.0065956041
-0.082890958 -0.0078245979 0.0078331372
-0.074817061 -0.0055559827 0.0074536181
-0.065139167 -0.0052835098 0.0073346784
-0.05437772 -0.0049842042 0.0073267291
-0.045192253 -0.0052319691 0.0072202329
-0.034859721 -0.0055670459 0.0069646244
-0.024890112 -0.0056816856 0.0074676848
-0.01479653 -0.0052333684 0.0066380762
-0.0049205208 -0.0050396514 0.0071344096
0.0045003267 -0.0044216365 0.0068635475
0.011486929 -0.0013712748 0.0063749747
-0.071799152 0.0011319689 0.0087303985
-0.064730428 0.0025623075 0.0078413123
-0.054677527 0.0028318882 0.0079511181
-0.045922715 0.0017013401 0.0083583072
-0.036228482 0.0007308796 0.0092618493
-0.012917045 0.0013126157 0.0089237206
-0.0039636367 0.0040840218 0.0078273732
0.0050659846 0.0049499418 0.0073983292
0.014427641 0.0054770717 0.0072302665
0.021498209 0.0085069286 0.0075280331
-0.00093877024 0.010772868 0.00927254
0.0061057382 0.013273516 0.0082954643
0.015554827 0.014965268 0.0077213282
0.024362922 0.015665526 0.0078194924
0.031413503 0.018658422 0.0074806511
0.0096537378 0.02020782 0.009846651
0.016633268 0.022446528 0.0087980293
0.025258023 0.024434617 0.0078868009
0.034688748 0.025448307 0.0074712266
0.041392956 0.02855305 0.0067767776
0.027241692 0.031969938 0.0086657479
0.035862662 0.034374937 0.0079945028
0.04448352 0.035505861 0.0077843694
0.051682919 0.038430441 0.007919292
0.038245738 0.041432902 0.0091385245
0.0459194 0.043832134 0.0085057681
0.054613147 0.045087595 0.0083292834
0.060845021 0.047414001 0.0091914646
0.049108848 0.050730966 0.0095855286
0.054186806 0.051389523 0.009115641
0.057139859 -0.10140365 0.015138954
0.064943261 -0.10369996 0.015174727
0.075098313 -0.10409308 0.01501278
0.081700161 -0.10177831 0.01562114
0.036580525 -0.091846347 0.015563932
0.045602754 -0.095065057 0.014252649
0.054862805 -0.095604211 0.015088513
0.061422713 -0.098363504 0.012527025
0.079645462 -0.099664517 0.011046749
0.082831331 -0.09872891 0.014579698
-0.071418367 -0.080734186 0.015258867
-0.064967491 -0.082912758 0.014771969
-0.055294372 -0.084966823 0.014811859
-0.044980604 -0.08482077 0.014945354
-0.035758942 -0.081941441 0.015563682
-0.02978087 -0.080005966 0.016586056
0.016910387 -0.081674784 0.015141809
0.025405142 -0.084994189 0.014398525
0.034439545 -0.085694775 0.013165532
0.04507963 -0.085062802 0.014929651
0.053090252 -0.087525934 0.017393256
-0.091220349 -0.070625007 0.015200259
-0.084533453 -0.073259532 0.014409221
-0.075256847 -0.075145721 0.014318652
-0.064811014 -0.076266125 0.014097298
-0.055654842 -0.075978339 0.014732196
-0.04486334 -0.074284002 0.014869783
-0.035447743 -0.074742496 0.013281565
-0.025016291 -0.075757526 0.01493384
-0.015542812 -0.07142438 0.015566491
-0.0045476942 -0.071613871 0.015159053
0.0053482344 -0.074676178 0.013870754
0.014149875 -0.075240441 0.013383863
0.025142651 -0.074353397 0.014222647
0.034303967 -0.076816566 0.01725775
0.041208163 -0.079241462 0.018234819
-0.1102448 -0.060161464 0.012638542
-0.10488975 -0.063130088 0.014941894
-0.095665894 -0.067233555 0.014949575
-0.085138083 -0.065351643 0.013860642
-0.077500582 -0.067735635 0.012490598
-0.033553131 -0.066323109 0.015235152
-0.024894858 -0.063038588 0.014619141
-0.015841193 -0.064158455 0.01245378
-0.0027683678 -0.064828523 0.012641869
0.004841235 -0.065211356 0.015576106
0.014524953 -0.066000409 0.017273271
0.022297563 -0.068637289 0.01768321
-0.12151815 -0.05174901 0.014980789
-0.11508839 -0.056093957 0.015048106
-0.10435 -0.053667709 0.015488519
-0.095361561 -0.056783985 0.015097366
-0.021033319 -0.058213782 0.018997341
-0.014526745 -0.057312772 0.016575692
-0.0049731983 -0.057300154 0.015293509
0.0035981629 -0.058200825 0.018821938
-0.1231568 -0.044605292 0.015007846
-0.10643231 -0.04542385 0.01480794
-0.0238565 -0.041330047 0.014965174
-0.018628528 -0.040517367 0.015696133
-0.12048469 -0.039342027 0.014909051
-0.11405813 -0.035060044 0.014993872
-0.10475545 -0.034640454 0.014927378
-0.098506242 -0.031137867 0.010950577
-0.030596048 -0.032946657 0.010693288
-0.028710222 -0.035137057 0.015169348
-0.015690928 -0.035512663 0.015005351
-0.1108803 -0.029100003 0.014572951
-0.10426464 -0.025424676 0.014523688
-0.095317438 -0.024652988 0.014392489
-0.089269668 -0.022628048 0.010325322
-0.03044764 -0.029710429 0.010254335
-0.024314605 -0.027740449 0.014467395
-0.017677484 -0.028078815 0.015088186
-0.10057049 -0.019512746 0.014145786
-0.094119079 -0.015654169 0.014422199
-0.086363442 -0.013552413 0.015643371
-0.07920184 -0.010399397 0.019035159
-0.057739407 -0.011495759 0.010640873
-0.021682134 -0.010083184 0.019485421
-0.016143881 -0.010965565 0.011999047
-0.0073747141 -0.011761227 0.014343238
-0.084274448 -0.0067893402 0.014553285
-0.075721174 -0.0047099572 0.014661617
-0.064653762 -0.0034396565 0.014519311
-0.056247782 -0.003289311 0.014515976
-0.044793379 -0.0044674701 0.014723954
-0.034986794 -0.0084391804 0.01517903
-0.024752608 -0.0075896843 0.01419063
-0.014636642 -0.0091729015 0.016099872
-0.0049904184 -0.0053840606 0.015011436
0.0027463124 -0.0024296707 0.015843811
-0.073382176 0.0021323333 0.015349738
-0.064932533 0.0057749958 0.014949263
-0.055019736 0.0054654069 0.014025107
-0.045000728 0.0059327856 0.014673701
-0.035099186 0.0036437514 0.014729016
-0.025009213 0.0014852169 0.01525746
-0.014694688 0.0034054026 0.015000555
-0.0053350218 0.0059420499 0.014256543
0.0052567199 0.0044525247 0.015657019
0.013013372 0.0075962478 0.015583689
-0.0026765745 0.012435503 0.015352351
0.0040508364 0.016156688 0.013984778
0.015818514 0.013947204 0.015440097
0.022508329 0.017493861 0.016883712
0.0080240779 0.021534692 0.015628345
0.014915395 0.025513921 0.013984507
0.025184734 0.025109045 0.015068167
0.032761361 0.028080042 0.015096863
0.018720692 0.031052336 0.016407264
0.025177421 0.034893908 0.014232416
0.035081301 0.034778602 0.014485414
0.041814975 0.037982915 0.018240424
0.029650748 0.040383443 0.017177567
0.03576304 0.043661293 0.014619715
0.04335472 0.046005387 0.014376111
0.054889563 0.048846222 0.010674149
0.062663808 0.049015459 0.012602573
0.04657704 0.05247052 0.015617807
0.055005334 0.054255988 0.014792729
0.063015051 0.052426245 0.015916808
0.057287406 -0.10140955 0.021924933
0.065750964 -0.10284888 0.023443535
0.074748024 -0.10294693 0.023609597
0.081421115 -0.1010948 0.022270169
0.03757168 -0.0910348 0.021953763
0.045602273 -0.093403563 0.023949284
0.055268712 -0.094497211 0.025113693
0.064801358 -0.095168188 0.026732452
0.074513443 -0.096540809 0.025963932
0.08224792 -0.098627456 0.022411276
-0.071486376 -0.08068753 0.022697233
-0.064759038 -0.082406938 0.024758048
-0.055061016 -0.083642483 0.025514958
-0.04521833 -0.083191641 0.024974255
-0.036978692 -0.081835434 0.02295872
0.016971454 -0.081427529 0.021934237
0.025528833 -0.083692141 0.024229655
0.035430301 -0.084200196 0.02573582
0.045479499 -0.084626138 0.025816774
0.054484636 -0.0855866 0.026946561
0.063212968 -0.087608255 0.027681654
-0.090905942 -0.070403129 0.023584411
-0.084504448 -0.073037803 0.025429258
-0.075214379 -0.075036295 0.025508568
-0.064954199 -0.075216651 0.02601416
-0.055057418 -0.074589089 0.027120724
-0.045006882 -0.074074984 0.027078753
-0.035179619 -0.074915059 0.026983395
-0.02548076 -0.07375212 0.024671808
-0.017031936 -0.071295358 0.022603193
-0.0029834874 -0.07152123 0.022731271
0.0053478451 -0.073920131 0.024571767
0.015413319 -0.074587621 0.026115132
0.0254055 -0.074241199 0.025693346
0.034576714 -0.075555623 0.026465267
0.044126324 -0.076919958 0.027800333
0.051301822 -0.079266272 0.027404036
-0.11015087 -0.060126178 0.026633337
-0.10466635 -0.063167669 0.024974983
-0.094614021 -0.065325916 0.025266932
-0.085074291 -0.065445222 0.025223792
-0.074869521 -0.064922698 0.027428899
-0.065078504 -0.064156659 0.028856872
-0.054770846 -0.06495209 0.028796401
-0.045007013 -0.065103889 0.028628333
-0.034833882 -0.065281458 0.027091214
-0.025855592 -0.063775748 0.026953259
-0.014540658 -0.065931685 0.02744578
-0.0051674973 -0.065469332 0.027178988
0.0054471414 -0.064063407 0.02649693
0.014834031 -0.065427639 0.026331082
0.02431073 -0.066407695 0.026745811
0.032437965 -0.068460897 0.027917976
-0.12154616 -0.052092329 0.02526504
-0.11485077 -0.056639753 0.024810405
-0.10467568 -0.052668966 0.024800049
-0.094609074 -0.054595824 0.025475306
-0.085605919 -0.05584354 0.028332595
-0.074773014 -0.057476137 0.028480751
-0.066039853 -0.0588977 0.029389739
-0.054602265 -0.059183776 0.028848406
-0.043849505 -0.057282228 0.028623391
-0.03508281 -0.055099908 0.028524162
-0.024822706 -0.055250403 0.026857464
-0.014831753 -0.053956464 0.026808642
-0.0048629134 -0.05471471 0.026482724
0.0043994118 -0.055791609 0.02737554
0.013299322 -0.057995323 0.028207436
-0.12316107 -0.044759642 0.024985455
-0.11336558 -0.042404935 0.028426478
-0.10650145 -0.044722345 0.024980159
-0.098295018 -0.042556267 0.027567359
-0.033624195 -0.045501176 0.028195215
-0.025002107 -0.044791333 0.024750672
-0.014781835 -0.045299739 0.025376709
-0.0055507938 -0.047588076 0.028266942
0.0011221537 -0.049327392 0.02776858
-0.12073355 -0.039279934 0.025281105
-0.11410134 -0.035810355 0.025869224
-0.10398385 -0.035565343 0.026309876
-0.09536054 -0.03475019 0.027905241
-0.086835951 -0.032088239 0.027717099
-0.03347066 -0.034686055 0.027565854
-0.028690916 -0.034635864 0.023859506
-0.015045706 -0.03479239 0.024959084
-0.11065973 -0.029434148 0.024355834
-0.10399561 -0.02559939 0.025914637
-0.095419444 -0.024692494 0.02689342
-0.084947124 -0.025009992 0.028217597
-0.075646415 -0.023599779 0.028349336
-0.0671601 -0.021130001 0.02883717
-0.052017059 -0.020642875 0.029117474
-0.044250362 -0.022606466 0.028834512
-0.03528966 -0.024414357 0.028276671
-0.024813533 -0.025603339 0.026075389
-0.015370782 -0.025688885 0.026173484
-0.0085357837 -0.021044498 0.028706791
-0.10025576 -0.019703642 0.021808123
-0.093937911 -0.016389331 0.02535243
-0.085213348 -0.014933531 0.026320137
-0.075174741 -0.015464368 0.027924821
-0.065035045 -0.015946584 0.028211184
-0.055207018 -0.016144715 0.028263494
-0.04509069 -0.015938267 0.028341504
-0.034894153 -0.015370997 0.027912883
-0.024874372 -0.014284465 0.026749251
-0.014874027 -0.015478888 0.02829759
-0.0054235081 -0.014646673 0.028463397
0.0014921681 -0.011517322 0.028893108
-0.084413022 -0.0065971101 0.024503371
-0.075360298 -0.0054435837 0.025531577
-0.06484355 -0.005562393 0.025114749
-0.054951683 -0.0046735173 0.025751652
-0.045423441 -0.0065247011 0.025137264
-0.034900628 -0.0059201494 0.025987402
-0.024919808 -0.0041568363 0.027137065
-0.014545709 -0.0056998632 0.026075311
-0.005915489 -0.0039212191 0.026172273
0.0047512539 -0.0049925363 0.02798472
0.011934869 -0.0017610714 0.028940186
-0.073043026 0.0016979222 0.023969298
-0.064975783 0.0041419961 0.025502032
-0.054913837 0.005738779 0.02546061
-0.044981118 0.0042424304 0.025412269
-0.035434157 0.0024378409 0.023890311
-0.025283238 0.0014243673 0.022144781
-0.014032907 0.0028687268 0.023603881
-0.0045197131 0.0046746368 0.025999483
0.0043671625 0.0060285768 0.025923664
0.014972703 0.0052867634 0.028014138
0.021769088 0.0079779867 0.0289395
-0.0022033916 0.0119365 0.023172425
0.0053474042 0.014796843 0.025755579
0.014404418 0.014644165 0.025591208
0.024756588 0.015047266 0.028292563
0.031950194 0.018007856 0.028669061
0.0083350549 0.021462142 0.022600256
0.015942613 0.024161575 0.025119882
0.024336139 0.025900031 0.026214685
0.034664623 0.025535526 0.028011447
0.042149868 0.027974829 0.028759314
0.018949134 0.030920342 0.022329409
0.025860945 0.034032926 0.02500776
0.034798656 0.035229746 0.025568241
0.04473066 0.035047606 0.028318668
0.052456308 0.037776429 0.028811984
0.029432675 0.040473256 0.021614168
0.036326759 0.043644615 0.024688844
0.044154134 0.045631327 0.025787154
0.055544797 0.04506107 0.02749902
0.062550239 0.047420189 0.024983475
0.046526007 0.052230302 0.023762859
0.055055205 0.053354941 0.024820656
0.062630773 0.052660316 0.023519665
-0.090385884 -0.070067026 0.030098077
-0.083776079 -0.071058221 0.030236136
-0.074215114 -0.072368577 0.030294884
-0.065376967 -0.073887795 0.030106239
-0.059662238 -0.070696332 0.030007556
-0.10382407 -0.061802637 0.03066794
-0.094634339 -0.064103164 0.030444002
-0.084826842 -0.064856581 0.030484525
-0.075204961 -0.065242097 0.030228345
-0.064611688 -0.066861644 0.030110048
-0.05859172 -0.065741815 0.030022644
-0.12163282 -0.051894512 0.031293489
-0.11470155 -0.054238543 0.031208556
-0.10512164 -0.055158757 0.030989183
-0.095122054 -0.055013828 0.030794071
-0.085269473 -0.055986494 0.030594479
-0.077108383 -0.057604421 0.030248934
-0.030909026 -0.051841434 0.030364675
-0.025510857 -0.050865564 0.031968378
-0.01811328 -0.050416458 0.030628107
-0.12260406 -0.046398003 0.031122202
-0.11523867 -0.047142863 0.030909816
-0.10888933 -0.04633959 0.030468326
-0.096340932 -0.049756687 0.030596511
-0.033565562 -0.04480176 0.033354919
-0.025013354 -0.045348115 0.035126567
-0.014864679 -0.045040343 0.033397924
-0.0078802612 -0.046697516 0.031187834
-0.03357622 -0.035169724 0.03328586
-0.024948549 -0.034990605 0.035303283
-0.015964614 -0.035129242 0.033865977
-0.097717203 -0.020069815 0.030001258
-0.033454176 -0.026659105 0.032389235
-0.024805047 -0.024537815 0.034025166
-0.015455282 -0.024886167 0.032567494
-0.0090281144 -0.021956107 0.030484691
-0.092667907 -0.017434113 0.030063463
-0.084700465 -0.013634304 0.030140538
-0.075063683 -0.012108615 0.030116739
-0.064745232 -0.012512393 0.030120792
-0.055044111 -0.012454771 0.030099597
-0.044900529 -0.012516164 0.030091407
-0.034690384 -0.013438234 0.030074351
-0.025162335 -0.013558033 0.030090971
-0.015647247 -0.011601904 0.03005711
-0.0070239361 -0.010530666 0.030026609
-0.081519626 -0.0089372108 0.030287689
-0.074071676 -0.0066065998 0.03034674
-0.064965799 -0.0051271007 0.030392963
-0.05506387 -0.0048312778 0.030402571
-0.045096617 -0.0051932167 0.030339882
-0.035748389 -0.0068922923 0.030243309
-0.025064213 -0.0087481868 0.030132053
-0.014900712 -0.0076362942 0.030130547
-0.0047110082 -0.0055502919 0.030160956
0.0043403865 -0.004142968 0.030163601
0.01119618 -0.0011539806 0.030059475
-0.062042318 0.00074164936 0.030280448
-0.054735411 0.0011923452 0.030455587
-0.048384629 0.00049709959 0.030199068
-0.0017497118 0.0017956657 0.030279972
0.0053897686 0.0043953527 0.030436607
0.014033233 0.0058335857 0.030311814
0.021430938 0.0092401141 0.030054353
0.0085455412 0.011412916 0.030375576
0.015588201 0.014327334 0.0305916
0.02467012 0.015580088 0.03038428
0.031954207 0.018192803 0.030377764
0.018618261 0.021450793 0.030306702
0.025724338 0.024134444 0.030740727
0.034643482 0.025285296 0.030771131
0.042222027 0.027933314 0.030724714
0.029160248 0.030791724 0.030307913
0.03595243 0.033942185 0.030870304
0.04483835 0.035283957 0.031083301
0.052256215 0.03771529 0.030912602
0.039239027 0.040536452 0.030124387
0.046130277 0.043378979 0.030785717
0.054932408 0.044982947 0.03092893
0.061199155 0.04615394 0.030773992
0.053772677 0.050839569 0.030186601
