# .PCD v0.7 - Point Cloud Data file format
VERSION 0.7
FIELDS x y z normal_x normal_y normal_z curvature
SIZE 4 4 4 4 4 4 4
TYPE F F F F F F F
COUNT 1 1 1 1 1 1 1
WIDTH 656
HEIGHT 1
VIEWPOINT 0 0 0 1 0 0 0
POINTS 656
DATA ascii
-0.058832198 0.043118503 0.062778473 -0.82099748 0.54619437 0.16623697 0
0.048220947 0.042491719 0.062667005 0.85256219 0.52175933 0.030083032 0
-0.056877591 0.047387894 0.062313296 -0.90974528 0.41029051 0.063444965 0
0.043995883 0.0488909 0.062554471 0.80924571 0.58685797 0.026816014 0
0.04587578 0.046190429 0.062572286 0.83234876 0.55366617 0.025480542 0
-0.055347461 0.050464805 0.062596157 -0.82484055 0.5642342 -0.035747658 0
-0.05343432 0.052677374 0.062229745 -0.7692824 0.63729447 0.045391299 0
0.039391913 0.054595944 0.063367449 0.72313476 0.68649143 0.076195069 0
0.041763891 0.051859584 0.062522426 0.78775162 0.61506915 0.033724029 0
-0.050641205 0.055511571 0.06315697 -0.68941015 0.70772809 0.15438443 0
-0.047930051 0.058091059 0.062667236 -0.65048724 0.74769342 0.1334947 0
0.033963744 0.058360092 0.062834658 0.77801043 0.59598517 0.19874956 0
0.037302695 0.056096122 0.062440082 0.46807078 0.86565912 0.17760663 0
-0.045349237 0.06030792 0.062423844 -0.62395322 0.77077633 0.12878723 0
-0.042541608 0.062531181 0.06238341 -0.59788829 0.78253841 0.17367516 0
-0.039458033 0.064594179 0.063174248 -0.53888661 0.81565738 0.21048568 0
0.02773823 0.063666634 0.062236611 0.52654201 0.84387076 -0.10312928 0
0.030961707 0.061499972 0.062753879 0.63977385 0.76852679 -0.0074778334 0
-0.037101306 0.066137515 0.062492415 -0.47185388 0.86175627 0.18635996 0
-0.032507438 0.068224348 0.062857971 -0.3784669 0.92200553 0.081661381 0
-0.028326532 0.06955377 0.062837809 -0.24685091 0.95904267 0.13893078 0
-0.024800599 0.069467679 0.064666405 -0.38383237 0.70942229 0.59109455 0
0.014797557 0.069930501 0.063146651 0.23040608 0.9637928 -0.13422582 0
0.017425802 0.06904573 0.06249433 0.35530806 0.93430382 0.028855033 0
0.022660498 0.066600479 0.062452305 0.47311479 0.87796122 -0.073119782 0
0.025391672 0.065190837 0.063112184 0.52359056 0.84143734 -0.13355176 0
-0.026659422 0.070489034 0.061531201 -0.3852576 0.86121225 0.33149669 0
-0.022498431 0.071795866 0.062730715 -0.36807212 0.87113416 0.32503575 0
-0.017673928 0.073107913 0.062635221 -0.14421584 0.98470169 0.097797811 0
-0.012455883 0.073716328 0.06250342 -0.053299218 0.99457699 0.089307785 0
-0.0076805241 0.073767632 0.062634893 0.022953162 0.99374717 0.10926905 0
-0.0022626577 0.073547766 0.062787913 0.063525751 0.99111277 0.11687573 0
0.0026126292 0.072895825 0.062714241 0.19930023 0.97960049 0.025736844 0
0.0078513529 0.071945757 0.062610805 0.17624842 0.97469652 0.13748951 0
0.012544692 0.07076139 0.062085576 0.29641023 0.95502949 -0.0077231792 0
-0.016404133 -0.05042924 0.06713625 -0.24703561 -0.96171296 0.11866589 0
-0.012510712 -0.051229592 0.067554913 -0.17992496 -0.98125803 0.068990432 0
-0.0077758557 -0.051886711 0.067774862 -0.10369379 -0.9760136 0.19142906 0
-0.0027029715 -0.052372441 0.067028016 -0.010323735 -0.991032 0.13322517 0
0.0025551771 -0.052273922 0.067417167 0.083706066 -0.98096013 0.17524417 0
0.0071615293 -0.05158757 0.06742911 0.20139007 -0.9500339 0.23849013 0
0.011961939 -0.050504178 0.066704094 0.28541321 -0.92991579 0.23193932 0
-0.03109484 -0.045562498 0.066387139 -0.3846457 -0.90508771 0.18128428 0
-0.027585745 -0.046783917 0.067278937 -0.34903595 -0.92282593 0.16299139 0
-0.02258474 -0.048523247 0.067471176 -0.31069988 -0.93500519 0.17097053 0
-0.018426672 -0.049746729 0.067978397 -0.28171402 -0.94346756 0.17466035 0
0.013576429 -0.049566537 0.068403788 0.30008706 -0.92426884 0.23595513 0
0.017203797 -0.048615087 0.067168772 0.34123048 -0.91699034 0.20661688 0
0.022491315 -0.046391629 0.067601427 0.41898838 -0.89923221 0.12581848 0
0.025121782 -0.045217671 0.066405945 0.55465603 -0.8302207 -0.055589672 0
-0.040674116 -0.040746722 0.066981733 -0.51844966 -0.83761764 0.1720653 0
-0.037345812 -0.042315036 0.067728974 -0.45458508 -0.85893667 0.23575458 0
-0.033408355 -0.044249475 0.067641169 -0.39772871 -0.88966089 0.22431087 0
0.027636029 -0.043344833 0.067512594 0.58198398 -0.81190276 -0.045920383 0
0.031108309 -0.040840469 0.067628443 0.60480881 -0.79626042 0.013255361 0
-0.047127839 -0.036582272 0.067567304 -0.52569139 -0.82709116 0.19891883 0
-0.043380193 -0.038948875 0.06732107 -0.53356624 -0.8289606 0.16772459 0
0.033707384 -0.038962964 0.067501657 0.60868508 -0.78957921 0.07789208 0
0.036809433 -0.036485218 0.066922434 0.64500332 -0.76336759 0.035222933 0
-0.051950894 -0.031957585 0.067578681 -0.71866524 -0.69211715 0.067037985 0
-0.049692176 -0.034404274 0.068004511 -0.73551583 -0.5914259 0.33050254 0
0.039310407 -0.034227747 0.067570418 0.71196872 -0.70221108 0.00034678809 0
0.041487996 -0.031840809 0.067399524 0.77690697 -0.62960851 -0.00293345 0
-0.056538261 -0.027136948 0.067610815 -0.750018 -0.64420301 0.14991841 0
-0.054499205 -0.029289156 0.068051934 -0.75706488 -0.64618844 0.096401185 0
0.043951366 -0.027918361 0.068020105 0.88192654 -0.44077829 0.16709331 0
0.045444224 -0.025635583 0.066558138 0.87641037 -0.43118724 0.21443483 0
-0.06095745 -0.021134382 0.067159027 -0.84816867 -0.51641768 0.11799505 0
-0.058965795 -0.023932284 0.067981713 -0.80926955 -0.56877488 0.14689374 0
0.046596441 -0.022715086 0.06764017 0.87778449 -0.43291163 0.20513873 0
-0.0629787 -0.017546663 0.067178972 -0.87609255 -0.47150847 0.10070539 0
0.049087849 -0.017604863 0.068004772 0.87496227 -0.43518195 0.21226801 0
0.05026675 -0.015730347 0.066630036 0.91858852 -0.36857021 0.14265713 0
-0.06566447 -0.012042492 0.067460895 -0.91022867 -0.40717056 0.075471833 0
-0.064636149 -0.014311911 0.067220286 -0.89922816 -0.42843279 0.088510118 0
0.051237371 -0.012424134 0.067385145 0.92744517 -0.34735033 0.13853917 0
-0.067484207 -0.0075763497 0.067638256 -0.94105339 -0.33393398 0.05391299 0
0.053009439 -0.0071942918 0.067499422 0.95341927 -0.27734205 0.11862978 0
-0.068688765 -0.0026995367 0.06739448 -0.98123819 -0.16677974 0.096727423 0
0.054315619 -0.0024211684 0.067665897 0.96764576 -0.23500594 0.091835879 0
-0.069456652 0.0024268043 0.067428716 -0.99452716 -0.058466859 0.086586989 0
0.054933161 0.00076945912 0.068853907 0.97517633 -0.2104255 0.068936557 0
0.055416711 0.0024822024 0.067429617 0.97673261 -0.20609601 0.05931133 0
-0.069476761 0.0072486633 0.067665912 -0.99637181 0.027069526 0.080686525 0
0.056385811 0.0076929298 0.067723297 0.98338604 -0.1468669 0.10668658 0
-0.069152862 0.012896624 0.067378044 -0.9922362 0.097532585 0.077166937 0
0.057017699 0.012648378 0.067369215 0.97034049 -0.014175156 0.24132639 0
-0.068542011 0.017833063 0.067257211 -0.98417395 0.1501217 0.094155423 0
0.056453049 0.017627643 0.067822248 0.97672826 0.1305192 0.17019601 0
-0.067620121 0.022728493 0.067471899 -0.97174567 0.2090492 0.1095846 0
0.054773476 0.023703571 0.066490464 0.97460634 0.21678504 0.05609557 0
0.055690698 0.022123251 0.067731664 0.96726096 0.25358129 0.010141299 0
-0.066382349 0.027764836 0.067751519 -0.95567644 0.26196209 0.13438135 0
0.054799415 0.028354554 0.067415282 0.98438483 0.16103554 0.071091063 0
0.055128168 0.026871059 0.067578986 0.99676418 0.069751799 0.039947264 0
-0.065508336 0.031140462 0.066859342 -0.94952983 0.29218441 0.11411135 0
-0.064494178 0.033682194 0.067686088 -0.92286366 0.3649933 0.1228924 0
0.053440258 0.032337274 0.067834087 0.90698451 0.41390476 0.077858321 0
-0.062742472 0.037771635 0.067447416 -0.9032321 0.42257431 0.074850738 0
0.049717858 0.039580975 0.066834979 0.8626408 0.50085336 0.070687905 0
0.051151946 0.036881868 0.067617334 0.87556082 0.47664565 0.078752927 0
-0.06084466 0.04138454 0.067704029 -0.81602961 0.57741964 -0.026121344 0
-0.058880407 0.043480325 0.067117728 -0.76388925 0.62948316 -0.14221188 0
0.047958922 0.042455506 0.067589708 0.85380685 0.51628441 0.066814668 0
-0.056894306 0.047346961 0.067504175 -0.85993308 0.50496906 0.07430619 0
-0.05480171 0.049639098 0.069351822 -0.729684 0.64993548 0.21247379 0
0.044053257 0.048483457 0.067383021 0.81839973 0.57256478 0.048902944 0
0.045650925 0.046133928 0.067673221 0.83060104 0.55418491 0.054598894 0
-0.055319153 0.050245449 0.065177441 -0.78548813 0.60321158 0.13836253 0
-0.052619144 0.052476224 0.067196533 -0.705773 0.68242913 0.19019744 0
0.039072532 0.054179471 0.067308478 0.62107426 0.77300382 0.12935208 0
0.041716594 0.051543783 0.067549065 0.75621736 0.64902157 0.083104193 0
-0.050215703 0.055239793 0.066115506 -0.68757343 0.70544744 0.17200798 0
-0.047687255 0.057241078 0.067433581 -0.65013415 0.73995453 0.17260627 0
-0.044358186 0.059681773 0.068652056 -0.59291196 0.77465862 0.21990806 0
0.033680502 0.058825035 0.067240834 0.68204486 0.7124151 -0.16516523 0
0.036300365 0.056414187 0.067535758 0.66662765 0.73915052 -0.096250504 0
-0.042392723 0.061517775 0.067095108 -0.56807804 0.79905432 0.1969759 0
-0.038330134 0.064042069 0.067751333 -0.50616699 0.83403176 0.21951333 0
0.027954344 0.063546635 0.06759347 0.57422888 0.81588179 0.067808896 0
0.031323627 0.061042681 0.067735903 0.60828698 0.78586793 -0.11134879 0
-0.035948344 0.065576509 0.067271344 -0.4778243 0.84721214 0.23219728 0
-0.032473322 0.067354158 0.067569204 -0.44565403 0.8704505 0.20906556 0
-0.02770845 0.069306016 0.067405991 -0.17698425 0.97895688 0.1015882 0
-0.02420886 0.069624312 0.067112416 -0.46366215 0.88195443 -0.084698625 0
0.01278413 0.069410719 0.068373278 0.16281289 0.91261107 0.3750107 0
0.017634032 0.068730339 0.067379937 0.29063174 0.93333024 0.21077925 0
0.022202102 0.066812769 0.06783171 0.44052282 0.88524395 0.14927435 0
0.025547719 0.065300927 0.066679142 0.51137108 0.85473859 0.089003377 0
-0.021584459 0.071260437 0.067739427 -0.40730116 0.90852708 0.093189679 0
-0.017278323 0.072516672 0.067461938 -0.16262345 0.96832991 0.18944874 0
-0.012614654 0.072987653 0.067504935 -0.056032509 0.9843244 0.16723005 0
-0.007514196 0.07308954 0.067756891 0.0049204505 0.98762035 0.15678585 0
-0.0022843191 0.07299076 0.067168824 0.060659993 0.99020892 0.12572424 0
0.0024876909 0.072585583 0.066998102 0.14226638 0.9827165 0.11844188 0
0.0077997441 0.0712649 0.067508496 0.28393474 0.95102131 0.12222746 0
0.011736877 0.070571192 0.066245176 0.22103681 0.92930454 0.29586443 0
-0.015512384 -0.050092548 0.070512682 -0.26316214 -0.94569618 0.19079942 0
-0.011979057 -0.050546825 0.071904011 -0.19572052 -0.9418959 0.27299389 0
-0.0074939602 -0.051053628 0.072548084 -0.10082778 -0.96511054 0.24165119 0
-0.0028668474 -0.051336411 0.072340854 -0.00026582315 -0.96229869 0.27199468 0
0.0021492082 -0.050926011 0.072630279 0.10815462 -0.94841534 0.29801154 0
0.0071622278 -0.050452914 0.071534179 0.20131487 -0.94016629 0.27488121 0
-0.030285442 -0.045029752 0.070169419 -0.38953838 -0.88702607 0.24788034 0
-0.026880719 -0.045751225 0.072287068 -0.32468161 -0.90699059 0.2682347 0
-0.022710238 -0.047254164 0.072402522 -0.31622171 -0.91064489 0.26595059 0
-0.0175952 -0.048980072 0.072248317 -0.27457714 -0.92588198 0.25951877 0
-0.013021484 -0.049724154 0.07380449 -0.20742171 -0.92688495 0.31282657 0
0.0044292645 -0.049927462 0.074847184 0.12738621 -0.93497145 0.33106059 0
0.0081545198 -0.049560867 0.073811106 0.20264287 -0.93525451 0.29023236 0
0.012899724 -0.048720989 0.072446242 0.28395703 -0.92550147 0.25062996 0
0.017702596 -0.04718671 0.072303645 0.31208313 -0.92175061 0.23017368 0
0.021766013 -0.045725673 0.072292447 0.35361201 -0.91106194 0.21195409 0
-0.036739323 -0.041283395 0.072492428 -0.44860709 -0.85625303 0.2560907 0
-0.032603238 -0.043341253 0.072360836 -0.41553193 -0.87064445 0.26327077 0
-0.028784299 -0.044670194 0.073568918 -0.35899079 -0.91202736 0.19832201 0
0.024104629 -0.044530813 0.073501028 0.37379125 -0.90593529 0.19890045 0
0.027584612 -0.043183871 0.072392836 0.43775868 -0.88936383 0.13190661 0
0.031502455 -0.040937982 0.072762743 0.5733912 -0.81590003 -0.074362196 0
-0.046271618 -0.035725176 0.072244935 -0.55103028 -0.79497653 0.25372809 0
-0.042588498 -0.038050108 0.072346136 -0.49582484 -0.83141035 0.25082758 0
-0.039145134 -0.039545529 0.073939078 -0.47252175 -0.83720934 0.27532476 0
0.03370887 -0.038637638 0.072118618 0.71318108 -0.68839777 -0.13221672 0
0.036733776 -0.036564227 0.072792999 0.60353571 -0.79514074 -0.059125595 0
-0.051512569 -0.031434741 0.07187096 -0.72492266 -0.6453625 0.24082002 0
-0.048731118 -0.033863533 0.072626069 -0.58677787 -0.78339142 0.20491378 0
0.039350573 -0.034000311 0.073017724 0.78922772 -0.59536767 0.15052223 0
0.041139241 -0.031507175 0.072442852 0.84351456 -0.49858639 0.19973715 0
-0.055858396 -0.026530806 0.07221552 -0.74329591 -0.61231184 0.26941678 0
-0.053535338 -0.028604958 0.073201552 -0.6869123 -0.66637599 0.2899906 0
0.043085165 -0.027607091 0.072608635 0.88579762 -0.41107589 0.21535847 0
-0.060363185 -0.020574026 0.072264716 -0.81252396 -0.55185646 0.18777457 0
-0.058503509 -0.023029407 0.072607614 -0.77842522 -0.58358938 0.23125221 0
0.044590458 -0.024322646 0.072528005 0.89608711 -0.39516056 0.20217821 0
0.045761783 -0.022069128 0.072171696 0.86870128 -0.43886131 0.22969317 0
-0.062073968 -0.017588662 0.072644159 -0.85597211 -0.49005628 0.16479234 0
0.047998991 -0.017274974 0.072588064 0.86965674 -0.41955286 0.26013958 0
-0.065623693 -0.011107075 0.071858831 -0.88567793 -0.44788918 0.12235177 0
-0.064351916 -0.013456722 0.072577424 -0.87444037 -0.46740597 0.12994525 0
0.049555745 -0.013777218 0.072940797 0.8713488 -0.40404731 0.27838296 0
0.050806135 -0.011711363 0.071877874 0.88750648 -0.38103104 0.25912863 0
-0.06679114 -0.0080202809 0.072678246 -0.92952406 -0.31912628 0.18477948 0
0.051996611 -0.0076844469 0.072565787 0.94887179 -0.24411221 0.20012876 0
-0.068238415 -0.0022685251 0.072285093 -0.97114551 -0.18166633 0.15451142 0
0.053342596 -0.0022434127 0.072476648 0.89902854 -0.3146452 0.3045423 0
-0.068876259 0.002647348 0.072495572 -0.98811537 -0.052363172 0.14452042 0
0.054656211 0.0014850021 0.0732347 0.94599545 -0.27939263 0.1644152 0
0.055345081 0.0032596174 0.071722731 0.95994633 -0.23321447 0.15528683 0
-0.068833992 0.0073368554 0.073029779 -0.98780143 0.029129934 0.15296984 0
0.055717036 0.0074902633 0.07229919 0.99388576 -0.046575755 0.10010856 0
-0.068506524 0.012976409 0.072720215 -0.98284185 0.096544176 0.15716569 0
0.055986058 0.012315969 0.072281294 0.9952879 -0.057052907 0.0784024 0
-0.067925431 0.017491909 0.072461925 -0.97137809 0.16895616 0.16696858 0
0.055840001 0.017541058 0.07264974 0.98376846 0.038428307 0.17527956 0
-0.066907167 0.02269135 0.072223864 -0.95640147 0.22781503 0.1827473 0
0.055571496 0.022196719 0.072448328 0.98158276 0.071201771 0.17727262 0
-0.06567581 0.027634948 0.072018899 -0.94584405 0.25914955 0.19550088 0
-0.064823404 0.029293099 0.073709786 -0.93092132 0.28702319 0.2258388 0
0.054343931 0.028091814 0.07204026 0.93495131 0.29883337 0.19121891 0
0.055217531 0.025778234 0.071796685 0.96857697 0.24747147 0.024831567 0
-0.065219574 0.03007759 0.071041442 -0.9375931 0.27852142 0.20819446 0
-0.063972436 0.032820955 0.072427057 -0.92399853 0.3238636 0.20332032 0
0.052529261 0.032576557 0.072453074 0.88655466 0.38811666 0.25176665 0
-0.062420934 0.037181124 0.072202906 -0.92189026 0.35400879 0.15746772 0
0.049491074 0.039032001 0.072803319 0.8752535 0.482171 0.03797929 0
0.050842144 0.03635513 0.072428964 0.91380709 0.405985 0.011520309 0
-0.060727529 0.041059684 0.07206738 -0.82518631 0.54451483 0.1502369 0
-0.058862075 0.043196734 0.07263165 -0.78922927 0.59058976 0.16828792 0
0.047533516 0.042611454 0.072708212 0.8661406 0.49979824 -0.0014159217 0
-0.056222022 0.047056466 0.072388776 -0.74658126 0.63227928 0.20697643 0
-0.054284595 0.04905827 0.072985537 -0.72851211 0.65020305 0.21565294 0
0.043443844 0.048309848 0.073039256 0.67632377 0.69354373 0.2481598 0
0.045656536 0.045788784 0.07235875 0.865991 0.49811137 0.04409837 0
-0.051852126 0.051877681 0.072477162 -0.71229833 0.67423892 0.19502021 0
-0.049258526 0.054394141 0.073011503 -0.67972922 0.70315421 0.2086678 0
0.038970456 0.053656012 0.07218691 0.70700699 0.70271367 0.079590589 0
0.041139238 0.05120609 0.072459742 0.77395612 0.62928712 0.070637055 0
-0.046919882 0.056645069 0.072331443 -0.62599033 0.74884343 0.21764547 0
-0.043612573 0.059077121 0.072746642 -0.57351905 0.78978574 0.21751894 0
0.033739872 0.058364816 0.072590947 0.64458436 0.73905963 0.1957085 0
0.036478173 0.056134492 0.07224647 0.64536303 0.7466625 0.16125059 0
-0.041427683 0.060779314 0.072242938 -0.5494048 0.79843915 0.24627091 0
-0.037947934 0.062869467 0.072607636 -0.50141478 0.82760841 0.25228482 0
-0.03450907 0.064671583 0.073433287 -0.4901 0.83586186 0.24725886 0
0.024180489 0.064446054 0.074247561 0.45781499 0.81020051 0.36603364 0
0.027647313 0.063074015 0.072316952 0.53158468 0.79146945 0.30165184 0
0.030878909 0.060774338 0.072252415 0.58267927 0.74393523 0.32717785 0
-0.035279926 0.065057367 0.070559263 -0.48063898 0.84366691 0.23919107 0
-0.032225531 0.066268645 0.072269194 -0.45832628 0.85667491 0.23673834 0
-0.027359717 0.06851089 0.072444126 -0.2933335 0.93147522 0.21519612 0
-0.024177628 0.069341488 0.072354414 -0.44863832 0.87203676 0.19564134 0
0.012539003 0.068633057 0.072478555 0.58463031 0.81128019 -0.0056373877 0
0.01747443 0.067348443 0.072216287 0.17784612 0.97773165 0.11140779 0
0.022115439 0.066048793 0.072239622 0.34027898 0.91772395 0.20492204 0
0.025356576 0.065113507 0.070376389 0.45504022 0.87896991 0.14265405 0
-0.021694642 0.070716128 0.072147034 -0.34831399 0.92334586 0.16158494 0
-0.017185025 0.071586013 0.07234633 -0.13455546 0.97193897 0.19294944 0
-0.01264319 0.072065748 0.072468884 -0.072860703 0.97714108 0.19971645 0
-0.0072794799 0.072243892 0.072575048 -0.027326625 0.98096144 0.19227009 0
-0.002279788 0.072209813 0.07227017 0.054619256 0.98403484 0.16938779 0
0.0027565446 0.071727656 0.072494186 0.11836657 0.98146069 0.15074578 0
0.0074279429 0.070894331 0.072602525 0.23502994 0.96242326 0.13602372 0
0.010317829 0.070119143 0.071333952 0.47511208 0.87991786 -0.0036077446 0
-0.0062933746 -0.050201103 0.075658783 -0.080205485 -0.92938554 0.36029112 0
-0.0021244313 -0.050289549 0.075590767 0.029866423 -0.94753999 0.31823891 0
0.0011469797 -0.05017237 0.075330839 0.096826427 -0.93982804 0.32763994 0
-0.025864014 -0.045273054 0.07547693 -0.39338896 -0.89813459 0.19646749 0
-0.022146275 -0.046062283 0.077300005 -0.31804189 -0.90207881 0.29172459 0
-0.017475577 -0.047462311 0.077515453 -0.2657505 -0.93765461 0.22401011 0
-0.012380802 -0.048748374 0.077445701 -0.2030095 -0.94097799 0.27082753 0
-0.0078066122 -0.049209442 0.0779019 -0.045211688 -0.95055497 0.30724767 0
-0.0024508112 -0.049257793 0.078562029 0.037114087 -0.94169837 0.33440503 0
0.002998176 -0.049170475 0.077498756 0.11900865 -0.94690049 0.29869118 0
0.0075073182 -0.048312597 0.07790564 0.18786602 -0.92246556 0.33728871 0
0.012458689 -0.047175523 0.077827409 0.24961089 -0.91625059 0.31333593 0
0.017004957 -0.045923911 0.077544205 0.28497523 -0.90874088 0.30492485 0
0.020636143 -0.045249134 0.075919695 0.31479019 -0.91269618 0.2605623 0
-0.035789046 -0.040285822 0.07686767 -0.42695302 -0.84635413 0.31842709 0
-0.032367762 -0.041675162 0.077594757 -0.40579337 -0.85439718 0.32455689 0
-0.027590742 -0.043708164 0.077917479 -0.37091416 -0.86169195 0.34627983 0
-0.023960954 -0.044785473 0.079047702 -0.3760587 -0.83486933 0.40196151 0
0.019316321 -0.04478218 0.078827024 0.29184943 -0.90326506 0.31454131 0
0.022780744 -0.043951303 0.077753209 0.32121113 -0.90768194 0.27006832 0
0.027558669 -0.042163435 0.077408135 0.3910602 -0.88803065 0.24181294 0
0.031044494 -0.040757671 0.076628797 0.43280187 -0.87289876 0.22523397 0
-0.045069113 -0.035346892 0.075430311 -0.5570702 -0.75195587 0.35247016 0
-0.04236142 -0.036394972 0.077376418 -0.4842858 -0.80304122 0.34726384 0
-0.037982825 -0.038776245 0.077801034 -0.45801699 -0.82580137 0.32904777 0
-0.034655076 -0.03974808 0.079765633 -0.42814612 -0.83481824 0.34607717 0
0.033195138 -0.038943138 0.077992 0.62170786 -0.72180569 0.30409861 0
0.036435537 -0.036279332 0.07719028 0.70360583 -0.65921527 0.26528096 0
-0.05081087 -0.030696737 0.076569647 -0.72530794 -0.63391942 0.26846713 0
-0.047791805 -0.032798465 0.077876419 -0.57795089 -0.74881089 0.32443029 0
-0.044794079 -0.03480592 0.077998936 -0.61275482 -0.72712976 0.30953822 0
0.038725134 -0.032867532 0.077707835 0.80138803 -0.51907015 0.29722628 0
0.040424231 -0.030745253 0.07659021 0.84065354 -0.45636964 0.29159632 0
-0.055087045 -0.025678653 0.075492285 -0.73956782 -0.48959786 0.46188024 0
-0.052448697 -0.027367452 0.077578098 -0.77028543 -0.45093757 0.45090535 0
0.041569475 -0.027881013 0.077406913 0.85829747 -0.41885582 0.29645449 0
-0.057429969 -0.022102484 0.07755354 -0.68225539 -0.65722734 0.320281 0
-0.053895172 -0.024425637 0.078635879 -0.53726542 -0.76964211 0.34495923 0
0.043891672 -0.022699449 0.077751011 0.87147093 -0.40950254 0.26990011 0
0.045472734 -0.020615591 0.075729758 0.87291461 -0.40820575 0.26718572 0
-0.061370451 -0.017079763 0.077119179 -0.82536608 -0.50805891 0.24626601 0
-0.059511568 -0.019424547 0.078195125 -0.78673726 -0.53704417 0.3043485 0
0.044819668 -0.019820699 0.079369552 0.8635211 -0.4909099 0.11549353 0
0.046541661 -0.017111842 0.077406466 0.89025176 -0.38362432 0.24552831 0
-0.065374956 -0.010379 0.075427793 -0.90666848 -0.31061471 0.28543091 0
-0.063523501 -0.012476762 0.077759534 -0.85541415 -0.39425361 0.33590299 0
0.048715252 -0.012553924 0.077354133 0.88241285 -0.41824013 0.21545959 0
0.050025918 -0.010042091 0.076652199 0.89507794 -0.4368 0.08967343 0
-0.065717861 -0.0076963282 0.076528654 -0.90550321 -0.18723866 0.38079599 0
-0.064361475 -0.0077697383 0.079163305 -0.84755087 -0.1272026 0.5152446 0
0.049862206 -0.0093159322 0.07913433 0.85593569 -0.3410798 0.3886368 0
0.050841078 -0.007514277 0.077708885 0.92688036 -0.27606657 0.2543228 0
-0.067076668 -0.0023054059 0.077461563 -0.88947314 -0.38855806 0.24054146 0
-0.064759687 -0.0043681576 0.078854539 -0.83405381 -0.38216808 0.39787158 0
0.051771358 -0.0027364211 0.077419221 0.94195014 -0.27043244 0.19898818 0
-0.067986391 0.0022763372 0.077712201 -0.982768 -0.061574299 0.17428614 0
0.053639151 0.0025271885 0.077757783 0.91116172 -0.20340614 0.35834375 0
-0.068078853 0.0075400234 0.077498533 -0.98470968 0.028672941 0.17182776 0
0.054163035 0.0071423533 0.078079365 0.89153033 -0.060585994 0.44889078 0
0.055282194 0.0072288471 0.075819165 0.92601615 -0.06819661 0.37127265 0
-0.067633882 0.012842134 0.077668712 -0.97325462 0.12094577 0.19531381 0
0.054127451 0.012427497 0.078444429 0.90376347 0.020705165 0.42753115 0
0.05534818 0.01247563 0.075955823 0.91143501 0.10659931 0.39739498 0
-0.066889755 0.017625617 0.077553369 -0.95944792 0.18628472 0.21156026 0
0.054000389 0.0177636 0.07805489 0.91909742 0.060133394 0.38941479 0
0.055249322 0.017596342 0.075268246 0.96388638 0.03494883 0.26401091 0
-0.065839984 0.022321407 0.077539168 -0.94019318 0.24487731 0.23679514 0
-0.064780265 0.024570519 0.079183772 -0.92865694 0.26273462 0.2618525 0
0.053699221 0.022390803 0.077794783 0.91008604 0.093886554 0.40364423 0
0.055094261 0.021951925 0.075068131 0.81472725 0.16637509 0.55546272 0
-0.065294243 0.025738889 0.0761251 -0.93156755 0.27319932 0.2398832 0
-0.064186566 0.028055999 0.077626653 -0.92681909 0.27784938 0.25259861 0
0.053179272 0.027652718 0.077253506 0.87960386 0.19231009 0.43510219 0
-0.062714703 0.032884765 0.07747025 -0.91719335 0.2953479 0.26744357 0
0.049708664 0.034776386 0.078270562 0.78023636 0.61598516 0.10859783 0
0.051519502 0.032286867 0.077240422 0.85718107 0.44230634 0.26382881 0
-0.061259545 0.037164554 0.07765507 -0.91636097 0.31722328 0.24423765 0
-0.059834462 0.03956249 0.079488002 -0.82069218 0.48964944 0.29446185 0
0.048371192 0.03737602 0.077988558 0.76397455 0.41138083 0.49710032 0
0.050425593 0.036609571 0.075533845 0.88588649 0.25848621 0.38521421 0
-0.060277905 0.040474113 0.075955339 -0.7844137 0.58930969 0.19341451 0
-0.058079284 0.042485081 0.077634759 -0.75493872 0.6105513 0.23936297 0
0.04438458 0.042670663 0.079276212 0.72495174 0.33385435 0.60248345 0
0.046586864 0.042224966 0.077114999 0.73210466 0.39862058 0.55238062 0
-0.055900056 0.045637555 0.077199891 -0.73890471 0.62376499 0.25482726 0
-0.053438019 0.048180237 0.07802169 -0.72747427 0.63750231 0.25371626 0
0.042630628 0.047937237 0.077557005 0.79887486 0.55109102 0.24103494 0
0.045577306 0.045714315 0.075602494 0.70692652 0.51585555 0.48388833 0
-0.050938297 0.051341187 0.076944605 -0.70303971 0.66676748 0.24729818 0
-0.048730701 0.05342219 0.077271819 -0.66097981 0.70426881 0.25905815 0
0.037587974 0.053248387 0.077685095 0.62339407 0.70547473 0.33717257 0
0.040510796 0.051070325 0.076740801 0.68711597 0.63025331 0.36145869 0
-0.045912027 0.056118939 0.076632224 -0.60175467 0.75582546 0.25810689 0
-0.042677391 0.058121499 0.077859536 -0.5496242 0.78966928 0.27264586 0
-0.039478395 0.059583321 0.079583846 -0.47866443 0.80168712 0.35801962 0
0.029582709 0.059046507 0.078938596 0.53799117 0.71240216 0.45060918 0
0.032604776 0.057539739 0.07751181 0.58457941 0.71531785 0.38286716 0
0.035916913 0.055789858 0.075573683 0.60882425 0.75565261 0.24149989 0
-0.040261466 0.060343977 0.076016426 -0.52801675 0.81344956 0.24392237 0
-0.037667491 0.061471336 0.077388771 -0.4967773 0.81966436 0.28524143 0
-0.033217356 0.063946433 0.077884704 -0.4756957 0.82760459 0.29796675 0
0.019473273 0.064852811 0.078690775 0.33489543 0.92120844 0.19804062 0
0.023206918 0.063508779 0.078072146 0.40682304 0.85963523 0.30906659 0
0.027597928 0.061331168 0.077195086 0.52794933 0.78189498 0.33152622 0
0.030320879 0.060107522 0.076417871 0.37808606 0.9156518 0.13650142 0
-0.03094651 0.065494038 0.077084094 -0.4611322 0.84117037 0.28247023 0
-0.027554363 0.06719368 0.077068873 -0.38280958 0.88062 0.2792224 0
-0.022595329 0.068890728 0.077699602 -0.36350784 0.89530569 0.25746796 0
-0.018341368 0.069885984 0.079109989 -0.14821176 0.95249736 0.26604897 0
0.0085315583 0.069580413 0.078476839 0.26868942 0.92586237 0.2656779 0
0.012418026 0.068521947 0.077265665 0.36944452 0.89876348 0.23608261 0
0.017450379 0.066309132 0.077192292 0.37920153 0.88314551 0.27615243 0
0.021056974 0.065432332 0.075547792 0.39505193 0.83877742 0.37468183 0
-0.021172946 0.070106991 0.075941145 -0.27730045 0.93128628 0.23624215 0
-0.017000949 0.070663869 0.076771237 -0.1274972 0.96581644 0.22570555 0
-0.012577659 0.07090272 0.077485785 -0.063651361 0.96900588 0.23869634 0
-0.0077140997 0.071233012 0.077368438 -0.056935124 0.97485059 0.21546407 0
-0.0024248976 0.071239747 0.077419661 0.038666528 0.97414279 0.2226 0
0.0026028983 0.070795827 0.077484049 0.1122549 0.96782494 0.22519702 0
0.0070410417 0.070339575 0.076533131 0.17498457 0.96784157 0.18072912 0
-0.021018742 -0.045269888 0.080698535 -0.32931444 -0.85764039 0.39497465 0
-0.017462863 -0.045878708 0.082106628 -0.26494473 -0.89685804 0.35418922 0
-0.012270621 -0.047040917 0.082357809 -0.17813312 -0.90726972 0.38095972 0
-0.0077630556 -0.047396731 0.08284875 -0.075705163 -0.90632105 0.41575345 0
-0.002511783 -0.047790881 0.082352974 -0.0082388949 -0.91313696 0.40756968 0
0.0023371042 -0.047322229 0.082604565 0.15177326 -0.89959317 0.40950817 0
0.0071567772 -0.046752106 0.082168132 0.15069547 -0.89967579 0.40972477 0
0.01147454 -0.045813736 0.082163699 0.24605584 -0.89787191 0.36507896 0
0.015874162 -0.045297079 0.080311753 0.27487421 -0.90249985 0.33156931 0
-0.031269409 -0.04060261 0.081566401 -0.39519799 -0.84725362 0.35493636 0
-0.027164102 -0.042004153 0.082655579 -0.37635419 -0.85741067 0.35100484 0
-0.022804603 -0.04376398 0.082775161 -0.33716434 -0.87908435 0.33694327 0
-0.018909127 -0.044657558 0.084078617 -0.28955331 -0.88734764 0.35884979 0
0.013459905 -0.044502202 0.084075116 0.24398635 -0.90206903 0.35600847 0
0.017620536 -0.043883663 0.082604811 0.27672616 -0.89183819 0.35783684 0
0.022301696 -0.042421173 0.082398854 0.30024904 -0.87522584 0.37924966 0
0.026960917 -0.0407915 0.08201094 0.39168036 -0.8364414 0.38334331 0
0.030104682 -0.040085427 0.080081947 0.44441348 -0.83208799 0.33185279 0
-0.041366387 -0.035459567 0.081651188 -0.27283177 -0.94500917 0.18033473 0
-0.037682481 -0.036862213 0.08233276 -0.42178479 -0.83829165 0.34549212 0
-0.032935254 -0.039151292 0.083078742 -0.409872 -0.8326242 0.3724809 0
-0.029966595 -0.039962441 0.084476776 -0.39828482 -0.83355814 0.38281861 0
0.028600644 -0.03926285 0.08343038 0.44828102 -0.78346521 0.43037939 0
0.032266386 -0.037023906 0.082528241 0.56785822 -0.68589783 0.45506173 0
0.035716679 -0.035426751 0.080361173 0.63209045 -0.66556007 0.39685181 0
-0.046801347 -0.031648435 0.082363158 -0.56658411 -0.75089669 0.3393178 0
-0.043209203 -0.033881068 0.082919687 -0.52958465 -0.74826139 0.3995561 0
0.033898577 -0.034282137 0.084231503 0.50019455 -0.70385718 0.50437135 0
0.036901906 -0.03247812 0.082294211 0.73641402 -0.54571068 0.39986786 0
-0.05140198 -0.02670799 0.082393602 -0.69284445 -0.70804209 0.13653891 0
-0.049227573 -0.028677436 0.083451621 -0.72998691 -0.58073163 0.36037454 0
0.038955625 -0.028581508 0.083220519 0.79767275 -0.4625797 0.38696012 0
0.040772755 -0.026390856 0.08171057 0.85153824 -0.43007645 0.29986143 0
-0.056494169 -0.021539569 0.082506374 -0.73222864 -0.65380085 0.19075006 0
-0.054077998 -0.024067651 0.082419604 -0.69385177 -0.71440721 0.090509698 0
0.042297062 -0.022374976 0.082755215 0.83578175 -0.39256626 0.38387588 0
-0.060788348 -0.015883353 0.081888989 -0.79399335 -0.57363302 0.20129539 0
-0.058851872 -0.018201413 0.082679465 -0.80743802 -0.54243648 0.23196238 0
0.044124573 -0.017715169 0.083213471 0.83867502 -0.35252813 0.41514841 0
0.045944061 -0.016347928 0.081071243 0.80606657 -0.33658475 0.48679301 0
-0.062471721 -0.012426558 0.082593128 -0.89868176 -0.39945504 0.18112645 0
0.044718191 -0.014609403 0.08482597 0.84031934 -0.37169635 0.39459518 0
0.046896096 -0.012260241 0.082437195 0.83420998 -0.34773722 0.42798662 0
-0.065396078 -0.0054892283 0.082911037 -0.89571953 -0.42217094 0.13949263 0
-0.064169139 -0.0077979909 0.082525559 -0.92189896 -0.38738099 0.0062020645 0
0.048638407 -0.0074033602 0.082769908 0.85958707 -0.24293204 0.44954869 0
0.050347436 -0.0061951526 0.080199733 0.84654129 -0.056735121 0.52929097 0
-0.066364847 -0.0023875337 0.081968099 -0.96823198 -0.2375368 0.078122362 0
0.049430188 -0.0030746581 0.083463736 0.87260008 -0.29285073 0.3909061 0
0.050663508 -0.001835278 0.081763655 0.87457627 -0.3304376 0.35486242 0
-0.066998415 0.0026454655 0.082677878 -0.96150148 -0.093795232 0.25829685 0
0.051447026 0.002476759 0.082427509 0.89390785 -0.15236335 0.42156166 0
-0.067127168 0.0073775989 0.082370602 -0.97503257 0.047022887 0.21702598 0
0.05194667 0.0075950152 0.082717359 0.8984772 -0.083468914 0.4310123 0
-0.066637971 0.012312479 0.082283676 -0.95832771 0.13948508 0.24930291 0
0.052427698 0.012887822 0.082181014 0.90572315 0.0099937432 0.42375186 0
-0.065705098 0.017442998 0.082286574 -0.93571436 0.20536201 0.28681892 0
-0.064708106 0.01914634 0.084156476 -0.91775352 0.22900188 0.32447904 0
0.051928144 0.017392885 0.082842842 0.90435112 0.062004264 0.42226127 0
-0.065376438 0.020866824 0.080712482 -0.93067557 0.24435489 0.27227497 0
-0.064150155 0.022878578 0.082856596 -0.91752708 0.25958571 0.30126294 0
0.051556487 0.022612091 0.082589142 0.89803034 0.11143671 0.42558587 0
-0.062891066 0.027432831 0.082386792 -0.90017945 0.29305381 0.32217443 0
0.049669672 0.028618783 0.084132083 0.87723666 0.22001956 0.42666993 0
0.050946526 0.02716268 0.082211547 0.88072008 0.20175506 0.42851707 0
-0.06100205 0.032611489 0.082811438 -0.89142114 0.29819694 0.34124309 0
-0.059753738 0.034697331 0.084235638 -0.89103776 0.28680408 0.35184523 0
0.049087863 0.032550499 0.082880557 0.86226714 0.32091531 0.39180186 0
0.050389599 0.03082842 0.081385255 0.87368923 0.26720107 0.40653512 0
-0.060283553 0.036599267 0.081383593 -0.90103966 0.27766922 0.33320764 0
-0.058932893 0.038011901 0.083118498 -0.82519537 0.40274814 0.3960385 0
0.044305522 0.039385159 0.082352139 0.69236338 0.70976764 0.12985732 0
0.046729807 0.037051212 0.08222644 0.75530964 0.63329297 0.16866329 0
-0.056783471 0.042297799 0.082374491 -0.78708541 0.54888582 0.28146192 0
-0.054466266 0.04446606 0.083963841 -0.70691943 0.63238519 0.3167868 0
0.043195512 0.0425229 0.082651004 0.92325956 0.24942379 0.292198 0
-0.055311121 0.045040511 0.080418833 -0.7216267 0.64363271 0.25493509 0
-0.052154507 0.047608592 0.08284279 -0.7088626 0.64451259 0.28656125 0
-0.049737524 0.049568061 0.084317684 -0.6642893 0.68486887 0.29945692 0
0.039249841 0.049129739 0.082766928 0.66051185 0.65162915 0.3729659 0
0.04169441 0.046815544 0.081830591 0.75541669 0.53802252 0.37400165 0
-0.050516363 0.050306309 0.080762267 -0.67965901 0.68119454 0.27209836 0
-0.047663525 0.052383661 0.082295746 -0.64829069 0.70028675 0.29886058 0
-0.044376228 0.054505318 0.083528377 -0.39240581 0.86746973 0.30580056 0
0.033587702 0.053972587 0.083223253 0.58073699 0.72191006 0.37628499 0
0.036807168 0.051753636 0.082298361 0.62222266 0.69119394 0.3675459 0
-0.045619141 0.055038959 0.080186434 -0.57840073 0.7510891 0.31830448 0
-0.04239561 0.056735702 0.081892997 -0.56530094 0.76415968 0.31063631 0
-0.038133491 0.058960445 0.083292216 -0.46867993 0.8239814 0.31842384 0
0.024454864 0.059620157 0.084350206 0.45667806 0.78346705 0.42145517 0
0.027635152 0.058396485 0.082872264 0.50455737 0.76517409 0.39991313 0
0.031833209 0.056179821 0.081484616 0.55513853 0.75110108 0.35730708 0
-0.035998642 0.060842898 0.081723072 -0.50657094 0.79599428 0.3313289 0
-0.032489575 0.062541626 0.082691811 -0.4709346 0.81778157 0.3308382 0
-0.028846586 0.064168058 0.083483584 -0.39328876 0.84069043 0.37224126 0
0.014610198 0.064625561 0.084574766 0.57997525 0.61984873 0.52859831 0
0.017977672 0.063669242 0.083122201 0.41461521 0.77298915 0.48018947 0
0.022666324 0.06171301 0.082293116 0.43570361 0.78652132 0.43766043 0
0.026090745 0.060449392 0.08084771 0.49292886 0.78033751 0.38483053 0
-0.026736399 0.06575115 0.081995174 -0.37975791 0.855712 0.35148394 0
-0.022285383 0.067338541 0.082706869 -0.37062365 0.85924578 0.35261124 0
-0.017537531 0.068947464 0.082495339 -0.14859053 0.94031507 0.30615088 0
-0.013133838 0.069415182 0.083246715 -0.17799275 0.95244527 0.2473188 0
-0.0073070251 0.06963741 0.083584651 -0.025839219 0.95943141 0.28075561 0
-0.0025108755 0.069428809 0.083651997 0.088616215 0.95449704 0.28475016 0
0.0028513419 0.069240257 0.082862578 0.093169659 0.93694627 0.33682513 0
0.0075529763 0.068369269 0.082332477 0.27482024 0.88447076 0.37707484 0
0.012295372 0.066636615 0.082562663 0.28850284 0.90187877 0.32152894 0
0.016389977 0.065495037 0.080713436 0.28049302 0.94518447 0.16718289 0
-0.011135704 0.070216753 0.081072003 -0.16270635 0.93834263 0.30502418 0
-0.0076518264 0.070400774 0.080987543 0.0092408042 0.96407717 0.26546147 0
-0.0021286132 0.07033065 0.080798991 0.020207038 0.94411492 0.32899642 0
0.0014314961 0.070138752 0.080642596 0.098191798 0.95925039 0.26494724 0
-0.015468568 -0.045068536 0.085542038 -0.24829283 -0.87552857 0.41448808 0
-0.01251326 -0.045402545 0.086299442 -0.093606465 -0.9201659 0.3801744 0
-0.0077171382 -0.045690227 0.086836167 -0.051599186 -0.90457457 0.42318109 0
-0.0025258271 -0.046060104 0.086604923 0.0061073783 -0.88116264 0.47277373 0
0.0020653757 -0.045761682 0.086462632 0.11280648 -0.92886198 0.35283154 0
0.0067442697 -0.045236796 0.086197771 0.23644045 -0.93380576 0.26851973 0
-0.026628435 -0.04067912 0.086338088 -0.38368049 -0.84420294 0.37431356 0
-0.022526201 -0.041867383 0.087712325 -0.35767713 -0.85577577 0.37378448 0
-0.017522266 -0.043698564 0.087670818 -0.26187938 -0.89460969 0.36206725 0
-0.012387501 -0.044414986 0.08883661 -0.12560238 -0.88808048 0.44219571 0
-0.0066967015 -0.044596378 0.089249685 0.025248082 -0.94197047 0.33474496 0
-0.0024672973 -0.044594664 0.089075796 -0.014673213 -0.94063234 0.33910996 0
0.0030178882 -0.044446621 0.088807605 0.082160316 -0.8924076 0.4436872 0
0.0077438755 -0.044134144 0.08800023 0.22554752 -0.90424865 0.36257777 0
0.012475551 -0.043105226 0.08779908 0.22639783 -0.8973909 0.37872633 0
0.017279601 -0.041915674 0.087327339 0.29991031 -0.86612713 0.39984694 0
0.021571539 -0.040856805 0.086330488 0.30965769 -0.85697812 0.41194743 0
-0.036441196 -0.035654306 0.087176621 -0.36282715 -0.86128867 0.35572231 0
-0.032543316 -0.037203584 0.087387219 -0.40109134 -0.83386731 0.3791979 0
-0.028075729 -0.039070357 0.088329457 -0.40003103 -0.8240009 0.40124503 0
0.02306373 -0.039279234 0.088291638 0.34298262 -0.82575625 0.44776049 0
0.027169662 -0.037491765 0.087743707 0.45912814 -0.75257075 0.47205779 0
0.030712711 -0.035969745 0.086272344 0.6526776 -0.57313973 0.49550265 0
-0.045733482 -0.030662796 0.086056441 -0.54211879 -0.71809411 0.43640357 0
-0.042369153 -0.032076959 0.087240681 -0.4524523 -0.77773333 0.43636894 0
-0.038159411 -0.033762861 0.088559292 -0.48593923 -0.72808355 0.48348463 0
0.029592959 -0.034564581 0.089379869 0.60030138 -0.60504138 0.52303267 0
0.032594994 -0.032935183 0.087428749 0.55479962 -0.6619646 0.50398439 0
0.036115702 -0.030665109 0.085864268 0.70397222 -0.5271039 0.47600898 0
-0.051100306 -0.026065128 0.085885584 -0.67164832 -0.64847726 0.35828164 0
-0.047838207 -0.027784389 0.087598003 -0.57768738 -0.71928114 0.38589105 0
-0.044618223 -0.029552709 0.088639617 -0.53997111 -0.63667363 0.55052507 0
0.034450639 -0.029604577 0.089473642 0.69435358 -0.52266687 0.49466398 0
0.037214328 -0.027347757 0.087510303 0.75524265 -0.45781255 0.46905881 0
-0.055518951 -0.020963503 0.08615765 -0.77908474 -0.47957405 0.40377682 0
-0.052462924 -0.022960987 0.087986305 -0.6635319 -0.5714249 0.48290691 0
-0.049957715 -0.024501953 0.089795753 -0.71374327 -0.5206731 0.46847621 0
0.03921191 -0.023169203 0.088075958 0.79746121 -0.40832648 0.44421288 0
0.0406266 -0.022102879 0.086378232 0.82437974 -0.37993953 0.41957596 0
-0.06003515 -0.015514299 0.085021123 -0.7707302 -0.44090006 0.45998064 0
-0.057405766 -0.017066382 0.08736062 -0.7177915 -0.54434812 0.43412033 0
-0.054392334 -0.019099953 0.089047827 -0.64679503 -0.57396179 0.50221932 0
0.041989218 -0.01746743 0.087844953 0.83140028 -0.37519908 0.40987697 0
-0.060755547 -0.012758242 0.086363472 -0.79137993 -0.41352323 0.45024037 0
-0.059017312 -0.0133566 0.088647731 -0.75660598 -0.4300057 0.49258745 0
0.043914866 -0.012980151 0.088021137 0.83699417 -0.36438185 0.40824819 0
0.045525026 -0.011229682 0.086262457 0.84270614 -0.35848778 0.40166268 0
-0.062497262 -0.0078797033 0.087479435 -0.80771202 -0.38724148 0.44457319 0
0.044741802 -0.0091398321 0.089495793 0.83577681 -0.28578031 0.46883544 0
0.046534136 -0.0069257822 0.087206766 0.86582875 -0.19544621 0.4605881 0
-0.06555631 -0.0021503633 0.086310558 -0.91476727 -0.20395467 0.34871659 0
-0.064104952 -0.0027211593 0.088634327 -0.80624163 -0.2991488 0.51037663 0
0.047783118 -0.0025049555 0.087695174 0.86088181 -0.310011 0.40345475 0
-0.065768398 0.0030797322 0.086610749 -0.91149431 -0.083479419 0.40275204 0
-0.064677887 0.0023585921 0.089138955 -0.92424983 0.048783969 0.37865862 0
0.048943393 0.0023390937 0.087494776 0.87666941 -0.1111519 0.46807697 0
0.050192311 0.003852437 0.085529536 0.9037106 -0.11442307 0.41257045 0
-0.06590353 0.0074741426 0.086838134 -0.93782687 0.036447573 0.34518456 0
-0.064662457 0.0070273783 0.089266174 -0.81753141 -0.059606612 0.57279098 0
0.049186438 0.0076788692 0.088256635 0.88980973 -0.077025495 0.44978413 0
0.05044765 0.0081799794 0.085879065 0.88108087 -0.06437178 0.46856448 0
-0.065538444 0.011921465 0.086298704 -0.9329989 0.17014714 0.31711695 0
-0.064290278 0.012773179 0.08895465 -0.88328558 0.16968147 0.43705231 0
0.049234748 0.012338501 0.088592641 0.88253123 -0.0044900263 0.47023225 0
0.050482288 0.013034366 0.086136803 0.89939743 -0.0040786727 0.43711293 0
-0.06520588 0.015744945 0.085028544 -0.92902279 0.19593403 0.31388938 0
-0.063858479 0.01757128 0.087493978 -0.90979457 0.21745956 0.35353255 0
0.049052987 0.017752307 0.088572092 0.88153565 0.065755799 0.4675158 0
0.05047724 0.017536586 0.085802771 0.89112759 0.068460941 0.44855863 0
-0.062418908 0.022613574 0.087722495 -0.8921082 0.26939964 0.36272126 0
0.048694871 0.022799492 0.088305563 0.8820467 0.11601581 0.45665509 0
0.050260119 0.022113305 0.085377961 0.8790704 0.084386356 0.46916333 0
-0.061210487 0.027098151 0.087076843 -0.88365465 0.30435666 0.3556985 0
-0.059570823 0.028927566 0.089471363 -0.85793382 0.31365439 0.40690348 0
0.048274033 0.027485816 0.08753743 0.87929541 0.19018738 0.43665585 0
-0.060332574 0.030996522 0.085915051 -0.88600796 0.30456647 0.34961301 0
-0.058861766 0.032475401 0.087958664 -0.82911181 0.35352266 0.43312278 0
0.046934936 0.032673482 0.087487869 0.86882335 0.27920845 0.40888691 0
-0.056862861 0.037247259 0.087153085 -0.76075822 0.36144766 0.53907567 0
-0.054584414 0.038331084 0.089370213 -0.81826138 0.23938532 0.52263093 0
0.043478046 0.03850634 0.087983571 0.70682615 0.61735457 0.34535515 0
0.045621585 0.036571678 0.08697401 0.8384009 0.4437007 0.3165653 0
-0.055719774 0.041375499 0.086283535 -0.73524249 0.50758684 0.44919279 0
-0.053510062 0.042850748 0.088112965 -0.74729377 0.49217239 0.44645098 0
0.039463095 0.044138782 0.089585289 0.71897006 0.543244 0.43355274 0
0.041513808 0.042424031 0.087510847 0.84087402 0.38929892 0.3760016 0
-0.051317491 0.046502616 0.087136313 -0.72341645 0.60709888 0.32878497 0
-0.048496097 0.049112462 0.087887667 -0.65187287 0.68846816 0.31792039 0
0.034389485 0.049518596 0.089342013 0.58960706 0.66030627 0.46514425 0
0.037477836 0.047752205 0.087640889 0.64865232 0.62332267 0.43671393 0
0.040330108 0.0453775 0.086405918 0.73985302 0.5509997 0.38602689 0
-0.046462175 0.051334612 0.086926147 -0.59870273 0.71754432 0.35592872 0
-0.043210275 0.053466551 0.087729089 -0.53388572 0.75576198 0.37919629 0
-0.039906032 0.054855786 0.089522555 -0.5294838 0.78257155 0.32745773 0
0.029175466 0.05399099 0.088786773 0.51291496 0.73015368 0.45143521 0
0.032650542 0.052238695 0.087433912 0.55723435 0.70538592 0.43808752 0
0.035453182 0.050965935 0.085781105 0.58581668 0.68573844 0.4319509 0
-0.04117031 0.055574171 0.086660735 -0.49277353 0.75579965 0.43120891 0
-0.037569575 0.057454959 0.087244898 -0.48322889 0.78122902 0.3951847 0
-0.033532843 0.059428878 0.088505641 -0.50989413 0.77783233 0.36740288 0
0.019072022 0.059619017 0.089422241 0.39547393 0.7973389 0.45590687 0
0.023025392 0.05849332 0.087747879 0.43868932 0.77556497 0.4539279 0
0.02702198 0.056667164 0.086704969 0.48739809 0.75278801 0.44244024 0
-0.031795088 0.061139788 0.087034285 -0.46233276 0.8134954 0.3528083 0
-0.027665775 0.063095547 0.0872254 -0.37477756 0.85597855 0.35614944 0
-0.02266003 0.063994087 0.088412024 -0.072328672 0.88726825 0.4555476 0
-0.019122809 0.064208113 0.08877521 -0.44098809 0.88381779 0.15619123 0
0.0041746967 0.064696454 0.0897035 0.33824939 0.59936559 0.72549862 0
0.0076493714 0.064677492 0.089293785 0.20124139 0.82560825 0.52713645 0
0.012595392 0.063519396 0.087862521 0.41006944 0.74404007 0.52749157 0
0.016827172 0.061802711 0.087347284 0.3635824 0.81170899 0.45709547 0
0.021377079 0.060414191 0.085949712 0.40642905 0.80500621 0.43218106 0
-0.02264058 0.065554626 0.085725546 -0.37206659 0.78460187 0.49594992 0
-0.01720272 0.067035764 0.0873717 -0.41445786 0.8031922 0.42791 0
-0.012455036 0.068302102 0.087540597 4.4537679e-05 0.91719443 0.39843991 0
-0.0072964556 0.068430997 0.087682523 -0.017697543 0.94663656 0.32181686 0
-0.0025668843 0.068222955 0.087533802 0.13267948 0.93115842 0.33961767 0
0.0025135812 0.066988222 0.087785251 0.2467642 0.83477676 0.49219424 0
0.007099017 0.066142961 0.08686386 0.23998234 0.85261923 0.46416461 0
0.011623456 0.065471768 0.086251974 0.43091708 0.73350501 0.52562428 0
-0.021393713 -0.04062466 0.09129665 -0.3351779 -0.82970804 0.44636345 0
-0.017720396 -0.041510463 0.091766678 -0.21340413 -0.81819528 0.53386801 0
-0.012601169 -0.042229041 0.092407927 -0.16069292 -0.88404173 0.43891683 0
-0.0078626741 -0.042603035 0.09292984 -0.060944799 -0.84879422 0.52519912 0
-0.0024670444 -0.0430049 0.092433214 0.0094747338 -0.86276704 0.50551295 0
0.0022255518 -0.042694535 0.092606395 0.078168578 -0.87782854 0.47255328 0
0.0072419234 -0.042011883 0.092627712 0.1570753 -0.86173213 0.48243663 0
0.012107421 -0.041217912 0.092079289 0.24066307 -0.86339331 0.44343346 0
0.017120842 -0.040362023 0.090733975 0.30388126 -0.85749155 0.41516799 0
-0.031934951 -0.035717618 0.091346517 -0.19951244 -0.9457286 0.25649995 0
-0.027159585 -0.037037712 0.092836007 -0.37534171 -0.78443271 0.49374473 0
-0.022877857 -0.038865522 0.09313044 -0.29186645 -0.76944363 0.56812888 0
-0.018799029 -0.039483506 0.094058253 -0.27367029 -0.79233843 0.54525638 0
0.013561502 -0.039642204 0.094426021 0.23976608 -0.86403143 0.4426758 0
0.017956233 -0.038746446 0.093404263 0.31959492 -0.85104889 0.41662332 0
0.022584178 -0.037468638 0.092064343 0.38151056 -0.82067555 0.42537206 0
0.02641822 -0.035692476 0.091459118 0.50831795 -0.73048872 0.45606914 0
-0.040837284 -0.031017296 0.090596162 -0.50925469 -0.66992551 0.54024023 0
-0.037093319 -0.032062955 0.092205092 -0.43450496 -0.70682335 0.55821699 0
-0.033540051 -0.033715591 0.09299358 -0.51266807 -0.6382131 0.57433051 0
0.02830404 -0.032912146 0.09248659 0.66573763 -0.53896093 0.5160566 0
0.031724401 -0.030672755 0.091258295 0.43123487 -0.68875998 0.58279175 0
-0.046431884 -0.026505973 0.091583915 -0.58031887 -0.62524408 0.52182359 0
-0.042755846 -0.028215973 0.092801593 -0.44378686 -0.76101202 0.4731954 0
-0.03892 -0.029418839 0.093891621 -0.33767012 -0.78995305 0.51181352 0
0.029102212 -0.029381016 0.094275035 0.52567405 -0.72739929 0.44108641 0
0.032688554 -0.027950633 0.092952862 0.57198441 -0.53279662 0.6236679 0
0.035748303 -0.026203658 0.091001049 0.73455048 -0.47031415 0.48912185 0
-0.051276602 -0.021724356 0.091218524 -0.76909512 -0.41870287 0.4828878 0
-0.048498426 -0.023376178 0.092809394 -0.59129351 -0.63756931 0.49383929 0
0.034023233 -0.024057221 0.094502181 0.62907881 -0.43317783 0.6454587 0
0.036864676 -0.022274651 0.092653275 0.71898508 -0.40673605 0.56358337 0
-0.055830866 -0.015893923 0.091058128 -0.71507251 -0.46081683 0.52566081 0
-0.052943189 -0.018076478 0.092549466 -0.63841623 -0.60803378 0.47193182 0
0.038769141 -0.018237555 0.092935592 0.75614256 -0.36542761 0.54287291 0
0.040732458 -0.016153941 0.091377907 0.8077063 -0.36214992 0.46525037 0
-0.057016838 -0.012216651 0.092401348 -0.72858268 -0.41406995 0.54563117 0
-0.054407045 -0.014313902 0.094189413 -0.69416785 -0.42308959 0.58234549 0
0.039689466 -0.013455342 0.094665498 0.65660751 -0.27422786 0.70261341 0
0.04201182 -0.012312897 0.091982313 0.79363823 -0.32038525 0.51719612 0
-0.061016042 -0.0065419544 0.090840019 -0.76675165 -0.35394216 0.53555298 0
-0.058970865 -0.007532272 0.093007378 -0.74864286 -0.33871341 0.56991845 0
0.043166824 -0.0074425614 0.092713803 0.76789397 -0.2938447 0.56920481 0
0.045153238 -0.0058028218 0.090250477 0.80958509 -0.40916824 0.4208959 0
-0.061531339 -0.0020376239 0.092552751 -0.76497459 -0.25157967 0.59289253 0
-0.059463423 -0.0037833145 0.094433121 -0.75071841 -0.28660345 0.59521455 0
0.044291455 -0.0035885638 0.093864009 0.82779503 -0.26073164 0.49676386 0
0.045937385 -0.0024431767 0.091467135 0.85379893 -0.24680237 0.45838413 0
-0.062545821 0.0022104995 0.092622682 -0.80081403 -0.12446396 0.5858376 0
0.044860702 0.0021409092 0.094875753 0.8640328 -0.12160202 0.48852861 0
0.046234567 0.002400419 0.09252125 0.86303347 -0.12217014 0.49015066 0
-0.062595658 0.007265694 0.092687063 -0.85160744 0.10794918 0.51294416 0
0.046929527 0.0075735655 0.092346534 0.86496085 -0.075357221 0.49614921 0
-0.061626215 0.01270463 0.092827842 -0.75875378 0.030589217 0.65065891 0
-0.059311345 0.013374475 0.094753943 -0.39803278 -0.057035945 0.91559643 0
0.046874657 0.012649721 0.09280701 0.86498135 0.0027435727 0.50179642 0
-0.061514005 0.017403167 0.092427008 -0.8300072 0.14777417 0.53782052 0
-0.05915679 0.017432207 0.094768055 -0.30573794 0.099994592 0.94685024 0
0.046912208 0.017874064 0.09241996 0.8635909 0.059235498 0.50070149 0
-0.060894437 0.022531437 0.091253527 -0.85904318 0.26658455 0.43700972 0
