# .PCD v0.7 - Point Cloud Data file format
VERSION 0.7
FIELDS x y z
SIZE 4 4 4
TYPE F F F
COUNT 1 1 1
WIDTH 415
HEIGHT 1
VIEWPOINT 0 0 0 1 0 0 0
POINTS 415
DATA ascii
-0.025146533 0.0083160577 -8.4295978e-05
-0.01793368 0.0093194144 -2.91748e-05
-0.022567842 0.01183106 -0.00010194852
-0.017302731 0.012827254 -0.00010318033
-0.040286753 -0.010335497 0.0098178899
-0.033894967 -0.012619744 0.0083440933
-0.024876716 -0.014510013 0.0071848459
-0.014958458 -0.014719559 0.0071697738
-0.0057063326 -0.013185428 0.0079160044
0.0010352017 -0.01089506 0.0094240671
-0.04279843 -0.0040503512 0.0082930326
-0.035016403 -0.0051068016 0.0052474109
-0.025003418 -0.0050987964 0.0027981051
-0.014860622 -0.0050231586 0.0024860566
-0.0050084256 -0.005061409 0.0043076174
0.0036265142 -0.0042436812 0.0078349654
-0.044439722 0.0051643774 0.0072138188
-0.035123851 0.0050668702 0.0027130856
-0.025223797 0.0040008039 0.00043192957
-0.014834702 0.0048014834 0.00036059879
-0.0048810821 0.0048456606 0.0021078375
0.0051189056 0.0051273499 0.0063641127
0.010341602 0.0071332366 0.0096015139
-0.044816524 0.01483954 0.0071390113
-0.035195317 0.014876252 0.0026606107
-0.025791639 0.015804982 0.00059739657
-0.0138415 0.016060563 0.00033233425
-0.0050178049 0.014922216 0.0019804186
0.0050534415 0.015043795 0.0059792232
0.010413158 0.013601894 0.0095760617
-0.043489564 0.024212426 0.008028728
-0.034983009 0.025153229 0.0046179062
-0.025044002 0.025163246 0.002144102
-0.014795788 0.025000986 0.0018667968
-0.0047713695 0.025050294 0.0039059317
0.0039255195 0.024631387 0.0074065519
-0.041075885 0.031211253 0.0094302567
-0.03422365 0.033466574 0.0079434123
-0.024889506 0.035080243 0.0066895341
-0.015208138 0.035217486 0.0064287353
-0.0054927673 0.034331735 0.0075760372
0.0014706872 0.031937774 0.0090250215
-0.02141447 0.04021205 0.0097842067
-0.017689319 0.040336553 0.0097955735
-0.041369338 -0.020990346 0.01893791
-0.034399021 -0.022663374 0.016938915
-0.024637667 -0.024027321 0.015474116
-0.015090944 -0.024221787 0.015385919
-0.0053610094 -0.023061231 0.016792249
0.0020809846 -0.021328706 0.018611046
-0.051197547 -0.01141797 0.018832311
-0.044494532 -0.014528217 0.015558206
-0.035822518 -0.017119033 0.012315307
-0.025947951 -0.019111 0.010724504
-0.014651601 -0.019521762 0.010494288
-0.0039124158 -0.01776766 0.012054686
0.0049568056 -0.014932132 0.015010149
0.011620984 -0.012077211 0.018113306
-0.053374011 -0.0043592239 0.016780481
-0.047172733 -0.0060892045 0.012210975
0.0079585481 -0.0065290658 0.011533875
0.013479597 -0.0045860186 0.016094543
-0.054741107 0.005097785 0.015239893
-0.04919257 0.0035101974 0.010629646
0.0096204234 0.0010625419 0.010266432
0.014916688 0.0051226085 0.014803909
-0.054892093 0.014960483 0.014701881
-0.04967469 0.016478105 0.010297191
0.015103629 0.014948524 0.014891556
-0.053631593 0.024547882 0.015962493
-0.047885064 0.026192112 0.011423311
0.0084012523 0.026608396 0.011438911
0.013558268 0.024658646 0.015838228
-0.051624689 0.032394495 0.018055458
-0.045170449 0.035118233 0.014525682
-0.036261573 0.03788843 0.011577952
-0.028112466 0.039691571 0.010312224
-0.010917742 0.039855488 0.010075063
-0.0032162669 0.038541164 0.01104501
0.0054770415 0.035421181 0.014386329
0.011627076 0.032403633 0.018269021
-0.042591427 0.041899841 0.018127983
-0.034646574 0.043892283 0.016095961
-0.024962032 0.045272946 0.014720699
-0.014884333 0.045299932 0.014884897
-0.0053475183 0.04440999 0.015477115
0.0024803483 0.042252343 0.017645458
-0.023209317 0.050246168 0.019605802
-0.018044608 0.050137211 0.019860672
-0.03300266 -0.030999312 0.027999584
-0.024648014 -0.031796928 0.026571151
-0.01521311 -0.031936456 0.026373958
-0.0063576223 -0.031180512 0.027775431
-0.05080916 -0.02090738 0.028443052
-0.044495255 -0.023835409 0.025587343
-0.03587855 -0.027467731 0.023853106
-0.025896082 -0.028844766 0.021729477
-0.014181715 -0.028952101 0.021454005
-0.0041270563 -0.027856274 0.023500396
0.0047954777 -0.024392052 0.025092976
0.010907261 -0.02112864 0.028349852
-0.054249957 -0.014524232 0.025471842
-0.048116628 -0.01807699 0.02179639
0.0087356549 -0.018595705 0.021768749
0.014074584 -0.014815493 0.025218677
-0.061310608 -0.0035385403 0.027277486
-0.057895131 -0.0061990628 0.023163842
0.018055314 -0.0060597742 0.023503572
0.021357812 -0.0033374547 0.027467104
-0.062121704 0.0051660975 0.025526414
-0.059531279 0.0039708936 0.020872673
0.019330846 0.0039479653 0.021189768
0.022276111 0.0052931332 0.025847901
-0.062141843 0.014745122 0.025775097
-0.059463199 0.015878653 0.020943223
0.0194645 0.016410498 0.020749044
0.022307284 0.014943374 0.025657531
-0.061228905 0.023446502 0.027579378
-0.058266785 0.025956953 0.023228154
0.018357243 0.026306495 0.022578569
0.021496318 0.024076158 0.027000053
-0.05460532 0.03498324 0.024965286
-0.049065012 0.039023761 0.02085935
0.0090127112 0.039156348 0.021121433
0.014995538 0.035096265 0.025023649
0.020365944 0.030503934 0.029261915
-0.051300969 0.041455217 0.02756119
-0.045198631 0.045256879 0.024811281
-0.036230844 0.048616312 0.022262745
-0.028812004 0.049727254 0.020441465
-0.01201452 0.049746022 0.020330785
-0.0036072819 0.04873991 0.022107434
0.0049669072 0.045273453 0.024893831
0.011489542 0.041380767 0.027632166
-0.040869348 0.050506666 0.028834902
-0.034229312 0.051715147 0.026660785
-0.024967274 0.05282883 0.024942759
-0.015203713 0.052751467 0.024964985
-0.0055921851 0.051899098 0.026467223
0.00094334164 0.050507337 0.028985759
-0.04164758 -0.030760616 0.037053242
-0.035000615 -0.033103939 0.035042189
-0.025148323 -0.03516981 0.034909725
-0.015074556 -0.03541062 0.034868609
-0.0049160561 -0.033189088 0.034970794
0.0015122949 -0.03077375 0.036994737
-0.052390657 -0.022394314 0.035464887
-0.046034455 -0.02738921 0.034431987
-0.039667673 -0.029829029 0.030556537
-0.00018301171 -0.029861549 0.03026917
0.0059825028 -0.027387889 0.034582403
0.012331007 -0.022341223 0.035630759
-0.060740784 -0.011412707 0.036217954
-0.057268456 -0.016100813 0.034376685
0.017118381 -0.016042573 0.034445409
0.02087771 -0.011509288 0.037187073
-0.063166864 -0.0050928737 0.034895051
0.01980366 -0.0096683791 0.030652631
0.023145325 -0.0050501353 0.034970939
-0.065554649 0.0050490899 0.034969512
0.025851086 0.004982729 0.03494088
-0.065545209 0.014996419 0.034915999
0.025805645 0.015002102 0.034978531
-0.063422665 0.025057733 0.034994185
0.024014441 0.024991596 0.035000872
-0.061001856 0.03188226 0.03608495
-0.057716608 0.036555625 0.03443183
0.01785188 0.037088629 0.03437024
0.021405688 0.032433793 0.035828199
-0.05288795 0.042995941 0.035418801
-0.047515176 0.047806304 0.034160163
0.0072958963 0.048031796 0.034184285
0.013267547 0.043256383 0.035622347
-0.04283791 0.051714215 0.03552267
-0.035101924 0.054629877 0.034963913
-0.02498881 0.056423441 0.0349815
-0.014985117 0.05625036 0.034983497
-0.0049589258 0.054674469 0.034904715
0.0027990744 0.051721152 0.035816208
-0.042153589 -0.031100864 0.044910282
-0.035145685 -0.034141291 0.044916648
-0.025038689 -0.036388531 0.044998534
-0.0151007 -0.036318839 0.045049693
-0.00494802 -0.034108575 0.044963054
0.0025471377 -0.031278968 0.045064479
-0.053034287 -0.022910004 0.044942804
-0.047242567 -0.028075246 0.045166709
0.0074915928 -0.028034484 0.044781711
0.013298853 -0.023242969 0.04504497
-0.061391525 -0.012310202 0.044971123
-0.057882529 -0.017286558 0.045001231
0.01822382 -0.017583458 0.044755869
0.021610189 -0.012699256 0.045189805
-0.064368427 -0.0050259349 0.044979185
0.024802962 -0.0051044161 0.045167368
-0.066586293 0.0049240063 0.045000423
0.027207127 0.0050337929 0.044889797
-0.066793732 0.01510863 0.045110792
0.027402483 0.015022055 0.044985
-0.064866632 0.025033349 0.04505147
0.025453011 0.025100898 0.044952389
-0.061629761 0.033257898 0.045100469
-0.058870606 0.038288139 0.045051042
0.019065721 0.038596515 0.044531271
0.022070505 0.03374061 0.045096155
-0.053846154 0.043842699 0.044977739
-0.04854811 0.048751507 0.044842198
0.008780838 0.049153045 0.04462567
0.014240788 0.044295419 0.045086
-0.043720935 0.05241368 0.044921208
-0.034971826 0.056184847 0.045008469
-0.024952877 0.057958674 0.045056421
-0.014883327 0.058026284 0.044920541
-0.0049579083 0.056285881 0.045000896
0.0039354316 0.052518491 0.045148775
-0.041377991 -0.030714419 0.05396099
-0.035020169 -0.033167835 0.055096582
-0.025093641 -0.035573825 0.054943956
-0.01492812 -0.035316125 0.055056296
-0.0049301647 -0.033406712 0.054997705
0.0019361076 -0.031048261 0.054047137
-0.05238523 -0.02249491 0.054640982
-0.046232283 -0.027483013 0.055377048
0.0067783189 -0.027730862 0.055479735
0.013022328 -0.022831349 0.054714166
-0.060924679 -0.011516883 0.053745061
-0.057414606 -0.016272459 0.055585232
0.017961299 -0.016965568 0.055529684
0.021299738 -0.012242742 0.054319128
-0.063453592 -0.0050666514 0.05489219
0.024361361 -0.005046587 0.055057388
-0.065835558 0.0050120638 0.054975178
0.026761755 0.004967364 0.055013169
-0.065999173 0.014962127 0.055047013
0.026829129 0.015003383 0.055021144
-0.064015538 0.024930902 0.054977424
0.024988512 0.025040289 0.055119678
-0.06147518 0.032600041 0.054317448
-0.05824082 0.037301008 0.055691745
0.018545305 0.03786169 0.05560527
0.021856299 0.033067856 0.054575134
-0.05334546 0.043569997 0.05468357
-0.048027541 0.048338212 0.055558093
0.008291427 0.048718777 0.05554951
0.013662855 0.043791912 0.054802991
-0.043296129 0.052163683 0.054754492
-0.035148963 0.055630684 0.054900922
-0.025038166 0.057497602 0.055108529
-0.015053351 0.057607297 0.054988433
-0.0049209502 0.055645145 0.054993879
0.0035769967 0.0522113 0.054673836
-0.033749357 -0.03138943 0.063267238
-0.025035307 -0.032509483 0.065096311
-0.014854031 -0.032623895 0.065039888
-0.0059239492 -0.031418048 0.063899562
0.00053889136 -0.030321971 0.060797077
-0.051131841 -0.021214608 0.062140338
-0.045062535 -0.024623057 0.064900495
-0.036672253 -0.028530963 0.06684421
-0.029443296 -0.029887009 0.069760837
-0.0026393477 -0.029166158 0.067777663
0.0052028382 -0.025530182 0.065214239
0.011537004 -0.021417145 0.063404374
-0.054794651 -0.01485077 0.064941272
-0.049108386 -0.019114915 0.068963476
0.0096735647 -0.019833969 0.069588132
0.015817609 -0.015368497 0.06518542
0.020428417 -0.010744142 0.061307441
-0.061561197 -0.0037640554 0.063465618
-0.058514748 -0.0066591543 0.067327648
0.019171603 -0.0082637891 0.067877561
0.022252476 -0.0045296014 0.064415947
-0.062957674 0.0050484445 0.065045357
-0.059867237 0.00078985718 0.069749616
0.024149947 0.0049965936 0.064938143
-0.063063398 0.014945143 0.065120146
0.024184356 0.015024852 0.065044731
-0.061712302 0.024246344 0.064205743
-0.058919422 0.027607303 0.067878433
0.019381631 0.028266972 0.068644464
0.022319378 0.024633413 0.064722165
-0.060378004 0.030853143 0.060882784
-0.055868875 0.035317026 0.065210246
-0.049801238 0.039802387 0.069816522
0.016644271 0.035556357 0.065601341
0.020825498 0.03137501 0.06186083
-0.051789377 0.041749358 0.063471444
-0.04591487 0.04602126 0.065590233
-0.038241431 0.049332086 0.069071405
-0.0018125159 0.049339544 0.068924658
0.0058374214 0.046768092 0.065922618
0.012253756 0.042219426 0.063995726
-0.041637871 0.051353995 0.06241158
-0.034815736 0.052819408 0.064914681
-0.025056623 0.054509051 0.065014504
-0.015049931 0.054627616 0.064995818
-0.0052116765 0.052772053 0.064671092
0.0018438628 0.05096899 0.062592767
-0.023345755 -0.030313535 0.070468761
-0.015625449 -0.030461887 0.070866473
-0.0093653277 -0.030011382 0.070032552
-0.042429376 -0.021960612 0.072927773
-0.034952208 -0.024630023 0.074996568
-0.025051467 -0.026981441 0.075613514
-0.01488396 -0.026865538 0.075985111
-0.0050578197 -0.025238644 0.075090706
0.0032331664 -0.022586497 0.07282152
-0.051853262 -0.012512914 0.07254681
-0.046136465 -0.016004106 0.075885057
-0.038457833 -0.019346165 0.07944537
-0.0015251565 -0.019155161 0.079333484
0.0061630853 -0.016276404 0.076571502
0.012514638 -0.0132482 0.072930872
-0.054324657 -0.0048447726 0.074869715
-0.049259946 -0.0085204374 0.079081379
0.0091686314 -0.0086819381 0.079383284
0.015239831 -0.0051385025 0.075327158
0.020451112 -0.0014552545 0.070707276
-0.060370952 0.0071135401 0.070682094
-0.056652587 0.0047857556 0.075565144
0.01706459 0.0047379825 0.076908715
0.02109416 0.005320881 0.071980402
-0.06043639 0.014545332 0.070783004
-0.056868874 0.015128226 0.075790651
0.017094661 0.015286129 0.076804258
0.020983217 0.014770714 0.071794219
-0.060128842 0.020971214 0.070198208
-0.055075545 0.025077974 0.075089835
-0.049610641 0.029029937 0.079616018
0.0095797153 0.029122243 0.079563878
0.015590202 0.02510494 0.075430758
0.020530647 0.021513205 0.070809461
-0.052466452 0.033363838 0.073041439
-0.046806276 0.036433559 0.076748967
-0.039501056 0.039954975 0.079873197
-0.00089169963 0.039676834 0.079637147
0.006425654 0.036569327 0.07730528
0.01288364 0.033941604 0.073426835
-0.043536197 0.042799342 0.07347253
-0.035156757 0.045778975 0.075253844
-0.025365585 0.0473153 0.076670706
-0.014742965 0.047261812 0.076925263
-0.0047769998 0.045731932 0.075272001
0.0036958493 0.04292617 0.073249556
0.01031693 0.040288448 0.070255138
-0.03150304 0.050504386 0.070685044
-0.02463383 0.051133122 0.071739137
-0.015138952 0.051334582 0.071894363
-0.0084422156 0.050480008 0.070870735
-0.032151319 -0.020900389 0.080809005
-0.0250188 -0.021782251 0.08152131
-0.015282962 -0.021501644 0.081421167
-0.0079334807 -0.020915173 0.080704369
-0.042619094 -0.012565234 0.081816226
-0.034951564 -0.015098496 0.084004112
-0.025067279 -0.015141483 0.086234376
-0.014865416 -0.015200187 0.086294807
-0.0052555851 -0.014964581 0.084008083
0.0027304492 -0.012642311 0.081703216
-0.0507189 -0.0018846594 0.080756143
-0.045073718 -0.004919562 0.0841325
-0.035925385 -0.0060303179 0.088132754
-0.026398549 -0.0089192772 0.089468919
-0.013821241 -0.0086816549 0.089496613
-0.0039375662 -0.0061793244 0.088343807
0.0049104313 -0.004876229 0.084232487
0.011058299 -0.0021643578 0.080891244
-0.051672645 0.0054564611 0.081887797
-0.04520613 0.0049013481 0.086619191
-0.039199978 0.0032738075 0.089591861
-0.00079993572 0.0034466903 0.089587279
0.0051210606 0.0050687813 0.086456306
0.01206822 0.0053097643 0.081698254
-0.051960155 0.014657695 0.081820764
-0.045141172 0.01505844 0.086777508
-0.03938511 0.016445553 0.089739226
-0.00048849278 0.016237112 0.089669898
0.0049958928 0.015064037 0.086560793
0.012002577 0.014603251 0.081655137
-0.051024541 0.022484379 0.080834635
-0.045200191 0.025022058 0.084685341
-0.036250189 0.02628581 0.088706128
-0.028357822 0.029220656 0.08972165
-0.010976877 0.029452611 0.089765936
-0.0036268355 0.026436543 0.088811874
0.0049036741 0.025001913 0.084498189
0.010993072 0.022311531 0.080849759
-0.04304783 0.033257663 0.08218687
-0.034976549 0.035184864 0.084608681
-0.025067151 0.035163179 0.086958177
-0.01480755 0.035277899 0.087004714
-0.0048504067 0.035107899 0.084777489
0.0030608783 0.033165917 0.082046472
-0.03314751 0.04117386 0.080968812
-0.024637569 0.04232797 0.081924006
-0.01510956 0.042235933 0.082112789
-0.0072584245 0.041402001 0.081056997
-0.032719817 -0.0022994101 0.090968713
-0.024666026 -0.0041992534 0.091667645
-0.015284019 -0.0039777663 0.091484405
-0.006930782 -0.0022905115 0.090881668
-0.034382407 0.0050848927 0.091592215
-0.024969006 0.0050425949 0.093290143
-0.015017743 0.0049736076 0.093466751
-0.0054417867 0.0052462341 0.091521643
-0.034436561 0.014964594 0.091595821
-0.025000703 0.014993074 0.093532547
-0.014979087 0.014983517 0.093708001
-0.0052944594 0.015001463 0.091664135
-0.032853317 0.022939103 0.090875052
-0.024917081 0.024847593 0.091675945
-0.015130204 0.025049791 0.091776438
-0.006800822 0.022952218 0.090939783
-0.021508962 0.030131567 0.090095155
-0.01717313 0.030321889 0.090189062
