# .PCD v0.7 - Point Cloud Data file format
VERSION 0.7
FIELDS x y z
SIZE 4 4 4
TYPE F F F
COUNT 1 1 1
WIDTH 142
HEIGHT 1
VIEWPOINT 0 0 0 1 0 0 0
POINTS 142
DATA ascii
-0.010567943 -0.1226422 -1.9124862e-05
-0.0085762525 -0.1219416 -4.8733655e-05
-0.020427221 -0.14028989 0.0097338576
-0.014108179 -0.14154111 0.0084000994
-0.0054402337 -0.14170939 0.008293299
0.0011341856 -0.14064878 0.0093643507
-0.023515986 -0.1339955 0.0074128723
-0.015123711 -0.13516687 0.0041959551
-0.0048881616 -0.13518479 0.0038241574
0.0043410342 -0.13441841 0.0069144145
0.010334272 -0.13082793 0.0096277753
-0.030176993 -0.1228135 0.0097692208
-0.025207896 -0.12495113 0.0057172454
-0.015097226 -0.12503321 0.0010699512
-0.0047238674 -0.12516224 0.00076026935
0.0052145612 -0.12500215 0.0044336049
0.011080967 -0.12450374 0.0088601308
-0.030072326 -0.11928533 0.0099270334
-0.02478642 -0.11526591 0.0062786699
-0.015062317 -0.11484963 0.0020014148
-0.0048709298 -0.11494622 0.0016292634
0.0051443377 -0.11489557 0.0054994286
0.010882088 -0.11722188 0.0090865418
-0.022476384 -0.10775892 0.0082183192
-0.014768005 -0.10566651 0.0065340954
-0.0051692603 -0.10552009 0.0063513834
0.0032026805 -0.10737357 0.0079701915
-0.023450647 -0.14259146 0.015903698
-0.015091224 -0.14583917 0.014796254
-0.0049437322 -0.14624695 0.014809766
0.0043498627 -0.14308865 0.015618484
0.010317128 -0.14044437 0.019290816
-0.031679239 -0.13336208 0.016616441
-0.027454875 -0.13672096 0.013226695
0.0079798289 -0.13783966 0.012261922
0.012610303 -0.13428222 0.015658759
-0.033154812 -0.12494627 0.014932733
-0.029681331 -0.12898882 0.01038523
0.015034184 -0.12506633 0.014823936
-0.032649912 -0.11533735 0.015398707
-0.029020805 -0.11220334 0.011328088
0.0095553594 -0.11077192 0.010519229
0.014020276 -0.11499228 0.0148179
-0.031017536 -0.10841462 0.017959544
-0.025451105 -0.10449836 0.014659272
-0.016520452 -0.10107345 0.011462579
-0.0036424538 -0.10079766 0.011001879
0.0058851922 -0.10367322 0.014119073
0.011755305 -0.10758743 0.016937807
-0.021309499 -0.099251628 0.018099524
-0.014545484 -0.097876951 0.015984794
-0.0052749361 -0.097714409 0.01565221
0.0021188809 -0.098890185 0.017698709
-0.010824354 -0.15004981 0.027390426
-0.0084547708 -0.15005867 0.027063977
-0.030139068 -0.14019762 0.027488684
-0.025251325 -0.14420591 0.025050381
-0.01530912 -0.14896001 0.024874231
-0.0042437031 -0.14920098 0.02458638
0.0052103796 -0.1454547 0.024939906
0.010957737 -0.14106129 0.025417959
-0.033055134 -0.1350207 0.025063537
-0.029717466 -0.13961788 0.021288037
0.014882622 -0.13516389 0.024998209
-0.036183707 -0.12497929 0.024927059
0.018090043 -0.12501042 0.024940332
-0.035328753 -0.11486495 0.024945963
0.017230587 -0.11493888 0.024966052
-0.031911373 -0.10715004 0.025244083
-0.027705854 -0.10219299 0.02471054
0.0085632186 -0.10123899 0.024706993
0.012942466 -0.10608155 0.02519442
-0.022666376 -0.098336741 0.025254369
-0.015081803 -0.095471561 0.024984283
-0.0049979636 -0.095090881 0.02492913
0.003692233 -0.097911179 0.025111953
-0.0084945615 -0.15001689 0.030152857
-0.030020248 -0.14008825 0.030253883
-0.02458656 -0.14357223 0.034722988
-0.015170067 -0.14788631 0.035140887
-0.0049547199 -0.14831592 0.035122007
0.0050794235 -0.14441681 0.034966975
0.010785204 -0.14077115 0.032500327
-0.032477647 -0.13445325 0.034625016
-0.028928261 -0.13861628 0.03740013
0.0093655894 -0.13931766 0.038925584
0.013876565 -0.13506685 0.034988273
-0.035211761 -0.12502091 0.03508969
0.017093785 -0.12500407 0.035117
-0.034382258 -0.11491934 0.035061605
0.016182685 -0.11483739 0.03505991
-0.031488921 -0.10764556 0.034035008
-0.026731484 -0.10294717 0.03587364
0.0075777392 -0.10201607 0.036021739
0.0124413 -0.106715 0.034466308
-0.022134146 -0.098727308 0.033834968
-0.015133236 -0.096482448 0.035086188
-0.005008359 -0.096015409 0.035052922
0.003015904 -0.098311536 0.034348417
-0.022217784 -0.14165282 0.042089049
-0.0147626 -0.14332794 0.044096906
-0.0051889028 -0.14347625 0.044380683
0.0030320217 -0.14198992 0.042486545
-0.030912358 -0.13191746 0.041356727
-0.025263533 -0.13517021 0.045266706
-0.016211173 -0.13819684 0.048715014
-0.004120511 -0.13876778 0.049062241
0.0058606402 -0.13572238 0.046066441
0.011639909 -0.13286228 0.042286843
-0.031790804 -0.12481301 0.042683572
-0.027375078 -0.12541263 0.047688231
0.008279684 -0.12547626 0.048638359
0.012926986 -0.12486723 0.043777946
-0.031464078 -0.11587553 0.042294476
-0.026628643 -0.11428154 0.04707697
0.0072861589 -0.1141159 0.047932137
0.012473132 -0.11548052 0.043226209
-0.030250605 -0.10965621 0.040379673
-0.023993025 -0.10599263 0.043909259
-0.015621568 -0.10342085 0.046558615
-0.0045181746 -0.10328329 0.046968229
0.0044824686 -0.10557628 0.044429738
0.010850616 -0.10875649 0.041246112
-0.020096121 -0.099970445 0.040013697
-0.013833757 -0.098899029 0.041732602
-0.0056016464 -0.098806739 0.041936081
0.00079139782 -0.099593259 0.040565398
-0.020979956 -0.13149452 0.050613806
-0.014485451 -0.13362123 0.051884998
-0.0052773017 -0.13406347 0.05197037
0.0018489499 -0.13212426 0.050947394
-0.022407988 -0.12469663 0.051456548
-0.015109638 -0.12510726 0.054063957
-0.0049851048 -0.12503043 0.054409359
0.0033772236 -0.12480381 0.051797897
-0.021973938 -0.11623971 0.051138125
-0.015077828 -0.1148988 0.053264394
-0.0048428993 -0.11489692 0.053524666
0.0027138311 -0.11582182 0.051378418
-0.013826322 -0.1082859 0.051053457
-0.0056947037 -0.10822767 0.051074289
0.00044693711 -0.10951944 0.050221439
