# .PCD v0.7 - Point Cloud Data file format
VERSION 0.7
FIELDS x y z normal_x normal_y normal_z curvature
SIZE 4 4 4 4 4 4 4
TYPE F F F F F F F
COUNT 1 1 1 1 1 1 1
WIDTH 68
HEIGHT 1
VIEWPOINT 0 0 0 1 0 0 0
POINTS 68
DATA ascii
-0.015858054 0.0040363246 -0.00012673913 -0.076725997 -0.072593272 -0.99440604 0
-0.012420421 0.0034369859 -0.00020056813 -0.022334 -0.081888892 -0.99639118 0
-0.0081079239 0.0037593278 -0.00018081872 0.058649316 -0.082962342 -0.99482536 0
-0.016813882 0.0076215197 -0.00017767007 -0.057407953 -0.033511184 -0.99778819 0
-0.012507991 0.00746023 -0.00026696027 -0.015868723 -0.0069275601 -0.99985009 0
-0.0074681602 0.0074448348 -0.00024759359 0.013755224 -0.013210886 -0.99981809 0
-0.004481222 0.0079787374 -0.00014674821 0.23478037 -0.042925373 -0.97110021 0
-0.016527969 0.012153247 -0.00017902468 -0.053023644 0.045955565 -0.99753523 0
-0.012518844 0.012509105 -0.00024991165 -0.022276439 0.0099049257 -0.99970275 0
-0.0075361165 0.012392861 -0.00021624647 0.026428947 0.031720433 -0.9991473 0
-0.0045133936 0.011412827 -0.00012512859 0.26032117 0.071311206 -0.96288508 0
-0.01546284 0.015220696 -6.5570028e-05 -0.14555825 0.2489579 -0.95751381 0
-0.012268197 0.015797453 -0.00017427167 -0.035160728 0.16127311 -0.98628324 0
-0.0085575692 0.01558202 -0.00015587536 0.0783742 0.16636169 -0.98294526 0
-0.017639359 0.0025881466 0.0025226159 -0.58801943 -0.70829451 -0.39057887 0
-0.012506473 0.0011199262 0.0023936278 -0.077089675 -0.98117644 -0.1770594 0
-0.007308485 0.0013482021 0.0021975932 0.17753004 -0.90898597 -0.37713081 0
-0.0039948625 0.0031278057 0.0028261102 0.8673045 -0.39118797 -0.30782259 0
-0.019298645 0.0074701635 0.0023668967 -0.98356742 -0.023630962 -0.17898785 0
-0.003350297 0.0074934228 0.0023657866 0.97848356 -0.099303976 -0.18085527 0
-0.018984666 0.012689782 0.0022275469 -0.95327073 0.15639323 -0.25848785 0
-0.014622428 0.012753853 1.8555369e-05 0.067456439 -0.022564268 -0.99746698 0
-0.0056710793 0.014372847 0.0001521501 0.36311203 0.31902167 -0.87542832 0
-0.0032712629 0.012597866 0.002349616 0.94545001 0.10612009 -0.30799815 0
-0.017061761 0.016481172 0.0025869086 -0.47201419 0.78812379 -0.39504865 0
-0.012548277 0.01724452 0.0023527301 -0.018478557 0.98739052 -0.15722145 0
-0.0074559343 0.016860453 0.0023225141 0.17285843 0.95516193 -0.24038644 0
-0.0039899987 0.016015194 0.0032022581 0.66615391 0.66264302 -0.34226182 0
-0.018182039 0.0022419286 0.0075026802 -0.64140952 -0.76711273 -0.011487058 0
-0.012502711 0.0010807321 0.0074650357 -0.059419774 -0.9979288 0.024644068 0
-0.0074505582 0.00073833152 0.007524936 -0.040099949 -0.99915922 0.0085320845 0
-0.0036865945 0.0024946309 0.0075000376 0.92393684 -0.37948561 -0.048284862 0
-0.019448021 0.0075131664 0.0074534887 -0.99900198 0.039167032 -0.021470375 0
-0.0030886526 0.0075418963 0.007501543 0.99661362 -0.074354112 -0.035112318 0
-0.019291913 0.01244465 0.0075658229 -0.99956781 0.024015738 -0.016958417 0
-0.0027639954 0.012511685 0.0074857837 0.99852622 -0.047652755 -0.025973082 0
-0.017682465 0.016922567 0.0075165262 -0.49631229 0.86725461 -0.039286554 0
-0.012476464 0.017347196 0.007495956 0.0069941292 0.9997744 -0.020055514 0
-0.0074967826 0.017102756 0.0075195841 0.050584495 0.99817419 -0.033006996 0
-0.0034742188 0.016355699 0.0075764502 0.67952937 0.73246741 -0.041608803 0
-0.01802332 0.0024003631 0.01247347 -0.62685943 -0.7633906 0.15582682 0
-0.012536616 0.0011114841 0.012494505 -0.057405528 -0.99833632 0.0053988621 0
-0.0074676643 0.00086555857 0.012503412 0.0021234746 -0.99784887 0.065522268 0
-0.0037073647 0.0027282303 0.01242877 0.90148371 -0.40962598 0.13976285 0
-0.019443864 0.0074985628 0.012467272 -0.99945068 0.033055075 0.0023911127 0
-0.0029943648 0.0075621936 0.012597011 0.99799424 -0.063079491 -0.00532914 0
-0.019255286 0.0124518 0.012521695 -0.9987452 0.048922788 0.010705644 0
-0.0027834254 0.012505915 0.012465571 0.99884534 0.0072845793 0.047484472 0
-0.017535102 0.016836783 0.012448704 -0.50794947 0.84225106 0.18055616 0
-0.012527193 0.017370429 0.012474931 0.039549831 0.99920267 0.0054748273 0
-0.0074653085 0.017105615 0.012519041 0.086947344 0.99569052 0.032257147 0
-0.0037291404 0.016195785 0.012382408 0.64619333 0.7273246 0.23115593 0
-0.016831698 0.0033042275 0.016201925 -0.43074319 -0.48381031 0.76183194 0
-0.012480184 0.0025825661 0.016638948 -0.055895455 -0.49832591 0.8651861 0
-0.0075425855 0.0027301079 0.016481388 0.19132215 -0.45370841 0.87037033 0
-0.004253089 0.0038238508 0.015769791 0.66349018 -0.40438226 0.62948841 0
-0.017691201 0.0075542768 0.01665635 -0.42692319 -0.056901038 0.90249586 0
-0.01253579 0.0075081815 0.017078197 -0.0037641958 0.022917975 0.99973023 0
-0.0074667819 0.0075108465 0.017026946 0.028144043 0.0098934909 0.99955499 0
-0.0036880337 0.0075679901 0.01625962 0.70233291 -0.095995508 0.70534623 0
-0.017535685 0.012352861 0.016558371 -0.4322722 0.15520328 0.88828641 0
-0.01251044 0.012478325 0.017028339 0.017689904 0.010334419 0.99979013 0
-0.0074293944 0.012516353 0.016895171 0.045249611 0.043796539 0.99801522 0
-0.0037674739 0.012355939 0.016110154 0.63753283 0.21181798 0.74073279 0
-0.016404685 0.016038384 0.015858319 -0.3886404 0.60299253 0.69667679 0
-0.012464806 0.016496379 0.01634478 -0.046265066 0.63539356 0.77080131 0
-0.0076858434 0.016239813 0.016156442 0.22739905 0.63779467 0.73587209 0
-0.0044981367 0.015397328 0.015349977 0.58797157 0.53235555 0.60900491 0
