# .PCD v0.7 - Point Cloud Data file format
VERSION 0.7
FIELDS x y z
SIZE 4 4 4
TYPE F F F
COUNT 1 1 1
WIDTH 57
HEIGHT 1
VIEWPOINT 0 0 0 1 0 0 0
POINTS 57
DATA ascii
-0.010680131 -0.045035511 -5.4798915e-05
-0.0085081225 -0.04501627 -9.8322387e-05
-0.011653448 -0.060369719 0.0093045523
-0.0072822883 -0.060421273 0.0092287883
-0.021681732 -0.052509267 0.0078422735
-0.014926476 -0.055155281 0.0050436482
-0.0049357917 -0.055414967 0.0045947395
0.0023634133 -0.053211678 0.0072377454
-0.022707915 -0.04501617 0.0066585271
-0.015380625 -0.044993836 0.0014783873
-0.004360259 -0.044994034 0.0010058011
0.0035634118 -0.044990901 0.0059527284
-0.021709753 -0.037467014 0.0078472737
-0.014917252 -0.034850758 0.0052017388
-0.0050258785 -0.03465803 0.0047591813
0.0023836615 -0.036874026 0.0073205712
-0.011436493 -0.029709615 0.0094124377
-0.0076059517 -0.029648092 0.0093914652
-0.013733945 -0.061377022 0.015249084
-0.0052353647 -0.061498627 0.015115809
-0.02316436 -0.05440744 0.015048143
-0.018500714 -0.059072871 0.014227123
-0.00080486172 -0.059572548 0.012911208
0.004193252 -0.055192839 0.015113323
-0.025866564 -0.045007333 0.014889502
0.0076396763 -0.044992872 0.014943591
-0.022981288 -0.03586914 0.015104349
-0.018169049 -0.03108068 0.014379505
-0.0010569141 -0.030577976 0.013306308
0.0041924063 -0.034921795 0.015100968
-0.013368943 -0.028866129 0.015304945
-0.0055612363 -0.028696846 0.015223853
-0.012908397 -0.060924668 0.022203455
-0.0063343109 -0.060986735 0.022266835
-0.022266772 -0.053343698 0.02362803
-0.015984181 -0.05685275 0.026355108
-0.00405266 -0.057448346 0.026744939
0.0030113156 -0.053903438 0.024276996
-0.023496445 -0.044983327 0.025237596
-0.019669419 -0.044579629 0.029742319
0.0052392427 -0.044982258 0.02538096
-0.022129081 -0.036903083 0.023643591
-0.015974469 -0.033161376 0.026226977
-0.0040226253 -0.032479364 0.026636831
0.0030428807 -0.036204278 0.02421754
-0.012572465 -0.029244466 0.022112396
-0.0065478804 -0.029138004 0.022270756
-0.013535436 -0.052456688 0.031328876
-0.005847089 -0.052613873 0.031437382
0.00024182849 -0.050451487 0.030174313
-0.020104587 -0.045111157 0.030083215
-0.015051659 -0.045006476 0.032431714
-0.0048571057 -0.044974145 0.03289406
0.00085484196 -0.045024522 0.030556612
-0.013576283 -0.037494976 0.031401705
-0.0057525663 -0.037298772 0.031469144
0.00024992001 -0.039482228 0.030212255
