# .PCD v0.7 - Point Cloud Data file format
VERSION 0.7
FIELDS x y z
SIZE 4 4 4
TYPE F F F
COUNT 1 1 1
WIDTH 313
HEIGHT 1
VIEWPOINT 0 0 0 1 0 0 0
POINTS 313
DATA ascii
-0.061024405 0.016187092 -2.4116367e-05
-0.0041180965 0.019924579 -7.1176055e-06
-0.0040565049 0.02569524 -2.2515353e-05
-0.004400623 0.031011822 -2.2957247e-06
-0.052880581 0.049018826 -1.2389582e-05
-0.014743161 0.049491238 -3.8992759e-05
-0.021208471 0.054576799 -0.00014162935
-0.018183811 0.052873325 -0.00012529634
-0.051999077 -0.001635812 0.0078770062
-0.044594053 -0.0027202843 0.0053549674
-0.035043892 -0.0039414261 0.005461493
-0.025090469 -0.0035087585 0.0054614544
-0.016734011 -0.0020157674 0.0069231195
-0.061330549 0.0074354298 0.0079974942
-0.054557189 0.0053091575 0.0053387182
-0.045366663 0.0044722902 0.0062328167
-0.035142288 0.0049734362 0.0068698525
-0.024802545 0.0048468304 0.006489953
-0.014662969 0.004156711 0.0053099352
-0.0075121364 0.0068173693 0.0065583228
-0.062577456 0.015763691 0.0048621148
-0.055703446 0.014642582 0.0062403302
-0.044933949 0.014973048 0.0066513275
-0.034960158 0.015028999 0.0064613731
-0.025011009 0.014974429 0.0064006802
-0.014967547 0.01500535 0.0065621687
-0.0052319826 0.015213626 0.0054783127
0.00052804564 0.018377699 0.0082262922
-0.063667171 0.025151385 0.004750465
-0.054451048 0.024651337 0.0070698443
-0.04503664 0.024998913 0.0065679736
-0.034932844 0.024910722 0.0064629558
-0.024854559 0.024922555 0.00637845
-0.015014996 0.024976365 0.0065356423
-0.0046304516 0.024981406 0.0051839808
0.00086781953 0.025088349 0.0079188785
-0.062832527 0.034683149 0.0048046894
-0.054948639 0.035448402 0.0063077416
-0.045024391 0.034959853 0.006453481
-0.03497605 0.034966636 0.0064155506
-0.025013052 0.035073638 0.0065351208
-0.015035993 0.035051037 0.0066982242
-0.0048536188 0.035141531 0.0054634567
0.00064945896 0.03207453 0.0079624765
-0.061615773 0.043092553 0.0074359789
-0.055031095 0.045103233 0.0050034276
-0.045112479 0.045095958 0.0064472561
-0.034887061 0.044936866 0.0064815679
-0.025008861 0.045070197 0.0066567003
-0.014474601 0.045657594 0.0055243438
-0.0069829938 0.043829184 0.0061269468
-0.052911699 0.052028757 0.0069670076
-0.044900522 0.053978235 0.0055188909
-0.035065107 0.055045977 0.0056478656
-0.024939978 0.055046007 0.0055328649
-0.016119249 0.053121448 0.0057596429
-0.0093474668 0.050632413 0.00844613
-0.03374099 0.060324974 0.0084220655
-0.028622333 0.060263306 0.0081623578
-0.052321553 -0.0016998724 0.015041214
-0.045086876 -0.0038270319 0.015015089
-0.035091039 -0.0054649538 0.014985954
-0.024991281 -0.0058324859 0.015093945
-0.016038392 -0.0027151862 0.014977984
-0.061836962 0.0072762538 0.015032728
-0.05564668 0.0038215742 0.014789238
-0.013431515 0.003679473 0.015230566
-0.0065807085 0.0059892535 0.014671833
-0.065386117 0.014792883 0.014836238
-0.055810641 0.014918422 0.014612692
-0.002894958 0.013998693 0.015082275
0.00058192248 0.018092681 0.014786717
-0.067419775 0.024919847 0.015097544
-0.054968711 0.024885518 0.014931696
-0.0014235233 0.024938358 0.014947149
0.0012167182 0.025022833 0.014873574
-0.066191338 0.035106443 0.014990949
-0.055178415 0.034967139 0.014910715
-0.0018624916 0.035917152 0.015043106
0.00074366806 0.032624893 0.014984743
-0.062428888 0.043958765 0.015061418
-0.05653565 0.046077687 0.014895886
-0.010505487 0.049517017 0.014776587
-0.0055302093 0.04492449 0.015026226
-0.053502269 0.052836753 0.015049144
-0.045184933 0.05712821 0.015016657
-0.035258103 0.058275305 0.014940652
-0.024180735 0.058053184 0.014984515
-0.015082105 0.054237992 0.015078428
-0.009102012 0.050972447 0.015010715
-0.034533262 0.060458109 0.015053789
-0.028100746 0.060318742 0.015359125
-0.052568402 -0.0018184681 0.025062872
-0.045085639 -0.0049922382 0.024984391
-0.034999546 -0.0070353681 0.024988154
-0.025065118 -0.0063284063 0.025019888
-0.015968122 -0.0029322631 0.025058849
-0.061860219 0.0070879706 0.025168294
-0.05526356 0.0038627372 0.024964051
-0.014071141 0.0049379449 0.025072565
-0.0062910048 0.0056217941 0.025181793
-0.065591022 0.01496231 0.024873903
-0.054732844 0.015078336 0.025118485
-0.0029079244 0.013872663 0.0250578
0.00060416298 0.017848801 0.02492041
-0.06754408 0.025035946 0.024891879
-0.055806968 0.024986114 0.025057103
-0.0010189543 0.025083307 0.025085125
0.0014145657 0.024892382 0.024958553
-0.066292316 0.03517776 0.024993779
-0.055658143 0.034947019 0.025014179
-0.0015559797 0.035879906 0.024959566
0.00073535461 0.033126168 0.025081445
-0.062537692 0.044111848 0.024957489
-0.055871073 0.045933079 0.02508219
-0.010438289 0.049581267 0.025246395
-0.0053472975 0.044943903 0.024964737
-0.053611644 0.052921966 0.025043149
-0.045345627 0.05724562 0.025006358
-0.035122812 0.05860509 0.025133125
-0.024102297 0.058215469 0.025003834
-0.015089572 0.05446301 0.02497609
-0.009006924 0.051102456 0.024940347
-0.040496409 0.060070977 0.026556924
-0.035088077 0.060639165 0.02510195
-0.02763835 0.06039932 0.025183432
-0.052593097 -0.0018784904 0.035163619
-0.045165662 -0.0052893804 0.035007138
-0.035002567 -0.0075964225 0.034986235
-0.024911325 -0.0065303855 0.034987535
-0.015829843 -0.0030390827 0.035162263
-0.0099604847 -5.4743265e-05 0.037977394
-0.061878663 0.0069183693 0.034936517
-0.056112729 0.0037899415 0.034958456
-0.013673091 0.0042806286 0.034797773
-0.006357159 0.0059782765 0.03521366
-0.06478478 0.015531223 0.035913084
-0.057288278 0.014484609 0.034589458
-0.0020372579 0.014022515 0.034921009
0.00069753401 0.017822739 0.035084229
-0.065716155 0.025113752 0.035748024
-0.058192838 0.024587695 0.032432046
-0.0004533068 0.024871482 0.03461317
0.0013787432 0.024990441 0.035383809
-0.064951293 0.034653921 0.036080878
-0.057838254 0.035762947 0.033308495
-0.0012603374 0.035854015 0.034942284
0.00088054518 0.033281576 0.035089795
-0.062567763 0.044085536 0.035182633
-0.056420416 0.045585338 0.035075091
-0.010372791 0.04960775 0.034433182
-0.0051770746 0.045030843 0.034892291
-0.05376732 0.053076699 0.034908358
-0.045395263 0.057460781 0.034923594
-0.035014424 0.058902364 0.034961797
-0.024138357 0.058366951 0.034896016
-0.015006881 0.054573189 0.034957156
-0.0088245776 0.05116472 0.035195019
-0.040757068 0.060192786 0.035703503
-0.03495473 0.060841091 0.03494484
-0.027315143 0.060510434 0.035194159
-0.052686267 -0.0019178743 0.045028999
-0.045114122 -0.0055728075 0.045022443
-0.035035182 -0.0077687483 0.045024697
-0.024983993 -0.0068064048 0.044935286
-0.015461628 -0.0030604515 0.045221135
-0.0098975375 -0.00015338187 0.046492197
-0.061789878 0.0073975786 0.045415241
-0.05726786 0.0033254488 0.044715311
-0.012067906 0.0021439469 0.044012595
-0.0060522407 0.005505594 0.045098104
-0.064746074 0.014907677 0.044865377
-0.059295144 0.010686905 0.04053095
-0.0016891146 0.014041532 0.044914942
0.00078818796 0.017412903 0.045023013
-0.066752724 0.024994133 0.04494182
-0.00019165751 0.024690149 0.044678207
0.0011630554 0.025254546 0.045167521
-0.065571412 0.035232596 0.044983424
-0.0010506719 0.035742383 0.044940032
0.00092370232 0.033833873 0.045004304
-0.062290002 0.043585356 0.044916224
-0.057867121 0.047654603 0.044499647
-0.010165491 0.049847905 0.04365813
-0.0050600353 0.04511952 0.044950325
-0.05385166 0.053118434 0.04509224
-0.045516845 0.057551641 0.044988934
-0.035044927 0.059087746 0.044976555
-0.024063766 0.058467388 0.045012206
-0.014863185 0.054694898 0.04505894
-0.0086544249 0.051241066 0.045164902
-0.041025989 0.060299512 0.045263559
-0.034973197 0.061022677 0.044954795
-0.027018085 0.060620818 0.045021225
-0.052820176 -0.0020497588 0.054945678
-0.045148473 -0.0057123816 0.055015206
-0.035039864 -0.0079132039 0.055025216
-0.024909645 -0.0069100964 0.054948587
-0.015370145 -0.0032045178 0.055061832
-0.0097370893 -0.00019435439 0.055742182
-0.06174938 0.0072960895 0.055050574
-0.057287622 0.0026576286 0.054953896
-0.011109854 0.00087200006 0.054852594
-0.0059390748 0.0052563678 0.054868139
-0.065129414 0.014915854 0.054939594
-0.0014482455 0.014183071 0.054902982
0.00088800408 0.017046208 0.055004735
-0.066972919 0.025033865 0.055051811
-0.00011042532 0.023947228 0.0543666
0.0011718217 0.025167473 0.055127587
-0.065832309 0.035080798 0.055023339
-0.0009283172 0.035640858 0.054820042
0.001040404 0.034066737 0.054991014
-0.062375616 0.04383903 0.054996107
-0.058356103 0.048193648 0.05500517
-0.010009248 0.049947187 0.051575735
-0.0048444518 0.045146748 0.055020321
-0.054030519 0.053180747 0.054940913
-0.045677681 0.057663996 0.055038754
-0.03506352 0.059272923 0.055050157
-0.024102004 0.058574837 0.055044841
-0.014862707 0.054910023 0.055027392
-0.0085387826 0.051314857 0.055179417
-0.041378908 0.060414866 0.054985158
-0.034987129 0.061217863 0.055065326
-0.02670739 0.060702313 0.055107072
-0.043744586 -0.011313978 0.068946764
-0.03491132 -0.01224048 0.068394877
-0.025361335 -0.011892637 0.068563476
-0.018575894 -0.010676404 0.068775803
-0.061397985 -0.0012462309 0.068653576
-0.053700045 -0.0032099017 0.066219486
-0.045308389 -0.0062595461 0.065332577
-0.035030462 -0.0081113586 0.064976595
-0.024843346 -0.00734301 0.065188482
-0.015168164 -0.004187475 0.065903582
-0.0078790551 -0.0018995414 0.067895003
-0.06301254 0.0064642527 0.066317141
-0.057418644 0.0025931641 0.064582564
-0.010987741 0.00073113909 0.064866044
-0.0051260521 0.0050151879 0.065609775
0.0013512051 0.0073364102 0.068509668
-0.071026817 0.016763614 0.068906263
-0.065823756 0.014652944 0.065712683
-0.0013071977 0.013992015 0.064788848
0.002301266 0.015902439 0.066696487
-0.071739212 0.025271757 0.0686059
-0.067464836 0.024805674 0.06507498
-8.1744867e-05 0.022262547 0.063445374
0.0024081147 0.025055675 0.065672457
-0.071195513 0.034213688 0.06860619
-0.066522442 0.035148561 0.065628305
-0.0010154997 0.035698283 0.064496152
0.0024394253 0.034292053 0.066223823
-0.070183113 0.040248677 0.069338113
-0.06357839 0.044320662 0.06630563
-0.058439877 0.048247464 0.064934954
-0.010016764 0.049902074 0.068336681
-0.0044621569 0.045394368 0.065368913
0.0016397119 0.043404516 0.068650581
-0.061957419 0.052400757 0.068451606
-0.054654147 0.054033071 0.065604672
-0.04563963 0.057670016 0.064961404
-0.035074476 0.059448212 0.064714007
-0.024233075 0.058710292 0.064804174
-0.014462826 0.05546917 0.065569408
-0.0070497761 0.053013422 0.067118146
-0.051654279 0.060839359 0.068745993
-0.043701407 0.061897092 0.066856779
-0.034973685 0.062449075 0.066551976
-0.025638217 0.062135026 0.066641636
-0.016672937 0.061613537 0.068404958
-0.042605601 -0.011142368 0.07052999
-0.034983058 -0.01171344 0.070884667
-0.025985023 -0.011261494 0.070859499
-0.019511634 -0.010261372 0.070184611
-0.060761496 -0.0010530207 0.07065253
-0.054698903 -0.0040165875 0.070922598
-0.045895755 -0.007572948 0.070883818
-0.035348732 -0.0088520311 0.070661612
-0.02416143 -0.0081371367 0.070670038
-0.014823752 -0.005637296 0.070688851
-0.0076637557 -0.0019775413 0.070745863
-0.063485794 0.0054747518 0.070981212
-0.058144744 0.0020153795 0.070926435
-0.0032935024 0.0040325872 0.070897929
0.001008113 0.0072463974 0.070829235
-0.070747122 0.017537072 0.070614055
-0.06706848 0.014638742 0.070899248
-0.00084058644 0.012262908 0.070708014
0.0025540025 0.01541333 0.070947222
-0.071190208 0.024889957 0.070824467
-0.068468489 0.025135489 0.070908435
0.0039036877 0.025053965 0.070980988
-0.070892856 0.033752989 0.070673242
-0.067407288 0.035749827 0.07074298
-0.00078027457 0.038037047 0.0706117
0.0032292902 0.034793228 0.070990086
-0.064908817 0.045063354 0.070893422
-0.05879366 0.048791207 0.070521004
-0.0031443352 0.045991726 0.070915088
0.0015283623 0.042652447 0.070913292
-0.061748818 0.051818669 0.070839427
-0.055211943 0.055155247 0.070777692
-0.046915602 0.058225028 0.070579506
-0.022738151 0.059164595 0.070783228
-0.014184673 0.056838218 0.070935972
-0.0071273171 0.052974425 0.070837051
-0.050655764 0.060295083 0.070642091
-0.044017628 0.062155314 0.070981242
-0.034785103 0.063582286 0.070926741
-0.025376651 0.062793165 0.071062841
-0.017586272 0.061362728 0.070845023
