# .PCD v0.7 - Point Cloud Data file format
VERSION 0.7
FIELDS x y z
SIZE 4 4 4
TYPE F F F
COUNT 1 1 1
WIDTH 267
HEIGHT 1
VIEWPOINT 0 0 0 1 0 0 0
POINTS 267
DATA ascii
-0.035222106 -0.10140578 -6.7932073e-05
-0.04295605 -0.095269099 -5.6095745e-05
-0.038791105 -0.099024475 -7.9186204e-05
-0.0016359712 -0.096693382 -8.3222723e-05
0.0016211583 -0.092624448 -0.00013211343
-0.048323825 -0.082849622 -5.1189534e-05
0.0047912318 -0.085662305 -8.7487169e-05
-0.048882395 -0.078873649 -4.4771197e-05
0.0061819726 -0.075915419 -4.6356596e-05
-0.043904599 -0.063385226 -6.4851243e-05
0.0034941833 -0.067064501 -4.2459338e-05
-0.040240373 -0.059804402 -5.7539441e-05
-0.036735103 -0.056965295 -5.2314317e-05
-0.01542497 -0.052089997 -0.00030355941
-0.0092464164 -0.054564904 -3.0518226e-05
-0.020128684 -0.11001931 0.0099889357
-0.019464767 -0.1100105 0.0098832892
-0.042027753 -0.10178444 0.0078480756
-0.034364168 -0.10359748 0.0057276217
-0.024926422 -0.10547734 0.0056472314
-0.015049906 -0.10514753 0.005498596
-0.0060002399 -0.10321608 0.0060000345
0.0010679289 -0.10112872 0.0078692026
-0.050680459 -0.091432244 0.0080272546
-0.044278886 -0.09458755 0.0054610712
-0.035443746 -0.095530495 0.0060443683
-0.025028825 -0.0950725 0.0066240742
-0.014894354 -0.09489771 0.0064658378
-0.0043826117 -0.095455043 0.0056050364
0.0035082796 -0.093773365 0.0054001603
-0.051490009 -0.084704034 0.0075291907
-0.045839261 -0.085042253 0.0050271531
-0.034956798 -0.08508648 0.0064835395
-0.025011878 -0.085062973 0.0064270101
-0.015043356 -0.084986448 0.0063189198
-0.0049536414 -0.085062727 0.0064046071
0.0048907511 -0.085076973 0.0051216227
0.010676297 -0.082549296 0.0081867166
-0.051790163 -0.075388797 0.0078913691
-0.046164747 -0.075011224 0.005151473
-0.034981951 -0.075016938 0.0063118795
-0.024978429 -0.074936628 0.0063899648
-0.014990555 -0.07506565 0.0063605686
-0.0049139829 -0.075012572 0.0064299675
0.0049525523 -0.074842595 0.0051917266
0.010620923 -0.075572968 0.0083361994
-0.051215779 -0.06704706 0.0080324924
-0.044922758 -0.064979561 0.0052626999
-0.035168923 -0.064897247 0.0064930832
-0.02491341 -0.065002166 0.0064188926
-0.014945236 -0.065009654 0.0064455122
-0.0047374698 -0.064619444 0.006461211
0.003881386 -0.065435186 0.0054700142
-0.04289607 -0.057085369 0.0060768449
-0.034917004 -0.055288117 0.0045653982
-0.024870653 -0.054270394 0.0057289675
-0.014841148 -0.053928982 0.0054902504
-0.0051502064 -0.05565517 0.0055215773
0.0023333146 -0.057536963 0.0072216624
-0.032744266 -0.048584525 0.0074202302
-0.02436094 -0.047919672 0.0062928055
-0.01604691 -0.048245899 0.0071477755
-0.0077026756 -0.048906084 0.0082623698
-0.023217792 -0.11028434 0.015081795
-0.017937047 -0.11019328 0.015425725
-0.042245775 -0.10192705 0.015102187
-0.035144184 -0.10595597 0.015049665
-0.025846435 -0.10857224 0.014940298
-0.014405708 -0.10830159 0.014786835
-0.0052415198 -0.10494301 0.014951961
0.0013967358 -0.10131487 0.015120966
-0.050732583 -0.091509052 0.014875091
-0.046821825 -0.095766068 0.015066547
-0.0011825477 -0.097728252 0.014655204
0.0048239566 -0.094175398 0.014897555
-0.051889349 -0.084507748 0.014949976
-0.049610019 -0.088927843 0.015110444
0.0066604461 -0.08574526 0.015275588
0.010793063 -0.083246887 0.015245497
-0.052156471 -0.075013772 0.015068567
-0.049874898 -0.070131078 0.010541266
0.0034857509 -0.074947134 0.015012427
0.010981649 -0.075107053 0.015054615
-0.051439695 -0.066722348 0.014974878
-0.046406474 -0.064175174 0.014870678
-0.03838855 -0.060695399 0.015641857
-0.0027395147 -0.063132249 0.016209763
0.005741307 -0.065362096 0.014390993
0.010110607 -0.06962283 0.016219661
-0.044140957 -0.055508688 0.015083702
-0.034905847 -0.056079395 0.014850409
-0.024977015 -0.054699764 0.014751542
-0.014931371 -0.054545745 0.014763875
-0.005016129 -0.05502861 0.014179189
0.0030742954 -0.056793321 0.014915928
-0.033802245 -0.048292849 0.014905539
-0.025203509 -0.045993309 0.014940063
-0.01502683 -0.046562586 0.014924238
-0.0075491425 -0.048684925 0.015205408
-0.023665598 -0.11042151 0.025123274
-0.01746789 -0.11036563 0.025305234
-0.042259697 -0.10196456 0.025134549
-0.035052579 -0.10605103 0.024971822
-0.02588997 -0.10855281 0.025014065
-0.014110652 -0.10829231 0.024942949
-0.0049681254 -0.10490111 0.025082627
0.0015698528 -0.10146467 0.025076825
-0.050687477 -0.091608942 0.025008118
-0.046873279 -0.095727436 0.024943732
-0.00058687106 -0.098897964 0.023443041
0.0048755808 -0.094788857 0.025118299
-0.051906202 -0.084577024 0.02501224
-0.049581345 -0.088915721 0.024717398
0.0072836131 -0.085681535 0.024999026
0.01087137 -0.08377298 0.025164133
-0.052179888 -0.074999057 0.025013141
0.003348893 -0.074808784 0.025159959
0.011126361 -0.074995413 0.024950935
-0.051315259 -0.066934079 0.02517708
-0.046373557 -0.063615635 0.024826467
-0.038429059 -0.060797293 0.023722332
-0.0032066901 -0.063764289 0.02453099
0.0062465244 -0.065147981 0.025612064
0.010221696 -0.069318615 0.025344569
-0.044281501 -0.055546433 0.02507695
-0.03525506 -0.056351751 0.025408315
-0.024920601 -0.055035286 0.025659336
-0.014862317 -0.055919312 0.025316481
-0.0047082165 -0.054919768 0.025507243
0.0030042457 -0.056579676 0.024984429
-0.033920076 -0.048261318 0.025004791
-0.02492575 -0.045908764 0.024971129
-0.014905202 -0.04651399 0.024862731
-0.0073281666 -0.048749756 0.025112642
-0.023873327 -0.11050647 0.035106968
-0.017005948 -0.11042428 0.035132278
-0.042282145 -0.10201481 0.035087992
-0.03516762 -0.10624638 0.034993112
-0.025703315 -0.10855284 0.034991682
-0.01402936 -0.1083303 0.03492796
-0.0048571839 -0.10496785 0.034959413
0.0016076197 -0.10158642 0.035136778
-0.050728261 -0.091676384 0.035035275
-0.046966672 -0.095769428 0.035052154
-8.9519053e-05 -0.099887647 0.031943422
0.0051504867 -0.095212676 0.034999255
-0.052048799 -0.084659308 0.035079088
-0.04969107 -0.08924409 0.034749463
0.0084149297 -0.085713632 0.034856658
0.010929758 -0.083871432 0.03516857
-0.05237582 -0.07500831 0.035061464
0.0079810992 -0.075006329 0.034826834
0.011244563 -0.075016581 0.035075378
-0.051274911 -0.066838808 0.035132509
-0.048084848 -0.063106902 0.034826402
-0.00089071388 -0.060664199 0.030759797
0.0064959512 -0.064506412 0.034900989
0.010294281 -0.069070391 0.035222642
-0.043785416 -0.056224465 0.035141043
-0.036000773 -0.053188592 0.034440149
-0.026633637 -0.051467434 0.031057926
-0.013624757 -0.052077092 0.03185774
-0.0039705439 -0.053576484 0.034707509
0.0026918582 -0.057108939 0.035444353
-0.03365073 -0.048436139 0.035520256
-0.024905892 -0.046996061 0.035121225
-0.015369657 -0.047298908 0.035467267
-0.0074805622 -0.048741668 0.035297174
-0.024053847 -0.11062617 0.044816125
-0.01686844 -0.11052858 0.045123156
-0.04235211 -0.10205807 0.045132753
-0.035159368 -0.10630298 0.045065783
-0.025493875 -0.10866686 0.04497052
-0.014098885 -0.10846357 0.045002829
-0.0048262537 -0.10515637 0.045095492
0.0015383363 -0.10137337 0.045110215
-0.050821263 -0.091592737 0.045047075
-0.047034182 -0.095900916 0.045011308
0.0054114684 -0.095185883 0.044970997
-0.052095111 -0.084779903 0.04500534
-0.049741048 -0.089476913 0.044985801
0.0088085337 -0.085608862 0.044887446
0.010954835 -0.084153816 0.045102708
-0.052690987 -0.075041883 0.044921916
0.0094829155 -0.074939698 0.04475227
0.011297817 -0.075210579 0.045167565
-0.051259216 -0.06689854 0.045135591
-0.048439864 -0.062883317 0.044934634
0.0073290085 -0.064352781 0.044942115
0.010375123 -0.068892173 0.045327049
-0.043839239 -0.05593903 0.045035847
-0.037451304 -0.051457677 0.044985756
-0.0033445328 -0.05222271 0.04486455
0.0027575938 -0.057105549 0.044942025
-0.033247959 -0.048491903 0.045035414
-0.024994001 -0.046733856 0.044968802
-0.014936296 -0.047089312 0.045018174
-0.007580637 -0.048786614 0.045122091
-0.024165587 -0.1107154 0.055048071
-0.016597046 -0.11062054 0.055145014
-0.042380609 -0.10213073 0.054984186
-0.035108704 -0.10654288 0.055023409
-0.025680171 -0.10876697 0.054924458
-0.01403823 -0.1085479 0.054877117
-0.0047228253 -0.10524171 0.054983243
0.0016079831 -0.10156048 0.055060532
-0.050914675 -0.091764592 0.055146262
-0.047160033 -0.095879592 0.054930974
0.0055670482 -0.095329478 0.055008266
-0.052263401 -0.084793776 0.054994937
-0.049853407 -0.089689575 0.054671388
0.0090030665 -0.08554066 0.054946437
0.011160109 -0.08426363 0.055130947
-0.052723557 -0.075016856 0.055035155
0.0095693925 -0.074298441 0.055195335
0.011266233 -0.075411849 0.054861698
-0.051287629 -0.066841885 0.054959498
-0.048549436 -0.062818907 0.054993294
0.0074584964 -0.064324468 0.054975763
0.010451349 -0.068686679 0.055423442
-0.044009347 -0.055919196 0.05507087
-0.037578613 -0.051435888 0.055021603
-0.0031399862 -0.052151378 0.0549655
0.0028099732 -0.05684416 0.05503333
-0.033495888 -0.048479706 0.054938991
-0.02507133 -0.046588711 0.054999541
-0.015027123 -0.046915587 0.054945663
-0.0075399433 -0.048780642 0.055248231
-0.040338241 -0.11007199 0.066919588
-0.033873823 -0.11167148 0.067729227
-0.024983283 -0.11200204 0.066480279
-0.015538632 -0.11206911 0.066794321
-0.0068410793 -0.11147846 0.067887187
-0.050336178 -0.10056447 0.067537621
-0.043800358 -0.10349272 0.066288091
-0.035367947 -0.10703399 0.065233417
-0.025062218 -0.10930356 0.064194903
-0.01399339 -0.10873571 0.064221457
-0.0043231142 -0.10624225 0.065197945
0.0028262883 -0.10291017 0.066558331
-0.052246071 -0.093724169 0.06690567
-0.047642652 -0.096075617 0.064952008
0.0064276103 -0.095637359 0.065070026
0.011402661 -0.092936538 0.067715973
-0.053586856 -0.085004121 0.066018626
-0.049938269 -0.089877211 0.063092224
0.0092229182 -0.085620873 0.062992796
0.012235011 -0.084734567 0.066291809
-0.054227538 -0.075061813 0.065829173
0.009670849 -0.074484348 0.06371481
0.012668606 -0.075037241 0.066396534
-0.052600283 -0.065864295 0.066282861
-0.048542127 -0.062553547 0.064860538
0.007721357 -0.063967817 0.06489481
0.011957088 -0.066189468 0.067087889
-0.051426012 -0.057889629 0.067775719
-0.044891968 -0.055119805 0.065695323
-0.037821457 -0.051329352 0.064465448
-0.0028242944 -0.051826101 0.064610049
0.0040202332 -0.055804078 0.066089779
0.010503065 -0.05920634 0.067425065
-0.042243224 -0.048385479 0.067589253
-0.034358472 -0.047089797 0.066151857
-0.024972759 -0.045264769 0.065859087
-0.015015295 -0.045470878 0.065883964
-0.0060953926 -0.047473993 0.066449203
0.0011853273 -0.049082957 0.067711562
