# .PCD v0.7 - Point Cloud Data file format
VERSION 0.7
FIELDS x y z normal_x normal_y normal_z curvature
SIZE 4 4 4 4 4 4 4
TYPE F F F F F F F
COUNT 1 1 1 1 1 1 1
WIDTH 637
HEIGHT 1
VIEWPOINT 0 0 0 1 0 0 0
POINTS 637
DATA ascii
-0.051863767 -0.082271382 0.007715411 -0.70415229 -0.12203477 -0.69948351 0
-0.047463916 -0.082271151 0.0066406033 0.20646946 0.040374003 0.97761971 0
-0.04253218 -0.0825679 0.0064873216 -0.48198256 -0.67876041 0.55405527 0
-0.037402492 -0.082374081 0.0063080825 -0.33708081 0.25977039 -0.90492862 0
-0.032494638 -0.082427859 0.0064405394 -0.18604299 -0.32903075 0.92581141 0
-0.027656661 -0.082393833 0.0064172326 -0.16078719 -0.1188646 0.97980541 0
-0.02252136 -0.082634114 0.0064070052 0.067819223 -0.062627226 0.9957301 0
-0.017506195 -0.082475021 0.0063149673 0.91946328 -0.27917212 0.27685764 0
-0.012570499 -0.082288556 0.0061464706 -0.24714217 -0.080447391 -0.96563393 0
-0.0076253652 -0.082707912 0.0062568369 0.11603626 -0.027699927 0.99285865 0
-0.0024395869 -0.082579806 0.0064343456 0.94684207 -0.21552277 0.2388303 0
0.0026044236 -0.082473397 0.0068427664 -0.94379801 -0.18224128 0.27574149 0
0.0071353014 -0.082873851 0.0072502447 -0.51408744 -0.61165452 -0.60132593 0
0.010637481 -0.082846142 0.0079766233 0.94196433 -0.14069344 -0.30480894 0
-0.052015156 -0.077316023 0.0077457218 -0.60971457 0.214509 -0.76304257 0
-0.047423638 -0.077511154 0.0066269729 0.072857521 -0.013916738 0.99724525 0
-0.042587508 -0.077451438 0.0064299186 0.35154474 -0.030972285 0.93565857 0
-0.037572086 -0.077072404 0.0062382291 -0.83219808 -0.42895356 0.35134777 0
-0.032332681 -0.077458687 0.0063004405 -0.029734066 -0.021811532 0.99931979 0
-0.027441576 -0.077445477 0.0061526587 -0.032531906 -0.081879102 -0.99611115 0
-0.022497848 -0.077501208 0.0063933954 0.5764367 0.40365979 -0.71047837 0
-0.017573282 -0.077451013 0.006446355 -0.85062122 0.49459109 0.17839053 0
-0.012614041 -0.077656917 0.0062838085 -0.15082049 0.15772185 0.97589803 0
-0.0074977791 -0.077571526 0.0061613405 0.96241254 -0.2651552 0.058777466 0
-0.0022798977 -0.077639475 0.0063686455 0.98277098 -0.16687688 -0.079455942 0
0.0026579844 -0.077541389 0.006851289 -0.93623179 0.33335441 0.11110739 0
0.0068097049 -0.077188447 0.0072116028 -0.58010513 0.3391344 -0.74058473 0
0.010981175 -0.077326693 0.0078649269 0.93785143 0.017392166 -0.34660086 0
-0.051936436 -0.072831102 0.0079495022 -0.67265469 0.059899241 -0.73752815 0
-0.047633827 -0.07260827 0.0065560443 -0.073984899 -0.033084817 0.99671042 0
-0.0423862 -0.072591774 0.0065639303 -0.23439169 0.45594785 -0.85858727 0
-0.037144266 -0.072362915 0.0064630718 -0.33570632 0.17028534 0.92644715 0
-0.032654364 -0.072751142 0.0061008837 -0.38139233 -0.026634233 -0.92402953 0
-0.027631221 -0.07263004 0.0061283018 0.22819984 -0.0025523831 -0.973611 0
-0.022424286 -0.07253591 0.0064780954 0.53898674 -0.10298874 0.83599436 0
-0.017371356 -0.072472624 0.0064357109 0.083814934 0.14105852 -0.98644698 0
-0.012580198 -0.072661579 0.0061691324 -0.55538678 -0.071053162 -0.82855105 0
-0.0075968555 -0.072485223 0.0062978328 0.20728901 0.19907272 0.95781064 0
-0.0025481207 -0.07263568 0.0064870287 0.80546892 0.23167363 0.54547888 0
0.0025426969 -0.072567783 0.0066746525 -0.61757785 -0.14580552 0.77287668 0
0.0073062023 -0.072462082 0.0073180804 -0.20519651 0.17605284 -0.96275634 0
0.010647255 -0.072614595 0.0084983939 0.97406226 0.16282886 -0.15712909 0
-0.051113736 -0.06783963 0.0078844028 -0.75078356 0.29054639 -0.59321737 0
-0.0477628 -0.067521244 0.0069752201 0.41091198 -0.30567986 0.8589012 0
-0.042386699 -0.067480356 0.0066566831 0.32514116 -0.18828788 -0.92673135 0
-0.037792943 -0.067424297 0.0065773046 -0.87908119 0.37650579 -0.29233474 0
-0.032584783 -0.067297213 0.0062965415 -0.40725303 0.31677943 0.85661882 0
-0.027409002 -0.067532539 0.0061234874 0.78271514 -0.62220901 -0.014592603 0
-0.022478705 -0.067345977 0.0062604812 -0.0083391936 -0.61611444 0.7876125 0
-0.017408116 -0.067404233 0.006277645 -0.01075417 -0.80408716 0.59441411 0
-0.012366827 -0.067541398 0.0063436367 0.067926139 0.2803672 0.95748645 0
-0.0074001811 -0.067435868 0.0063453149 0.35509163 0.43687344 -0.82646936 0
-0.0023058723 -0.067375682 0.0066765198 0.34184647 0.25898758 0.90336394 0
0.0025248977 -0.067419775 0.0068609272 -0.56047934 -0.25199884 0.78889769 0
0.0072543481 -0.067767777 0.0076357173 0.54651737 0.15258905 -0.82342905 0
0.010108645 -0.069724344 0.008183402 0.94649702 0.29365376 -0.13383123 0
-0.050411791 -0.064362325 0.0081702573 -0.88124764 0.41483018 -0.22653595 0
-0.047598597 -0.062789984 0.0076059247 -0.5462141 0.16529202 -0.82117516 0
-0.042555247 -0.062045489 0.0071023661 0.54104209 -0.83963722 -0.047778796 0
-0.037679344 -0.062461581 0.0066896947 -0.5313952 -0.19175754 -0.82513529 0
-0.032547098 -0.062472071 0.0065190443 -0.26568678 0.29809159 0.91681617 0
-0.027365975 -0.062771171 0.0063630641 -0.04972605 0.30116898 0.95227337 0
-0.022331171 -0.062329106 0.0063488563 0.035317589 0.44267601 0.89598578 0
-0.017675364 -0.062545672 0.0063141482 0.35863149 0.67566073 -0.64410096 0
-0.012446104 -0.062531874 0.0064835632 0.34609795 0.92095 0.17907323 0
-0.0075164973 -0.062668838 0.006708316 0.40865687 0.69699991 0.58922887 0
-0.0025734548 -0.062565103 0.0067522335 -0.43880177 -0.54475152 0.71463197 0
0.0026724981 -0.062497683 0.0071434709 -0.36209002 -0.38852453 -0.84731311 0
0.0067712031 -0.062859066 0.0077583604 0.77680492 0.42115289 -0.46819258 0
-0.046489481 -0.058394749 0.0081363935 -0.74628675 0.59289682 -0.30253816 0
-0.042604547 -0.057383794 0.0066984356 -0.38822493 0.2491497 -0.88724619 0
-0.037376061 -0.058317915 0.0070539857 0.27261642 -0.88045675 -0.38791251 0
-0.032345414 -0.057640057 0.0073619252 0.44300625 -0.82501614 -0.35084721 0
-0.027545456 -0.057584085 0.0067403102 0.91512185 0.19233343 0.35434416 0
-0.022467172 -0.057294838 0.0066209617 0.10493259 0.94053292 0.32308969 0
-0.017331326 -0.057528339 0.0066827643 0.17668808 0.63724697 -0.75013173 0
-0.012304592 -0.057691656 0.0067723002 0.014044493 -0.31393567 0.94934034 0
-0.0075424062 -0.057449825 0.0067133247 -0.45066321 -0.7770502 0.43942645 0
-0.0027122479 -0.057702728 0.00733661 -0.76244509 -0.63366663 -0.13093545 0
0.0022991619 -0.057545867 0.0073301704 0.62654287 0.51839119 -0.58199197 0
0.0052625062 -0.059551172 0.0082544442 0.80506539 0.57171124 -0.15816456 0
-0.041821945 -0.053573206 0.0078576496 -0.60709584 0.70541769 -0.36581495 0
-0.0380501 -0.051933199 0.0071570724 -0.4051927 0.652704 -0.64015353 0
-0.032013759 -0.052659847 0.0061936765 0.022893094 0.2015214 -0.97921658 0
-0.027459204 -0.052602787 0.0074378345 0.61489236 -0.70739454 -0.34856895 0
-0.022444133 -0.052538835 0.0069864769 0.17606588 -0.98191118 0.069650866 0
-0.017616488 -0.052656524 0.006941068 -0.32351109 -0.90763491 0.26746875 0
-0.012435907 -0.052325062 0.0073957681 -0.086541504 -0.99398381 -0.067132041 0
-0.0076492042 -0.052314274 0.0074066184 -0.0023068644 -0.4680945 -0.88367546 0
-0.0028954737 -0.052618261 0.0078497492 0.46594182 0.75578856 -0.46008894 0
0.000676725 -0.054325067 0.0084384894 0.64233071 0.74470145 -0.18119347 0
-0.036118988 -0.049475644 0.0083603123 -0.45369613 0.87003261 -0.1928813 0
-0.032015413 -0.048176453 0.0077274279 -0.29255021 0.80579513 -0.51488698 0
-0.027609404 -0.047472656 0.0074388459 -0.15328157 0.76564968 -0.62472814 0
-0.02240341 -0.047876328 0.0073287161 0.022627788 0.47130007 -0.88168269 0
-0.017592244 -0.047778245 0.0073369378 0.11997283 0.67341757 -0.72946244 0
-0.012425418 -0.047843244 0.0075567705 0.21843491 0.77900273 -0.58774233 0
-0.0072653824 -0.049134448 0.0081612905 0.41068879 0.85405022 -0.31926933 0
-0.025879892 -0.11019661 0.012701536 -0.18940467 -0.98189729 0.0019040023 0
-0.022783231 -0.11049658 0.012455693 -0.054270864 -0.99852288 0.0026041162 0
-0.017946282 -0.11038316 0.012781881 0.10818567 -0.99411649 -0.0053216848 0
-0.036917426 -0.10620349 0.012493487 -0.49402454 -0.86935198 -0.012919831 0
-0.032470807 -0.10748743 0.012441469 -0.099258333 -0.97795826 0.1836991 0
-0.027852701 -0.10862632 0.012164247 0.26707944 0.96295804 -0.037154905 0
-0.022724198 -0.10869531 0.012541339 0.043925282 0.99891859 -0.015234764 0
-0.017274322 -0.10829752 0.012452825 -0.21067277 0.97594112 -0.056177959 0
-0.012510526 -0.10833781 0.012502426 0.22974229 -0.97275186 0.031182868 0
-0.0078221681 -0.1067564 0.012619276 0.3457022 -0.93833166 0.0048728161 0
-0.0040446655 -0.10571682 0.012179177 0.51858133 -0.85481244 -0.019210124 0
-0.045108069 -0.10011942 0.011873073 -0.70614308 -0.7079308 -0.013998551 0
-0.042165753 -0.10204331 0.012666457 -0.71649104 -0.69722319 -0.022812957 0
-0.037904046 -0.10372254 0.01238365 0.50784993 0.85623199 -0.094632693 0
-0.0058359476 -0.10432655 0.012785309 -0.50852782 0.86103803 -0.0035990295 0
-0.0022058801 -0.10292204 0.012219733 -0.60665989 -0.74347109 -0.28145057 0
0.0012569334 -0.10160374 0.012205981 0.68453586 -0.7288267 -0.014911705 0
-0.046781659 -0.097233079 0.012561016 -0.79306722 -0.60904789 -0.010255627 0
-0.043907654 -0.098783128 0.012671883 0.79123044 0.61080688 -0.029484024 0
-0.0014498769 -0.097554713 0.012470173 -0.97272271 0.23192216 0.0047530844 0
0.0039221696 -0.098714553 0.012773031 0.7755062 -0.63132292 -0.0046373499 0
0.0059701675 -0.095907085 0.012739884 0.83959526 -0.54306078 -0.012835107 0
-0.050738703 -0.091571823 0.012603557 -0.90841305 -0.4180181 -0.0068313843 0
-0.048250549 -0.093090333 0.012641945 0.8674655 0.49474829 0.052227341 0
-0.00022455356 -0.094679616 0.01191987 -0.76186371 0.64676291 0.035517089 0
0.0024998342 -0.092276789 0.012408308 -0.5657469 0.78991139 -0.23658048 0
0.0073830471 -0.092080548 0.01259987 0.94879603 -0.31186455 -0.050265376 0
-0.051531255 -0.087014347 0.012254336 -0.96217394 -0.26330322 -0.069948018 0
-0.049691323 -0.088900149 0.012424043 0.95028657 0.31061047 0.021831017 0
0.007539487 -0.087957859 0.012613439 -0.74794304 -0.52902544 -0.40089059 0
0.010281954 -0.086105056 0.012681506 0.97006184 -0.24250072 -0.013167684 0
-0.052167989 -0.082619563 0.012449417 0.82567149 -0.40955895 -0.38797948 0
0.004599947 -0.081594445 0.012801406 -0.96712941 -0.18871725 -0.17043069 0
0.0053735999 -0.08359123 0.011773667 -0.90973991 -0.29942793 -0.28760421 0
0.010934099 -0.082600094 0.01240989 0.99034256 -0.13714448 -0.020323856 0
-0.052364759 -0.077683896 0.012581075 0.28493485 0.66635376 -0.68904626 0
0.0041998811 -0.077375911 0.01264237 -0.93528807 -0.028906504 -0.3527047 0
0.0055869557 -0.076176926 0.010369872 -0.76890528 0.18368122 -0.61240977 0
0.011264393 -0.077588864 0.012636868 0.99985528 0.0098776836 -0.013849526 0
-0.051952861 -0.072432853 0.012189307 0.33908501 -0.64583498 -0.68404573 0
0.003645133 -0.072097033 0.012818019 -0.81850034 -0.1542694 -0.55340594 0
0.0055916724 -0.072659336 0.010460048 -0.70789409 -0.053530551 -0.70428723 0
0.01083345 -0.072690226 0.012789011 0.98663878 0.16232616 -0.013933645 0
-0.051799193 -0.067901276 0.012585291 -0.94392502 0.33015928 0.00056342356 0
-0.049083669 -0.067425743 0.012649242 0.89982665 -0.40946522 0.15050001 0
-0.00056975492 -0.065471701 0.014503242 -0.738738 -0.50643134 -0.44473979 0
0.0023697671 -0.067328736 0.012374375 -0.67342949 -0.36185274 -0.64463574 0
0.0090636043 -0.066750839 0.012205819 0.92806756 0.36989999 -0.043181285 0
0.010162884 -0.069448695 0.012345721 0.96776223 0.25156966 -0.012205966 0
-0.050430853 -0.064033136 0.012137876 -0.90370029 0.42810217 -0.0073698452 0
-0.04769047 -0.062913604 0.01257067 -0.7964797 -0.50937432 -0.32581872 0
-0.042646814 -0.062259663 0.012280183 0.45965296 -0.82814258 -0.32077885 0
-0.038912479 -0.060571432 0.013469136 0.48691401 -0.8272388 -0.28034022 0
-0.0020243244 -0.061955445 0.012895647 -0.62097627 -0.5528627 -0.55563599 0
0.0013770573 -0.063537449 0.010958838 -0.55458039 -0.4467901 -0.70201087 0
0.007245427 -0.062459171 0.012469498 0.87274605 0.48807043 -0.010075578 0
-0.046652872 -0.057999074 0.012320941 -0.78377724 0.6207481 -0.01910533 0
-0.04452024 -0.055555087 0.01225778 -0.72978836 0.68332791 -0.021722773 0
-0.036976058 -0.058994576 0.011953158 0.43292612 -0.86008739 -0.2698603 0
-0.032519218 -0.057017095 0.012336891 0.4443005 -0.87585658 -0.18834125 0
-0.028452424 -0.055596758 0.013925916 0.37864417 -0.86842275 -0.32011032 0
-0.011798345 -0.055511683 0.014190078 -0.32172698 -0.81073487 -0.4890815 0
-0.0069635627 -0.056906588 0.012822725 -0.47947401 -0.62533766 -0.6156764 0
-0.0034396348 -0.058685634 0.011299172 -0.61128116 -0.53382277 -0.58426762 0
0.0031827553 -0.056706183 0.012415056 0.75408375 0.65637749 -0.022940053 0
0.0053671501 -0.059421659 0.012799386 0.81538218 0.57836866 -0.025331315 0
-0.042008635 -0.053232279 0.012480672 -0.6454531 0.76364583 -0.015339168 0
-0.038779564 -0.050822277 0.012731547 -0.53626728 0.84389824 -0.015911048 0
-0.026949573 -0.053813383 0.011665741 0.39092481 -0.79352206 -0.46636939 0
-0.022363011 -0.052643511 0.01221718 0.1143982 -0.79398149 -0.59708154 0
-0.017391667 -0.0529158 0.012518525 -0.13423356 -0.8006233 -0.58393812 0
-0.01251 -0.053541124 0.011818871 -0.18767582 -0.75932032 -0.62306529 0
-0.008115923 -0.053881466 0.010743681 -0.26791409 -0.60724109 -0.74798423 0
-0.0024936935 -0.051556874 0.012488357 0.57451612 0.81834882 -0.015379147 0
0.00079405564 -0.054176424 0.012209852 0.6874969 0.72599697 -0.016626397 0
-0.036387611 -0.049415525 0.012089786 -0.47325402 0.88083547 -0.012629647 0
-0.032426465 -0.047700103 0.012428362 -0.34521174 0.93845558 -0.011394885 0
-0.027483625 -0.046315745 0.012380923 -0.18829831 0.98203504 -0.012280785 0
-0.022449467 -0.045720074 0.01280407 -0.049299695 0.99868625 -0.013976233 0
-0.01730956 -0.045917805 0.012492609 0.12566452 0.99204201 -0.007822996 0
-0.012509236 -0.04685434 0.012556131 0.26562339 0.9640038 -0.011867838 0
-0.0073716631 -0.048731871 0.012507945 0.41666943 0.90901059 -0.0092926398 0
-0.0049382625 -0.049940366 0.011941507 0.4927642 0.87008351 -0.011755271 0
-0.025952989 -0.11021256 0.017560309 -0.19274636 -0.98116946 -0.012461948 0
-0.02240935 -0.11053583 0.017804945 -0.045255303 -0.99895698 -0.0060753273 0
-0.017509906 -0.1103643 0.017247889 0.11234021 -0.99360138 -0.011662078 0
-0.014888955 -0.1100169 0.018767806 0.22780041 -0.97348559 -0.020804398 0
-0.037315797 -0.10606541 0.017465588 -0.49843624 -0.86692601 -0.00082229194 0
-0.032531392 -0.10724536 0.017551385 0.43265805 0.90150946 -0.0093644019 0
-0.027748834 -0.10859475 0.017326405 0.17189433 0.98507196 -0.0092554269 0
-0.022483435 -0.10868592 0.017521709 0.050653651 0.99845529 0.022831228 0
-0.017456532 -0.10831247 0.01753612 -0.15856197 0.98609877 0.049671851 0
-0.012499226 -0.10846957 0.017447503 0.34538195 -0.93450081 0.086136803 0
-0.007903385 -0.10707624 0.017358128 0.39635485 -0.91808283 0.0051839231 0
-0.0038788756 -0.10571305 0.018104332 0.5202148 -0.85393 -0.01342395 0
-0.045108449 -0.10021001 0.017250877 -0.7296356 -0.68378413 -0.0084358864 0
-0.042149898 -0.10214761 0.017602069 -0.68684846 -0.72631258 -0.026634322 0
-0.037922323 -0.10354231 0.017555451 0.54122293 0.84010214 0.03613919 0
-0.0060606576 -0.10457597 0.017560244 -0.50769341 0.85984486 0.053984117 0
-0.0023385552 -0.1028142 0.017723326 -0.99715567 -0.0011335779 0.075361177 0
0.0014380444 -0.10152664 0.017200777 0.70293224 -0.71107155 -0.016233044 0
-0.046754859 -0.097149916 0.017547505 -0.78827363 -0.61489815 -0.022909233 0
-0.043722175 -0.098851167 0.017270302 0.74512124 0.66690052 0.006175098 0
-0.0013558409 -0.097197726 0.017620925 -0.93747336 0.33406734 0.09768682 0
0.0040839962 -0.098611481 0.017445637 0.77912718 -0.62669599 -0.014596011 0
0.0059457994 -0.096054703 0.017679265 0.83258492 -0.5537892 -0.010952544 0
-0.05080346 -0.091514565 0.017756633 -0.9128958 -0.40808186 -0.0095150182 0
-0.04833309 -0.093315952 0.017653462 0.85797322 0.51281679 0.030013707 0
-0.00016576397 -0.094553538 0.016584435 -0.81200469 0.57781416 0.082335711 0
0.0023495962 -0.092161514 0.017440792 -0.62931776 0.74883282 0.20786673 0
0.0075761583 -0.09264984 0.01746738 0.9087894 -0.41670969 0.021326829 0
-0.051507097 -0.087129302 0.017451648 -0.94518542 -0.31693605 0.078587078 0
-0.04969088 -0.088960208 0.017366871 0.94076014 0.33839935 0.021356327 0
0.0047733621 -0.089927636 0.016485896 -0.50069833 0.85880321 0.10843586 0
0.0077659232 -0.088171579 0.017428268 -0.66862875 0.4857226 0.56303579 0
0.010331287 -0.086162739 0.017675055 0.96488959 -0.26220429 -0.015388874 0
-0.052331414 -0.082616173 0.017547879 -0.3194724 -0.6912815 0.64812583 0
0.0042717974 -0.081608556 0.017251674 -0.92876017 -0.36846989 0.040428873 0
0.0063353991 -0.084108226 0.017778525 -0.61362821 -0.76416069 0.19879355 0
0.011072726 -0.082307875 0.017326608 0.99070752 -0.13496336 -0.016837895 0
-0.052479938 -0.077417582 0.01757619 0.62684506 0.59822267 0.49919429 0
0.0031264827 -0.077573754 0.017458333 -0.97116143 -0.2221967 -0.086453274 0
0.011319427 -0.077320457 0.017507492 0.99967188 0.020821229 -0.014917019 0
-0.052015711 -0.072564505 0.017338866 0.8250683 -0.53865808 0.17061594 0
0.0017464132 -0.072233967 0.01758389 -0.9308421 -0.32442057 -0.16817944 0
0.010854952 -0.072448425 0.017355293 0.98474365 0.17361188 -0.01178049 0
-0.051617097 -0.067688003 0.01731647 -0.9515034 0.30707383 -0.018628741 0
-0.049104083 -0.067252897 0.017381305 0.9003759 -0.4332647 -0.040061731 0
-0.001229116 -0.066555373 0.018005693 -0.81076884 -0.55139667 -0.19650848 0
0.00055367796 -0.068866774 0.016669739 -0.84715414 -0.4560076 -0.2727398 0
0.0094182808 -0.067043714 0.017434968 0.93947661 0.3419278 -0.021656638 0
0.010193951 -0.069303341 0.018119143 0.96709198 0.25377139 -0.018248564 0
-0.050526053 -0.064158738 0.017074307 -0.90211856 0.43132296 -0.011943302 0
-0.047701001 -0.062835544 0.017752184 -0.55086207 -0.64150661 0.53387296 0
-0.042293333 -0.063003153 0.017322464 0.35460892 -0.93498135 0.0078971535 0
-0.037809085 -0.060864151 0.017912291 0.46998638 -0.87727636 -0.09746246 0
-0.0059765205 -0.060971405 0.018095212 -0.65552294 -0.7199865 -0.2278356 0
-0.0035801197 -0.063184604 0.017334949 -0.73166817 -0.63383973 -0.25081646 0
0.0074498155 -0.06271296 0.017310696 0.87595809 0.482124 -0.015934626 0
-0.046651971 -0.057881042 0.017563166 -0.78180498 0.62331718 -0.016020592 0
-0.04451948 -0.055441029 0.016619438 -0.7284767 0.68466109 -0.023680722 0
-0.03574951 -0.059663638 0.017240537 0.45072025 -0.88367635 -0.12636197 0
-0.032414149 -0.058173198 0.017792581 0.39736065 -0.9094519 -0.12248168 0
-0.027559448 -0.056326445 0.017606558 0.28160879 -0.94417506 -0.17096783 0
-0.022659132 -0.055462793 0.01790951 0.093734637 -0.97518283 -0.20057997 0
-0.017481091 -0.055556372 0.017993148 -0.12903269 -0.96526998 -0.22716618 0
-0.012628792 -0.056457676 0.0171865 -0.33665627 -0.90508473 -0.25977725 0
-0.0081129475 -0.058903653 0.017178182 -0.56371933 -0.77064151 -0.29720742 0
0.0035707101 -0.056996308 0.017442586 0.76283032 0.6462934 -0.019869376 0
0.005437803 -0.059411451 0.016844401 0.82681429 0.56230235 -0.013936128 0
-0.042113081 -0.053218711 0.017332222 -0.64035952 0.76787233 -0.01765345 0
-0.038813472 -0.050747588 0.017437536 -0.54948795 0.8353374 -0.01656522 0
-0.021794938 -0.054725863 0.015776876 0.079907663 -0.92620921 -0.36844429 0
-0.018404115 -0.054668263 0.01556519 -0.10447017 -0.9164682 -0.38622779 0
-0.0024018222 -0.051574431 0.017274063 0.57241797 0.81989312 -0.010627504 0
0.001085648 -0.054346845 0.017859673 0.67662472 0.73616415 -0.015539267 0
-0.036438983 -0.049369071 0.017581217 -0.45978829 0.88793111 -0.013150345 0
-0.032860037 -0.04776549 0.017458437 -0.35387278 0.93517524 -0.014878895 0
-0.027746303 -0.046309926 0.017226798 -0.17912038 0.98376256 -0.011277255 0
-0.022828277 -0.045696843 0.017689792 -0.058042552 0.99828434 -0.0077004274 0
-0.017648408 -0.04583795 0.017320395 0.10685073 0.99422055 -0.010409507 0
-0.012586249 -0.04678506 0.017569488 0.2645725 0.96426362 -0.014037581 0
-0.0077063767 -0.048521858 0.017583638 0.40796208 0.91293639 -0.010686749 0
-0.0048235096 -0.049973704 0.016931668 0.48340464 0.87524217 -0.016463136 0
-0.026354535 -0.11020826 0.022652244 -0.17083488 -0.98524976 -0.0099223088 0
-0.022490745 -0.11058 0.022648208 -0.04426495 -0.99896848 -0.010131197 0
-0.01768619 -0.11044349 0.022470826 0.10231994 -0.9946788 -0.012029042 0
-0.036750268 -0.10614291 0.022657352 -0.51200378 -0.85893381 -0.0092088552 0
-0.032629561 -0.10756149 0.022579309 -0.19703391 -0.97986263 -0.03235529 0
-0.028103501 -0.10856012 0.022370681 0.18852092 0.98206902 0.00052436715 0
-0.022408199 -0.1087957 0.022339351 0.028960427 0.99956322 0.0058872048 0
-0.01760447 -0.10849531 0.022502074 -0.12730172 0.99169749 0.018174743 0
-0.0125359 -0.10843384 0.022471242 -0.5290212 0.84061474 -0.11620392 0
-0.0078743473 -0.10703563 0.022405433 0.40234867 -0.915483 -0.0025256921 0
-0.0039349701 -0.10578482 0.022937506 0.52199721 -0.85294527 -0.001807277 0
-0.045105521 -0.10031792 0.024337079 -0.72303051 -0.69056094 -0.018771898 0
-0.042099304 -0.10216193 0.02262057 -0.70097607 -0.712704 0.026181197 0
-0.037974443 -0.10370132 0.022488583 0.61009419 0.79018688 0.058222406 0
-0.0059131668 -0.10449847 0.022760775 -0.52058876 0.85375077 -0.0098443925 0
-0.0021253307 -0.10260696 0.022231972 -0.90766329 0.3961364 0.13864823 0
0.0015565756 -0.10150582 0.022478145 0.70654285 -0.70761138 -0.0091227368 0
-0.04676263 -0.0972092 0.022514772 -0.82270092 -0.56798083 -0.023685392 0
-0.04400222 -0.098450206 0.022537926 0.79318362 0.6089763 -0.0027362034 0
-0.00085465651 -0.09792231 0.021928769 -0.92545658 0.31207156 0.21480574 0
0.0027108728 -0.097130239 0.023061926 0.32620507 0.24943347 0.91179663 0
0.0057812668 -0.096430935 0.022289652 0.83311003 -0.55292523 -0.014191836 0
-0.050755739 -0.091715567 0.022463903 -0.90932727 -0.41602603 -0.0067966613 0
-0.048540793 -0.092985637 0.022504959 0.89176035 0.45200166 -0.021401381 0
0.0030115987 -0.093722723 0.022079222 -0.53340602 0.72389412 0.437556 0
0.0072913268 -0.092203468 0.022451814 0.94176483 -0.33065438 0.061211213 0
-0.051640704 -0.087332785 0.022549763 -0.95505565 -0.29453474 -0.033436012 0
-0.049658142 -0.089076802 0.022758897 0.94372296 0.33018166 -0.019159099 0
0.0081151612 -0.087727033 0.022427589 -0.98658258 0.14624022 0.072584376 0
0.010370675 -0.086290173 0.022405209 0.96107495 -0.27603418 -0.011831587 0
-0.052368365 -0.082501531 0.022418832 -0.17836118 -0.10853583 -0.97796082 0
0.0044499571 -0.080991656 0.022504386 -0.88797611 -0.44631547 0.11090975 0
0.0064696516 -0.083393306 0.022974957 -0.67460132 -0.73238385 0.092341349 0
0.011110991 -0.082483307 0.022878423 0.99034226 -0.13846719 -0.0070116147 0
-0.052521244 -0.077517077 0.022569662 -0.49727395 -0.45720288 -0.73734939 0
0.0032486732 -0.077759616 0.022230668 -0.95332289 -0.28479013 0.10035008 0
0.011396939 -0.077357925 0.022499956 0.99960577 0.024226006 -0.014195869 0
-0.052207705 -0.072621644 0.022517109 -0.95945889 0.27756411 0.048956867 0
0.0016989008 -0.072272472 0.022607112 -0.93561208 -0.33002952 0.12534167 0
0.010893578 -0.072358534 0.022173626 0.9830988 0.18274714 -0.010965469 0
-0.051568728 -0.068075195 0.022435345 -0.94640112 0.32293218 -0.0063006179 0
-0.049306992 -0.066567451 0.022910984 0.9120326 -0.40950757 -0.022363953 0
-0.0011659953 -0.066871539 0.022237394 -0.81734818 -0.56139731 0.12951852 0
0.00044568631 -0.069051065 0.023429921 -0.86059684 -0.46944275 0.1974753 0
0.0093993163 -0.066759907 0.022867067 0.93556911 0.35294256 -0.01191582 0
0.010235592 -0.069260277 0.022648593 0.96720695 0.25388473 -0.0072895149 0
-0.050534982 -0.064017646 0.022511309 -0.89858031 0.43855613 -0.014896811 0
-0.047855459 -0.062577367 0.022400683 -0.3771373 -0.92550111 -0.034860183 0
-0.042339426 -0.062581874 0.022460287 0.18943927 -0.97550035 0.11185682 0
-0.038223296 -0.061078869 0.02238363 0.43116066 -0.8984763 0.082709245 0
-0.006049423 -0.061332721 0.02220971 -0.654944 -0.75155109 0.078862898 0
-0.0033993481 -0.063850813 0.022988686 -0.74505544 -0.64797443 0.15818188 0
0.007367108 -0.062394269 0.022461485 0.87516075 0.48362815 -0.014050242 0
-0.04676063 -0.057928711 0.022688568 -0.79117382 0.61143178 -0.01397087 0
-0.044621211 -0.055396605 0.022286478 -0.70304614 0.71106672 -0.010500655 0
-0.035419632 -0.059659939 0.022737825 0.4341459 -0.89583784 0.094825327 0
-0.032712441 -0.058463089 0.022540361 0.40224525 -0.91282499 0.070351124 0
-0.027586425 -0.05657756 0.022628119 0.26991147 -0.95748025 0.10187859 0
-0.022664644 -0.05567345 0.022492385 0.070801646 -0.99312019 0.093271263 0
-0.01743952 -0.055877298 0.022532482 -0.12904377 -0.98881584 0.074772842 0
-0.012441941 -0.057151835 0.022539295 -0.40498555 -0.91420174 0.014893761 0
-0.0088717872 -0.059146769 0.022653166 -0.54246294 -0.83694166 0.07254333 0
0.0033918985 -0.056655496 0.022674073 0.75187296 0.65922147 -0.010684226 0
0.0054437597 -0.05926789 0.02271495 0.82533127 0.56446189 -0.014530499 0
-0.042146303 -0.053155083 0.022666978 -0.64065313 0.76778477 -0.0083665606 0
-0.038989071 -0.050784022 0.022411736 -0.54498428 0.83835936 -0.012069914 0
-0.0022932545 -0.051584061 0.02228033 0.57929629 0.81507075 -0.0086928923 0
0.00095345324 -0.054143198 0.022362761 0.67264593 0.7398771 -0.011371826 0
-0.036380634 -0.049270529 0.022751682 -0.45819336 0.88875836 -0.012936252 0
-0.032468047 -0.047578014 0.022543782 -0.34355021 0.93909317 -0.0087914132 0
-0.02759443 -0.046230741 0.022253647 -0.1913311 0.98149383 -0.0078894487 0
-0.022489024 -0.045631625 0.02249545 -0.032689489 0.99940389 -0.011105618 0
-0.017536659 -0.045782711 0.022733515 0.10305778 0.99462229 -0.010275458 0
-0.01261545 -0.046716452 0.022523712 0.26057208 0.9653821 -0.011813642 0
-0.007518563 -0.048556115 0.022586782 0.41634315 0.90917814 -0.0073197829 0
-0.0047321143 -0.04993302 0.022942664 0.47472256 0.88009971 -0.0079296911 0
-0.02654423 -0.11021964 0.027411977 -0.16053298 -0.9869945 -0.0084286053 0
-0.022674836 -0.11060382 0.027704572 -0.056395739 -0.9983862 -0.0066713798 0
-0.017548669 -0.11053929 0.02778062 0.10380133 -0.99448568 -0.01495068 0
-0.014731022 -0.11010219 0.028279927 0.21963006 -0.97542834 -0.017381748 0
-0.036828618 -0.1062349 0.027434368 -0.49804318 -0.86712366 -0.0070416238 0
-0.032386363 -0.10772582 0.027463339 -0.20656651 -0.97403997 0.092608981 0
-0.027831981 -0.10850099 0.027231019 0.15752049 0.98628771 0.049231794 0
-0.022556577 -0.10879143 0.02732061 0.079021938 0.99687254 0.00084877253 0
-0.017364562 -0.10854138 0.027578006 -0.13033855 0.99142635 0.0092528556 0
-0.012262838 -0.10827653 0.027606869 -0.31189039 0.94989717 0.02048501 0
-0.0078615258 -0.10686463 0.027519815 0.17148742 -0.98518372 -0.002248802 0
-0.0036961974 -0.10565709 0.027385352 0.53797591 -0.84290594 -0.0095702279 0
-0.045272399 -0.10016971 0.027008632 -0.7415784 -0.67078406 -0.010497328 0
-0.042203713 -0.10205808 0.027416587 -0.64006376 -0.76831388 -0.0034816859 0
-0.03832563 -0.10379426 0.02745107 0.56214231 0.82659125 0.027257595 0
-0.0057729175 -0.10452099 0.026999379 -0.51525652 0.85585952 0.044891983 0
-0.0020715967 -0.10282226 0.027541557 -0.79993713 0.59879899 0.039247438 0
0.0015949759 -0.10152964 0.027497374 0.69178921 -0.72200316 -0.011789807 0
-0.046800561 -0.09709131 0.027638232 -0.84357196 -0.53701377 -0.0015897664 0
-0.04399012 -0.098556072 0.027607376 0.77739984 0.62825471 -0.030749569 0
-0.00035788759 -0.098814569 0.026526416 -0.83252102 0.50398147 0.23002476 0
0.0030370192 -0.097770281 0.027634317 -0.30041146 0.88642609 0.35213885 0
0.0060036466 -0.096237674 0.027522525 0.83199364 -0.55450803 -0.017533265 0
-0.050822604 -0.091652274 0.027570015 -0.909863 -0.41482106 -0.0085332999 0
-0.048668206 -0.092798062 0.027548213 0.92855239 0.37119281 -0.002537838 0
0.0046042763 -0.094291538 0.026353104 -0.88720429 0.42359319 0.18285879 0
0.006964799 -0.092299633 0.027523823 -0.62735707 0.64452821 0.4370428 0
-0.051615436 -0.087181464 0.027498215 -0.93568182 -0.35013717 0.043630045 0
-0.049609181 -0.08911524 0.027308268 0.94844037 0.31684718 0.0082853669 0
0.0082994793 -0.087771371 0.027516926 -0.98366153 0.177238 -0.031570587 0
0.010433539 -0.086223051 0.027240008 0.96581894 -0.25901791 -0.010177645 0
-0.052396845 -0.08237157 0.02751093 -0.70748448 -0.55270535 -0.44043452 0
0.0047623594 -0.080482826 0.026174877 -0.92654496 -0.3431305 0.15419412 0
0.006745284 -0.083053052 0.027655352 -0.82240772 -0.56425196 0.072562732 0
0.011146653 -0.082398631 0.027573818 0.99054104 -0.13706538 -0.0064429818 0
-0.052240875 -0.077825785 0.027540134 0.15955268 -0.74831653 -0.64386743 0
0.0041838107 -0.07716845 0.027362479 -0.93579084 -0.18618119 0.29938626 0
0.0050929883 -0.078271762 0.029629935 -0.93709975 -0.09896829 0.33473769 0
0.011466308 -0.07753887 0.027616182 0.99979323 0.017248843 -0.01077146 0
-0.052090362 -0.072618775 0.027523119 -0.19982024 0.92912483 -0.31112531 0
0.0033235641 -0.072415933 0.027522802 -0.86855721 -0.22188069 0.44314471 0
0.0050202417 -0.074539848 0.029896058 -0.83667082 -0.10930394 0.53668863 0
0.011002673 -0.072535828 0.027653048 0.98603886 0.16623697 -0.0096278479 0
-0.051409885 -0.067985952 0.027459037 -0.92509788 0.37948036 -0.013733937 0
-0.049314357 -0.066436052 0.02746457 0.88149077 -0.4720102 0.013429588 0
-0.00069643033 -0.065848649 0.026087506 -0.74298078 -0.55684245 0.37135699 0
0.0016929383 -0.067672744 0.028037317 -0.74460828 -0.40900683 0.52751493 0
0.0094163418 -0.066609085 0.027713887 0.93390846 0.35730928 -0.012038095 0
0.010215432 -0.06896013 0.027502717 0.96181315 0.2732504 -0.015803752 0
-0.050560966 -0.063947998 0.028019905 -0.89613068 0.44359735 -0.013082697 0
-0.04782657 -0.062639169 0.027421933 -0.30165556 -0.94664061 -0.11347008 0
-0.042425562 -0.061803028 0.027713746 0.34206527 -0.91651839 0.20732939 0
-0.038821992 -0.060525231 0.026920106 0.4352929 -0.85789734 0.27300608 0
-0.0058261007 -0.060606748 0.025805546 -0.56568378 -0.75886542 0.32268438 0
-0.0025671273 -0.062384054 0.027545607 -0.60994875 -0.60426354 0.51266772 0
0.00065862335 -0.063988969 0.029531231 -0.5904175 -0.39736995 0.70249861 0
0.0074133724 -0.062340427 0.027428634 0.87450713 0.48476207 -0.015587766 0
-0.046847768 -0.057966821 0.027455047 -0.79834163 0.60218531 -0.0048357779 0
-0.044691257 -0.055413712 0.028122317 -0.72643578 0.68718034 0.0086168004 0
-0.03683731 -0.059092946 0.027974699 0.42749697 -0.83045232 0.35720479 0
-0.032862198 -0.057393275 0.027306825 0.39210504 -0.85539263 0.33846304 0
-0.02812431 -0.055783626 0.026692145 0.29596123 -0.88225394 0.3661077 0
-0.02304736 -0.05511589 0.025612727 0.073217325 -0.94011807 0.33289224 0
-0.017455498 -0.055352166 0.025841629 -0.16761568 -0.93489289 0.31285834 0
-0.012070852 -0.0564119 0.027329151 -0.36334532 -0.85144442 0.37818322 0
-0.0077195154 -0.058291595 0.027907426 -0.46248743 -0.77518952 0.43033308 0
-0.0043991879 -0.059488688 0.029250577 -0.44185212 -0.65947014 0.60816592 0
0.0032590148 -0.056451496 0.027396042 0.74609923 0.66575038 -0.010598792 0
0.0053727995 -0.059004482 0.027601989 0.81710982 0.57631457 -0.013897847 0
-0.042284947 -0.053221889 0.027496219 -0.64289492 0.76591861 -0.0074022384 0
-0.038876012 -0.05066311 0.02750029 -0.54374397 0.83920979 -0.0083264494 0
-0.026750261 -0.054182425 0.028743329 0.28255153 -0.77318066 0.56776422 0
-0.022157628 -0.053679984 0.027925588 0.041166879 -0.80132669 0.59680891 0
-0.017933853 -0.053744853 0.028468318 -0.17693074 -0.76775396 0.61583227 0
-0.01413759 -0.054428704 0.029367527 -0.32218844 -0.74411035 0.58523023 0
-0.0024501262 -0.051406562 0.02752007 0.57329613 0.81933224 -0.0051322528 0
0.00097667426 -0.054104429 0.027276225 0.66908908 0.74315894 -0.0058745453 0
-0.036528736 -0.049311232 0.027491909 -0.45893642 0.88845545 -0.004921033 0
-0.032464407 -0.04753723 0.027777247 -0.3455233 0.93836868 -0.0088268137 0
-0.027199257 -0.046107635 0.027441343 -0.17124034 0.98518836 -0.0089708138 0
-0.022531513 -0.045579515 0.027769009 -0.044695701 0.99896181 -0.0088107204 0
-0.017647028 -0.045723043 0.027371915 0.10213264 0.99467766 -0.013610112 0
-0.012534248 -0.046687704 0.027562758 0.26845032 0.96327478 -0.0060057421 0
-0.007321476 -0.04860476 0.027586373 0.42027828 0.90735757 -0.0082757343 0
-0.004765301 -0.049883805 0.029184036 0.4965933 0.86765432 0.023899134 0
-0.026574194 -0.11026917 0.032525547 -0.1663391 -0.98599899 -0.011715992 0
-0.022690119 -0.11066906 0.032692119 -0.053306457 -0.9984628 -0.015183887 0
-0.017304612 -0.11056913 0.032579754 0.12018987 -0.99266392 -0.013140405 0
-0.014591859 -0.11015797 0.033197142 0.21955104 -0.97529948 -0.024254594 0
-0.037099674 -0.10605684 0.032847833 -0.51336342 -0.85815996 -0.0044195242 0
-0.032525856 -0.10759969 0.032511707 0.51413351 0.85734332 0.025083533 0
-0.027979413 -0.10857155 0.032502193 0.17814724 0.9838534 0.017208541 0
-0.022480033 -0.10885002 0.032188375 0.038804974 0.99878424 0.030402064 0
-0.017594771 -0.1086211 0.032687824 -0.10897045 0.99401987 0.0070696683 0
-0.012132015 -0.10842087 0.032293607 -0.10370602 0.99460799 -2.847442e-05 0
-0.0079008797 -0.10712482 0.03249938 0.33897832 -0.94071043 0.01255448 0
-0.0037447531 -0.10577079 0.032548811 0.53630853 -0.84382111 -0.018413946 0
-0.045247987 -0.10023403 0.032615125 -0.75075513 -0.66057414 -0.0029157987 0
-0.04225963 -0.10218128 0.032454703 -0.65494096 -0.75567991 0.00043443288 0
-0.038189691 -0.10403344 0.032394227 0.56180221 0.82717925 0.012357633 0
-0.0056812582 -0.10465413 0.031985186 -0.5323391 0.84637874 0.016066436 0
-0.002242557 -0.10305773 0.032489624 -0.7697621 0.63831967 0.0037713666 0
0.001630287 -0.10156583 0.032512661 0.68859243 -0.72508538 -0.0095715178 0
-0.04694796 -0.096975915 0.032396905 -0.85470206 -0.51910019 0.0043970775 0
-0.043788027 -0.098540157 0.032577012 0.7885505 0.61484307 0.012494612 0
-0.00019275844 -0.099771619 0.032805864 -0.70624232 0.70525986 0.061889485 0
0.0028548464 -0.097987905 0.032528277 -0.65833968 0.74868941 0.077801831 0
0.0060598664 -0.096298434 0.032413095 0.84148443 -0.54006678 -0.015226632 0
-0.050797213 -0.091786183 0.032408156 -0.91099763 -0.4123823 -0.0049223974 0
-0.048501618 -0.092766382 0.032572534 0.89417732 0.44747877 0.014483291 0
0.0047436631 -0.094659001 0.032328684 -0.84881097 0.5285297 0.013277263 0
0.0072135106 -0.092384666 0.032521553 0.904737 -0.42593011 0.0058642449 0
-0.05164976 -0.0872989 0.03237357 -0.95977831 -0.28027785 0.016425114 0
-0.04969978 -0.089106709 0.03274988 0.95431 0.29752433 0.027776103 0
0.0081451004 -0.088015236 0.032306824 -0.98943788 0.13970661 0.038662203 0
0.0103983 -0.086605959 0.032307569 0.96374959 -0.26491767 -0.03170599 0
-0.052402694 -0.082718924 0.032540552 -0.29831451 -0.9059999 0.30028737 0
0.0074542882 -0.082492679 0.032767832 -0.89264685 -0.18352096 0.41170582 0
0.011198314 -0.0824669 0.032213926 0.99118423 -0.13109316 -0.01919223 0
-0.052266948 -0.077495493 0.032420821 -0.82591522 -0.065545194 0.55997151 0
-0.049941875 -0.078159094 0.032478884 0.98922521 0.041324157 0.14044861 0
0.0069228276 -0.07753168 0.032876745 -0.82910591 -0.1063683 0.54888004 0
0.011525109 -0.077537917 0.032518923 0.99979061 0.012405866 -0.016273465 0
-0.0521896 -0.072467998 0.032460183 -0.38696325 0.53507531 0.75096869 0
0.0047528748 -0.070566788 0.030250112 -0.60059816 -0.27269199 0.75161225 0
0.0069531244 -0.072494857 0.032617901 -0.86986005 0.133137 0.47499251 0
0.011022539 -0.072352327 0.032184966 0.98545712 0.16926222 -0.014982177 0
-0.051580179 -0.067955665 0.032551993 -0.94535685 0.32211339 0.050433081 0
-0.049593054 -0.066601895 0.032483205 0.94218689 -0.33061579 0.05456261 0
0.0038771222 -0.06657853 0.030970475 -0.60647482 -0.25031269 0.7546733 0
0.0077352696 -0.067448623 0.0326472 -0.25080916 -0.20990378 0.94500542 0
0.010288605 -0.068992205 0.032411713 0.96448082 0.26351219 -0.018386878 0
-0.050581615 -0.063908994 0.032295693 -0.89675409 0.44245416 -0.0081495708 0
-0.047918126 -0.062414985 0.032280501 0.5026201 -0.75736684 0.41685548 0
-0.043500584 -0.061046969 0.031073952 0.43772683 -0.72436738 0.53262275 0
-0.0010596119 -0.060621534 0.030377746 -0.43345127 -0.46125364 0.77418673 0
0.0028516073 -0.062159222 0.031694323 -0.52314895 -0.33028561 0.78563768 0
0.0070585124 -0.062886171 0.032811094 0.84143114 0.51906359 0.15022191 0
-0.046563882 -0.057879582 0.03284749 -0.78244013 0.6226669 0.0085654343 0
-0.042674847 -0.0573259 0.033050861 0.19579017 -0.5184775 0.83237445 0
-0.037726697 -0.057031758 0.031969674 0.34296942 -0.71373963 0.61069441 0
-0.033274841 -0.055660278 0.030899633 0.38897985 -0.74742937 0.53855729 0
-0.010638488 -0.055297129 0.030343315 -0.3522509 -0.71839899 0.59985191 0
-0.0070614452 -0.056282643 0.031156052 -0.32717505 -0.69236273 0.64310992 0
-0.0023793972 -0.057276335 0.03201171 -0.25938189 -0.57913607 0.77286643 0
0.0027710123 -0.057414547 0.032932654 0.62989873 0.46944377 0.61874884 0
0.0053599225 -0.058890976 0.032997057 0.81529236 0.57895982 -0.010199505 0
-0.04221331 -0.053162776 0.032352097 -0.65262914 0.75766438 0.0044589513 0
-0.038389619 -0.051699374 0.032722682 -0.57447869 0.75631082 0.31299859 0
-0.032420088 -0.05313566 0.033093352 0.42971236 -0.60282737 0.67226964 0
-0.02754253 -0.051935975 0.031250775 0.35500234 -0.5203926 0.77663696 0
-0.023259185 -0.051063951 0.03049569 0.15409297 -0.48173416 0.86266303 0
-0.016951349 -0.051400486 0.030923801 -0.26900876 -0.52915418 0.80475467 0
-0.012230942 -0.052252319 0.032329317 -0.38788265 -0.55540353 0.73557729 0
-0.0077534374 -0.053563703 0.033487931 -0.2678712 -0.6461888 0.71462238 0
-0.0022546747 -0.052328568 0.032850575 0.615812 0.74916404 0.24398524 0
0.0010893678 -0.054126378 0.032347441 0.67431933 0.7382834 -0.015203286 0
-0.036442757 -0.049217045 0.032957818 -0.45130247 0.89225841 -0.014178356 0
-0.032543778 -0.047580965 0.032620568 -0.33966047 0.94051993 0.007274711 0
-0.027336078 -0.047335871 0.032974806 0.16786227 0.62092137 0.7656886 0
-0.02246372 -0.047055136 0.0323398 0.02235152 0.0073479437 0.9997232 0
-0.017628416 -0.046990123 0.032499898 -0.17960313 0.50639981 0.84338719 0
-0.012645377 -0.047422566 0.032930735 0.1521944 0.93647969 0.315979 0
-0.0076857335 -0.048392739 0.032436006 0.40669465 0.91354257 -0.0062861661 0
-0.0047313375 -0.049855653 0.031947635 0.51495177 0.85648018 -0.035583213 0
-0.026491283 -0.11034126 0.037742328 -0.15849985 -0.98727888 -0.012578895 0
-0.022744529 -0.11071791 0.037349358 -0.059106261 -0.99813777 -0.015079597 0
-0.017779777 -0.11067669 0.037321195 0.082952313 -0.99647832 -0.012243172 0
-0.014255724 -0.11015058 0.038098145 0.21537699 -0.97629833 -0.021315001 0
-0.037362557 -0.10613459 0.037588894 -0.50701255 -0.86187726 -0.010292651 0
-0.032627422 -0.10763976 0.037449349 0.45448315 0.89066374 -0.012779539 0
-0.027911248 -0.10869482 0.037816446 0.1862123 0.98250937 -0.00055571937 0
-0.022469604 -0.10895951 0.037602857 0.042063672 0.99911386 0.0015194804 0
-0.017753694 -0.10869337 0.037397072 -0.10974845 0.99395871 0.0011632215 0
-0.012328861 -0.10842258 0.03745085 -0.24916692 0.96730226 0.047350302 0
-0.0074651386 -0.10683394 0.037498716 0.27209365 -0.96223152 0.0086916676 0
-0.0036997541 -0.10584565 0.037431329 0.53340822 -0.84564239 -0.019090805 0
-0.045276932 -0.10027634 0.037813969 -0.7360158 -0.67633879 -0.029094964 0
-0.041901961 -0.10244661 0.037540995 -0.6099143 -0.79243761 -0.0068733487 0
-0.038498472 -0.10376922 0.037320398 0.56309491 0.82610655 0.021724688 0
-0.0054934891 -0.10471775 0.037689567 -0.48685783 0.87284577 0.033314098 0
-0.0020460079 -0.10304101 0.037311949 -0.64616215 0.75305891 0.12400308 0
0.0014852913 -0.10161025 0.037621457 0.68035722 -0.73276705 -0.012907476 0
-0.047007501 -0.097167678 0.037649509 -0.8001731 -0.59956586 0.015613437 0
-0.043998808 -0.098654963 0.037360378 0.73492771 0.67596811 0.054299116 0
0.002835708 -0.098095119 0.0374218 -0.72991848 0.67969149 0.072377183 0
0.0059175342 -0.096634708 0.0378308 0.82334876 -0.56736392 -0.01396221 0
-0.050845943 -0.091749333 0.037409279 -0.9064225 -0.42232928 -0.006018078 0
-0.048630819 -0.093008652 0.037303038 0.86891824 0.49326125 0.040920164 0
0.0049199853 -0.094522163 0.037145134 -0.85773617 0.51409006 4.0169056e-05 0
0.0072588506 -0.092375934 0.037620258 -0.71654153 0.45321184 0.53025198 0
-0.051592965 -0.08732827 0.037506245 -0.95260984 -0.2702617 0.13961779 0
-0.049826425 -0.089319624 0.037063994 0.95134896 0.30656385 0.030883761 0
0.0084958412 -0.087953575 0.03754729 -0.95437801 0.29588842 0.04015822 0
0.010558005 -0.086412236 0.037691373 0.96343321 -0.26749164 -0.015641222 0
-0.052621692 -0.08242844 0.037337873 -0.89867109 -0.2971822 0.32260352 0
0.0092545683 -0.082740314 0.037589338 -0.98898 0.12664452 0.076678619 0
0.011309212 -0.082623616 0.037768856 0.99058628 -0.13535093 -0.020469792 0
-0.05285009 -0.077620395 0.037436586 -0.52535552 0.2027009 0.82638603 0
0.0093898438 -0.077416815 0.037266079 -0.96643043 -0.095900148 0.2383596 0
0.011606921 -0.077496566 0.037451763 0.99977356 0.012963222 -0.016872361 0
-0.052408241 -0.072521962 0.037356667 0.82560462 -0.40477121 0.39311233 0
0.0087475153 -0.072317623 0.03740878 -0.95314288 -0.11678446 0.27906999 0
0.011126592 -0.072438106 0.037549343 0.98430729 0.17556296 -0.017799236 0
-0.051443435 -0.068009436 0.03755559 -0.91042733 0.40830252 0.066416144 0
-0.049636252 -0.066109553 0.037198018 0.9219715 -0.38672948 0.020220788 0
0.008318956 -0.067085132 0.037385926 -0.94510937 -0.32034323 0.0644091 0
0.010385844 -0.069056764 0.03769112 0.96527457 0.26072967 -0.016281465 0
-0.050549544 -0.0637227 0.03775388 -0.90027839 0.43514886 -0.01201345 0
-0.048225682 -0.062062394 0.037523407 0.85807699 -0.51274037 0.028304482 0
0.0044730273 -0.06092998 0.036499146 -0.8449164 -0.53475404 0.012420216 0
0.0070449258 -0.062920704 0.03743393 0.88724995 0.46086255 0.01983266 0
-0.046828996 -0.058353644 0.037716169 -0.79294074 0.60926819 -0.0061096386 0
-0.043386731 -0.056332756 0.037464384 0.71918571 -0.69324172 0.046774492 0
-0.00041764436 -0.055297602 0.037414756 -0.67500097 -0.73673147 0.040005066 0
0.0024323117 -0.057214156 0.03737399 -0.72683078 -0.68598658 0.033755772 0
0.0056082024 -0.059151903 0.037693489 0.81328124 0.58178365 -0.010072424 0
-0.041610852 -0.05318293 0.037613414 -0.6470657 0.76167703 0.033973124 0
-0.038013481 -0.051973931 0.037083518 0.27814925 -0.70014369 0.65759546 0
-0.033910185 -0.050721981 0.036663055 0.49277997 -0.74393737 0.45135927 0
-0.0072411331 -0.050971009 0.036743451 -0.44867235 -0.80373019 0.39078248 0
-0.0024044851 -0.052465923 0.03749295 -0.11163679 0.78108543 0.61436373 0
0.001253799 -0.054204643 0.037492353 0.68394309 0.72949713 -0.0074547851 0
-0.036530823 -0.049213193 0.037664752 -0.45629239 0.88975161 -0.01180307 0
-0.032302249 -0.048291352 0.037798453 -0.38849491 0.90890205 0.15155418 0
-0.027520726 -0.046998374 0.037428506 0.099573605 0.99114841 0.087806612 0
-0.022560136 -0.04650791 0.03737171 0.038583312 -0.99854833 0.037583482 0
-0.01759948 -0.046637241 0.037716825 -0.15991993 -0.98673439 0.027942296 0
-0.012372921 -0.047659989 0.037670631 -0.36468425 -0.8741954 0.32060534 0
-0.0078927251 -0.048635442 0.037694857 0.42532173 0.90503299 -0.0040751179 0
-0.0046043517 -0.049842365 0.037859727 0.47454125 0.87992674 -0.02322587 0
-0.026676405 -0.11037975 0.042310823 -0.16672954 -0.98586243 -0.016630981 0
-0.022358974 -0.11083326 0.041995589 -0.04300677 -0.99883634 -0.021825621 0
-0.017365439 -0.11071024 0.04256697 0.10860546 -0.99392772 -0.017679913 0
-0.014160996 -0.11019139 0.04233807 0.23547561 -0.97182477 -0.01038328 0
-0.036857881 -0.106248 0.042706627 -0.51724672 -0.8552888 -0.030607976 0
-0.032422703 -0.10786029 0.042803999 0.010156373 -0.99994051 0.0039633405 0
-0.027899658 -0.10868855 0.042576168 0.19734496 0.98008752 0.021983057 0
-0.022455519 -0.10899927 0.042525407 0.059508987 0.99811316 0.015125337 0
-0.017654972 -0.10878336 0.042429928 -0.11111036 0.99357587 0.021482566 0
-0.012186101 -0.10849315 0.042291291 -0.26080954 0.9638257 0.054939862 0
-0.0077790143 -0.10707279 0.042683825 0.28200457 -0.95910931 0.024139773 0
-0.0036320754 -0.1059195 0.042698454 0.513255 -0.85806161 -0.017309163 0
-0.045253929 -0.10041432 0.042216558 -0.70766556 -0.70651984 -0.0062517771 0
-0.04207829 -0.10225665 0.042562697 -0.54507816 -0.837605 0.036162335 0
-0.038409691 -0.10390684 0.04267437 0.55436283 0.83224398 0.0072047794 0
-0.0055288607 -0.10482899 0.042761791 -0.47031787 0.88200521 0.029459374 0
-0.0020811737 -0.10319019 0.042416938 -0.60691375 0.79460728 0.015965939 0
0.0016574449 -0.10112645 0.042563718 0.70760298 -0.70651525 -0.011582703 0
-0.047139116 -0.096918382 0.04256643 -0.8206799 -0.57138658 -0.0013369446 0
-0.044136606 -0.09875007 0.042232692 0.74848706 0.66244757 0.030500619 0
0.0031396982 -0.098155685 0.042571954 -0.7662257 0.64254737 0.0055684457 0
0.0060942089 -0.096466243 0.042334341 0.83475184 -0.55056918 -0.0079316692 0
-0.050948493 -0.091620319 0.042163972 -0.91083038 -0.41267768 -0.0092248395 0
-0.048685655 -0.092840098 0.042503051 0.88497984 0.46562743 -0.0013624016 0
0.004884176 -0.094881855 0.04178815 -0.84974873 0.52594966 0.036111854 0
0.0073060966 -0.092506155 0.042300396 0.98008043 0.1655713 0.10967486 0
-0.051822715 -0.087361209 0.042549036 -0.96251845 -0.27117977 -0.0044394978 0
-0.049864057 -0.089611486 0.04281503 0.93318123 0.35935783 0.0058933934 0
0.0086722402 -0.087859027 0.04246641 -0.96126962 0.27492148 0.019462954 0
0.010506029 -0.086800165 0.042686328 0.96130997 -0.27504084 -0.015353073 0
-0.052759651 -0.082369417 0.042442322 -0.99808729 0.005410234 0.061582912 0
0.0094556231 -0.082491159 0.042455014 -0.99014962 0.13574976 0.034288622 0
0.011388607 -0.082628101 0.042397358 0.98937654 -0.14426002 -0.017974535 0
-0.053011391 -0.077592872 0.042514294 0.89001274 -0.43014723 -0.15116428 0
0.0097491713 -0.077394992 0.042489652 -0.99945557 -0.025721608 0.020664187 0
0.011702426 -0.07761322 0.042720273 0.9995364 0.026510751 -0.01496985 0
-0.052575763 -0.072442658 0.042707436 -0.98328739 0.1767427 -0.043680515 0
0.0092305271 -0.072381787 0.042396821 -0.98455483 -0.17459735 0.012947181 0
0.011238712 -0.072803654 0.042583689 0.98965585 0.14265817 -0.015165007 0
-0.051536225 -0.067664087 0.042678632 -0.94063443 0.339414 0.0022430837 0
-0.049571417 -0.065841988 0.042078435 0.91455829 -0.40435299 0.0090391748 0
0.0085162614 -0.067063682 0.042666867 -0.95465326 -0.29724452 0.016818207 0
0.010354767 -0.068697341 0.042622309 0.95750868 0.28810182 -0.013210283 0
-0.050633479 -0.063794084 0.042617422 -0.90320617 0.42888385 -0.016651612 0
-0.048286069 -0.061845053 0.042306516 0.86041677 -0.50889343 0.026654286 0
0.0045282263 -0.060791086 0.042775638 -0.83099878 -0.5558247 0.022360712 0
0.0071622315 -0.063010789 0.042520016 0.89635527 0.44281325 0.021532994 0
-0.046538237 -0.058190539 0.042650107 -0.77682626 0.62967199 -0.0073590055 0
-0.043612942 -0.056450084 0.042335249 0.7333988 -0.67946762 0.021209605 0
-0.00021918373 -0.05527411 0.043060753 -0.69763374 -0.71376723 0.061995376 0
0.0026446001 -0.057249811 0.042517863 -0.74057287 -0.67159474 0.022636088 0
0.0056079132 -0.059050199 0.042249627 0.82527959 0.56464249 -0.0096157081 0
-0.041922469 -0.053524908 0.042668283 -0.68069512 0.73256612 0.0010266815 0
-0.037916936 -0.051473495 0.04243701 0.47774905 -0.87849087 -0.0031248631 0
-0.034567241 -0.05025959 0.042417284 0.44988865 -0.89306718 -0.0055896277 0
-0.0066091944 -0.050776843 0.042468205 -0.46690059 -0.88414985 0.016818121 0
-0.0023300941 -0.052220833 0.042883921 0.53305745 0.84607905 -0.00019444642 0
0.00095268409 -0.053822793 0.042406496 0.67530376 0.73733366 -0.017433681 0
-0.036560956 -0.049163278 0.042540342 -0.4596329 0.88801175 -0.013144104 0
-0.032335036 -0.048174247 0.042716153 -0.28791809 0.95764619 0.0041144406 0
-0.027582927 -0.047020905 0.042578913 0.20077212 -0.97872573 -0.042268381 0
-0.022207249 -0.046220656 0.042420685 0.03482791 0.99918061 -0.020619519 0
-0.017751839 -0.046366371 0.042619873 0.036652446 0.99796492 0.052178819 0
-0.012533067 -0.047432933 0.042573381 -0.060736198 0.98862839 -0.13756865 0
-0.007996181 -0.048670031 0.042510018 0.42309633 0.90607107 0.0049654278 0
-0.0046087992 -0.049772087 0.042050611 0.48143101 0.87646639 -0.0055524856 0
-0.027054872 -0.11039083 0.047518965 -0.19087732 -0.98148906 -0.015653616 0
-0.022544146 -0.11089332 0.047309414 -0.046402439 -0.99886817 -0.010449626 0
