# .PCD v0.7 - Point Cloud Data file format
VERSION 0.7
FIELDS x y z
SIZE 4 4 4
TYPE F F F
COUNT 1 1 1
WIDTH 355
HEIGHT 1
VIEWPOINT 0 0 0 1 0 0 0
POINTS 355
DATA ascii
0.0018772723 -0.020106671 -6.2148538e-05
0.0071138535 -0.019181449 -9.4556897e-05
0.014752372 -0.017417496 -0.00013057268
0.020314977 -0.01535672 -1.2439375e-05
-0.028487591 -0.001535277 -0.00015429486
0.032745525 -0.0027502964 -0.00017117662
-0.030838832 0.0064242878 -4.0448085e-05
-0.029503409 0.0013059048 -0.00015069482
0.035493217 0.0051261373 -0.00017581432
0.037123669 0.012683417 -0.00015734858
-0.011921784 0.046062853 -3.1182688e-05
0.0066489275 0.048173856 -0.00010051289
0.014830611 0.045988902 -0.00011385024
0.021473525 0.04297689 -7.6546719e-05
-0.012249891 -0.021086447 0.0082667954
-0.0042925193 -0.022042913 0.0068857213
0.0047833156 -0.022078235 0.0061024702
0.014034942 -0.021823181 0.0072968472
0.021001253 -0.020495808 0.0083232066
-0.022754293 -0.0124931 0.0070811883
-0.014911599 -0.015054638 0.0056588114
-0.0050998605 -0.016222719 0.005449519
0.0049115745 -0.015709024 0.005820428
0.015228702 -0.015705129 0.0051581855
0.02452725 -0.014084328 0.0055640987
0.031521402 -0.011762054 0.0080460869
-0.031148039 -0.0025496543 0.0083301784
-0.02528053 -0.004885321 0.0054209698
-0.015125748 -0.0050638784 0.0066145058
-0.0049764286 -0.0050188703 0.006527144
0.004915705 -0.0050310129 0.0066569573
0.015164327 -0.0050678221 0.0066819754
0.025664633 -0.0054979613 0.0057891076
0.03399229 -0.0044317297 0.0057065729
-0.032046963 0.0057985303 0.0058616363
-0.025803471 0.0047687464 0.0058985567
-0.015091862 0.0051403581 0.0064752949
-0.0049622138 0.0050595952 0.0061969655
0.0050341655 0.0049772561 0.0062315757
0.01499798 0.0050540511 0.0063915309
0.024968704 0.0049384986 0.0065003
0.035527695 0.0050548473 0.0051232222
0.040955093 0.006179898 0.0079897018
-0.032712124 0.014993221 0.0056035137
-0.025377102 0.015042162 0.0063308808
-0.014983606 0.014901455 0.0064084926
-0.0051357802 0.015054946 0.0062328186
0.0050356234 0.015004462 0.0061939256
0.014989822 0.014956109 0.0063530859
0.025045076 0.014907097 0.0065813451
0.035848156 0.015099211 0.0051468466
0.041072216 0.014665125 0.0080181621
-0.03202951 0.024222514 0.0069612437
-0.025947513 0.025338979 0.0055356896
-0.015002616 0.024915311 0.0064828014
-0.004976246 0.024897162 0.0063117724
0.0049984795 0.024949161 0.0064437231
0.014998228 0.02492357 0.0065078335
0.024961831 0.02505292 0.0066396296
0.0354601 0.025088413 0.0054535517
0.040659934 0.022793042 0.0082395114
-0.031055123 0.03181399 0.008337887
-0.02453096 0.034832627 0.0055769398
-0.015264879 0.035315063 0.0063064783
-0.0049790242 0.03497592 0.0065753572
0.0049795802 0.034977127 0.0066326596
0.015110203 0.034942232 0.0066398713
0.025541143 0.035598241 0.0055321613
0.033268571 0.033936314 0.0059730187
-0.022195062 0.041862883 0.007706108
-0.014733934 0.044436034 0.0053461208
-0.0050440636 0.045810092 0.0052323258
0.0049287383 0.046150547 0.0052674711
0.015040629 0.04544121 0.0053656776
0.024098905 0.04333283 0.0059271236
0.030965945 0.040948145 0.0083717695
-0.010851461 0.05039122 0.0081965579
-0.004657778 0.051388364 0.007672322
0.005214069 0.051854786 0.0078478036
0.013403783 0.051022239 0.0081736343
-0.012896302 -0.021292627 0.015096168
-0.0050707282 -0.022951949 0.014963521
0.0049077915 -0.023804098 0.01496972
0.014728796 -0.022237794 0.015068816
0.021343105 -0.020638658 0.015314044
-0.023376891 -0.013289998 0.015002981
-0.016189082 -0.017871767 0.014969751
-0.0097728074 -0.019915534 0.014234002
0.019221002 -0.019746037 0.014150106
0.025602443 -0.016809793 0.014946358
0.031774834 -0.012012557 0.014976914
-0.03140546 -0.0027636534 0.015211263
-0.028012341 -0.0069065476 0.015105873
0.036254097 -0.0051642815 0.015017026
0.040036686 -4.2876465e-05 0.01933834
-0.033544742 0.0049812398 0.014968309
0.039247315 0.0039847423 0.015206387
0.041160103 0.0057059866 0.014980623
-0.03454373 0.014931805 0.014941724
0.041378621 0.015051928 0.015049068
-0.033031717 0.025089554 0.014970248
0.038929734 0.026415246 0.01507185
0.040996615 0.02330835 0.015094729
-0.031212861 0.032161027 0.015209335
-0.027309125 0.036128391 0.015025208
0.035073157 0.035092562 0.014984494
-0.022626532 0.042492591 0.014932562
-0.01561959 0.046842311 0.014919785
-0.0080426652 0.049435232 0.01489063
0.017006394 0.048894256 0.014920905
0.02527233 0.045194656 0.015000197
0.031128332 0.041257143 0.014973994
-0.011202076 0.050494965 0.01548177
-0.0042492328 0.051695812 0.015001927
0.0049796053 0.052242249 0.015009175
0.013744147 0.051215459 0.015111501
-0.012747315 -0.021301357 0.025095768
-0.0050124391 -0.023241565 0.02498675
0.0049768495 -0.024031278 0.025063092
0.014926664 -0.022483649 0.025069956
0.021658691 -0.020774486 0.025165366
-0.023397665 -0.01318354 0.024959275
-0.016764393 -0.017742626 0.024915706
0.019723756 -0.019822706 0.02388504
0.025813922 -0.016740542 0.024912857
0.031915002 -0.012062738 0.02505523
-0.031471178 -0.0028131735 0.024961963
-0.027570894 -0.0071484782 0.024915881
0.036423523 -0.0051456154 0.025042105
0.040072195 -0.00024719691 0.02574466
-0.033690438 0.0049857078 0.024939977
0.039306134 0.0036625112 0.024885764
0.041282661 0.0055772318 0.025217544
-0.034662962 0.015021028 0.025065212
0.04160234 0.014986074 0.025018888
-0.03317124 0.025061855 0.024870932
0.039033275 0.026430298 0.024795799
0.041135408 0.023560422 0.025135064
-0.031328801 0.032531243 0.025046192
-0.027433358 0.036014006 0.02496401
0.035201859 0.035169374 0.025045356
-0.02273364 0.042484879 0.025065685
-0.015687808 0.046987843 0.024956105
-0.00849922 0.04946747 0.024857618
0.016952952 0.04899691 0.024918932
0.025170377 0.045329828 0.025031004
0.031390626 0.041311234 0.024756489
-0.011436286 0.050538369 0.025263494
-0.0043895324 0.051805522 0.025068574
0.004981067 0.052187573 0.025044387
0.014042286 0.051290046 0.025175208
-0.01266283 -0.02139288 0.035205435
-0.00516144 -0.023389483 0.035105348
0.0050400794 -0.024373192 0.034937367
0.015033567 -0.022658214 0.035034716
0.021796212 -0.020963693 0.035110615
-0.023496004 -0.013394471 0.035078697
-0.016930753 -0.018028695 0.034883864
0.019895425 -0.019955756 0.032322165
0.025801083 -0.017027786 0.034929916
0.032007918 -0.012145929 0.035083029
-0.031472143 -0.0029396038 0.034875676
-0.02806814 -0.0072804494 0.035004191
0.03661336 -0.0053398749 0.034985244
0.040163655 -0.00039897874 0.035050321
-0.033876698 0.0049192645 0.034926388
0.039313413 0.002754529 0.034728993
0.04134598 0.0057542906 0.03508557
-0.034897447 0.015023871 0.034935452
0.041794281 0.015030616 0.034836635
-0.033430755 0.024986442 0.03505389
0.039002489 0.026693882 0.03475143
0.04116476 0.023720795 0.0349955
-0.03125219 0.032407697 0.0350408
-0.027448723 0.036376014 0.034896329
0.035329737 0.035199076 0.034916252
-0.022873905 0.042562179 0.034950744
-0.015739789 0.047132913 0.03490774
-0.0086155301 0.049608231 0.034964841
0.016947601 0.049025364 0.034945823
0.025151363 0.04554186 0.034991626
0.031366102 0.041437659 0.035171967
-0.011648267 0.050651107 0.035184991
-0.0044025932 0.051936802 0.03505284
0.005134338 0.052380737 0.035028502
0.014127038 0.051451765 0.035057377
-0.012875229 -0.021407116 0.045094501
-0.0049328166 -0.023642391 0.044882502
0.0049247774 -0.024595238 0.044926111
0.015090588 -0.022806581 0.044939149
0.021757392 -0.021010149 0.044952538
-0.023532098 -0.013544558 0.045089625
-0.017180353 -0.018131444 0.044892449
0.025934543 -0.017227458 0.044969399
0.032143354 -0.012341169 0.045015544
-0.031538691 -0.0029203801 0.045078576
-0.028210841 -0.0073603285 0.044981569
0.036753479 -0.0053948062 0.045078188
0.040252175 -0.00059012516 0.045487829
-0.033953089 0.0049707252 0.044943765
0.039332647 0.0025310379 0.044923652
0.041500185 0.0058637471 0.045060493
-0.035036452 0.014973116 0.045046855
0.042065829 0.015013747 0.0449926
-0.033524163 0.025029518 0.044945825
0.039012276 0.026874434 0.044878088
0.041150179 0.023976155 0.045102656
-0.031325642 0.032412264 0.045046732
-0.027583908 0.03643943 0.044945545
0.035540283 0.035150036 0.045012318
-0.022805771 0.042760648 0.045033108
-0.01589958 0.047201823 0.045016877
-0.0089556891 0.049651522 0.04455239
0.017357221 0.049030595 0.044968221
0.025264312 0.04563757 0.045001782
0.031528018 0.041510366 0.045275513
-0.011699802 0.050803047 0.04496057
-0.004548246 0.051899504 0.045008123
0.0049989899 0.05256578 0.044911955
0.014290274 0.05150174 0.045155883
0.020122124 0.05006006 0.047224302
-0.013026834 -0.021459818 0.055060826
-0.005146089 -0.023759363 0.05497523
0.0050033224 -0.024755903 0.055001039
0.01516105 -0.022935765 0.05498644
0.022004263 -0.021060254 0.055111036
-0.023673378 -0.013686295 0.054987639
-0.01732781 -0.018208276 0.055032995
0.026138971 -0.017263912 0.054928973
0.032292634 -0.012457303 0.054962859
-0.031631943 -0.0030334622 0.054968722
-0.028254259 -0.0073736361 0.054879807
0.036955129 -0.0053814519 0.054954741
0.040292591 -0.00075002474 0.05491773
-0.034050353 0.0049789958 0.054908704
0.039397433 0.0020741201 0.054668967
0.041628387 0.0057548885 0.055003077
-0.035162199 0.015061151 0.054918889
0.042218782 0.014996646 0.055062119
-0.033639446 0.025013054 0.055006146
0.038890034 0.027168773 0.054916363
0.041250911 0.024096848 0.055141009
-0.031413499 0.032349065 0.055001721
-0.027673386 0.03655969 0.054944355
0.035669003 0.035243947 0.054920014
0.040014174 0.030042076 0.05901663
-0.02293347 0.042850684 0.055010825
-0.01583058 0.047370404 0.055022236
-0.0091854548 0.049702253 0.054258533
0.017527463 0.049108572 0.05496677
0.025300641 0.045835476 0.054915123
0.031552359 0.04154576 0.055044442
-0.012088917 0.050862443 0.055043057
-0.0047114878 0.052060798 0.055050284
0.0049376236 0.052754398 0.055000205
0.014288552 0.051588859 0.054989763
0.020315902 0.050161876 0.055562969
0.0049732411 -0.030385528 0.069853269
-0.022503752 -0.020672623 0.069935642
-0.013016556 -0.021615069 0.064937197
-0.0050221267 -0.023905424 0.065074056
0.0049160146 -0.024922971 0.065025412
0.015005695 -0.023611315 0.065385863
0.022936745 -0.021973761 0.066618957
0.030426506 -0.020411048 0.069812566
-0.031649679 -0.012852445 0.069600515
-0.024145722 -0.013937569 0.065354779
-0.017120998 -0.018326297 0.065111302
0.026228087 -0.017478228 0.064882807
0.032955118 -0.013177731 0.065981112
0.040406123 -0.010704066 0.069820255
-0.032422412 -0.0035553072 0.065894231
-0.028276792 -0.0075133536 0.064862341
0.037049785 -0.0055146064 0.064976878
0.042046566 -0.0034855553 0.068323344
-0.040355507 0.0077979714 0.06967508
-0.0345276 0.0048692292 0.065276667
0.039510045 0.0016098579 0.064702779
0.042360671 0.0055282689 0.065828182
-0.040504932 0.015058362 0.069543689
-0.035548117 0.014979632 0.065201364
0.042952508 0.014833788 0.065573879
-0.040457573 0.022372521 0.069648221
-0.034137055 0.025106359 0.065348141
0.039005071 0.027325494 0.06491451
0.042000417 0.024411423 0.065721169
-0.032250986 0.03324296 0.066169679
-0.027779756 0.036614567 0.065067202
0.035943344 0.035335775 0.065050364
0.042029712 0.033898294 0.069251977
-0.031189442 0.041181173 0.069622383
-0.023564259 0.043345813 0.065742411
-0.015893675 0.047473609 0.065030612
-0.0093693957 0.049814098 0.065092325
0.017833713 0.049103823 0.064925313
0.025394578 0.046097584 0.0650644
0.032910045 0.042659268 0.066658676
0.040266804 0.040520184 0.06966424
-0.021080058 0.050628286 0.069585957
-0.013298073 0.052004986 0.066713206
-0.0047007902 0.052838363 0.065563768
0.0050567458 0.053208686 0.065299839
0.014260547 0.052266296 0.065494359
0.022614026 0.052048519 0.068151623
-0.002763083 -0.03074244 0.07083562
0.0049736248 -0.030830629 0.071634889
0.011323185 -0.0303338 0.07190486
-0.022646941 -0.02228274 0.071762666
-0.014473796 -0.023879852 0.072005041
-0.0051366836 -0.026048126 0.071870737
0.0048247799 -0.026568538 0.072132669
0.015234659 -0.025333811 0.072139367
0.024137324 -0.023193384 0.072165117
0.031388901 -0.021007575 0.071430527
-0.03170687 -0.012191016 0.071766853
-0.025427224 -0.015185945 0.072023205
-0.01724083 -0.018605532 0.072060429
0.026635842 -0.017867757 0.071877465
0.034313586 -0.014197795 0.072196811
0.040788282 -0.011182999 0.071617305
-0.040141743 -0.0005312693 0.07173349
-0.034070872 -0.0044857953 0.072097592
-0.028539287 -0.0078224353 0.071871698
0.037424717 -0.0063042464 0.072039679
0.042834662 -0.0039974642 0.072456546
-0.040631082 0.0056496472 0.072029859
-0.036179878 0.0046464056 0.072096497
0.039582964 0.0012986346 0.071546979
0.044275589 0.0051710745 0.072176091
-0.041005243 0.014863038 0.071968488
-0.036842544 0.015087956 0.072049797
0.04486594 0.014959481 0.072113663
-0.04065074 0.022826638 0.071672522
-0.035934668 0.025213758 0.072014637
0.03912998 0.028235907 0.071440227
0.043667629 0.024789764 0.071965925
-0.033641044 0.034285069 0.072050184
-0.02814972 0.037039366 0.071734555
0.036935631 0.035754774 0.072074816
0.042209473 0.033769764 0.072064526
-0.031435098 0.041740417 0.071936145
-0.024784984 0.044680327 0.072169557
-0.016359963 0.047880661 0.072046928
-0.0096686762 0.049869407 0.071238212
0.018278381 0.049249779 0.071638249
0.026201339 0.046883117 0.072199382
0.033833839 0.044081543 0.072271243
0.040302951 0.040634483 0.070827201
-0.021567829 0.051140595 0.071813986
-0.014307806 0.052982591 0.072215483
-0.0049173431 0.054815967 0.072169386
0.0051498907 0.055916 0.072176456
0.014846919 0.054584015 0.072227597
0.024004053 0.052468006 0.072291575
0.030385941 0.05016404 0.072419249
