# .PCD v0.7 - Point Cloud Data file format
VERSION 0.7
FIELDS x y z normal_x normal_y normal_z curvature
SIZE 4 4 4 4 4 4 4
TYPE F F F F F F F
COUNT 1 1 1 1 1 1 1
WIDTH 639
HEIGHT 1
VIEWPOINT 0 0 0 1 0 0 0
POINTS 639
DATA ascii
-0.066536576 -0.012694176 0.042090788 -0.90545678 -0.42435074 -0.0086295027 0
0.018335516 -0.01237868 0.042761534 -0.99609786 -0.08794231 0.0074288622 0
0.020218015 -0.012886534 0.042630319 0.99613053 0.086469121 -0.01571995 0
-0.066412047 -0.0080013946 0.042267453 -0.97517449 0.22121839 -0.0098529607 0
-0.064507261 -0.0067846435 0.042314153 0.97030997 -0.24165711 0.01001891 0
0.018435841 -0.00739579 0.042635459 0.9710865 0.23722658 -0.026733372 0
-0.065560184 -0.0034412704 0.042451959 -0.95058537 0.31023723 -0.011846227 0
-0.063352488 -0.0022132085 0.042506255 0.94051129 -0.33959395 0.010700445 0
0.016839547 -0.0027648744 0.042365495 -0.9404341 -0.33993167 -0.0054847482 0
-0.062211417 0.0023755198 0.042654891 -0.9387387 0.34372163 -0.025001802 0
-0.059758086 0.0047866604 0.042407677 0.85314071 -0.52164191 0.0063691596 0
0.013743438 0.0028119276 0.042388581 -0.88715935 -0.46131742 0.011601227 0
0.015908722 0.0024425404 0.042497452 0.90105534 0.43334517 -0.017643705 0
-0.061034303 0.0063944943 0.042314868 -0.85657346 0.51588333 -0.012091486 0
-0.058139384 0.0083920015 0.04256976 0.804636 -0.59372222 -0.0073975693 0
0.009573698 0.008980657 0.042267039 -0.78466356 -0.61992174 -0.00044644476 0
0.012233031 0.0072215437 0.04259548 0.83003938 0.55357814 -0.06771978 0
-0.056527544 0.011367297 0.042166498 -0.74237448 0.66985238 -0.013337832 0
-0.053383209 0.013582643 0.042593289 0.68919653 -0.72457451 9.234051e-05 0
0.0047028819 0.014335821 0.042342301 -0.65532744 -0.75534362 0.0013919831 0
0.0076031731 0.012648175 0.042426527 -0.81789124 -0.573313 -0.048643056 0
0.010791522 0.01062255 0.042976465 0.79119229 0.61128634 -0.018541358 0
-0.051969144 0.016461756 0.042948015 -0.65411687 0.75628144 -0.013022449 0
-0.047788408 0.018288357 0.04229518 0.55866277 -0.8293761 0.0055801128 0
-0.044619918 0.019701416 0.041993186 0.49575102 -0.86834675 0.014308823 0
-0.0015865481 0.019034062 0.042478215 -0.53117871 -0.84724069 0.0056911572 0
0.0024744419 0.017377749 0.042458531 -0.29151365 -0.63794464 -0.71277368 0
0.0061030942 0.01563254 0.042413447 0.66603357 0.74564815 -0.02020745 0
-0.046450593 0.020907098 0.042821802 -0.51428795 0.8575334 -0.012011585 0
-0.042407893 0.021998791 0.042436086 -0.280119 0.95802134 -0.061061282 0
-0.037831932 0.023448786 0.042790573 0.32220215 -0.94661021 0.010721696 0
-0.032562863 0.024344347 0.042480987 0.21732827 -0.97600943 0.013189303 0
-0.029509233 0.024929302 0.042912189 0.15050735 -0.98859578 0.0050915331 0
-0.016571362 0.024714803 0.042214762 -0.16924743 -0.98533231 0.0218061 0
-0.012714141 0.02386409 0.042773921 -0.25905487 -0.96571803 0.01670967 0
-0.0074051432 0.022994969 0.042593196 -0.47998679 -0.87725604 -0.0058714547 0
-0.002891877 0.021475434 0.04258221 0.49507242 0.8686223 -0.019961588 0
0.00019552697 0.020253304 0.042702012 0.55188131 0.83353937 -0.025279779 0
-0.036295827 0.025393633 0.042554136 -0.29380089 0.95558965 -0.023009805 0
-0.032311875 0.026401302 0.042518966 -0.20091505 0.97948086 -0.015821252 0
-0.027144162 0.026245303 0.042503849 -0.108256 0.99412286 -0.00062504574 0
-0.022517355 0.026272407 0.042497408 -0.7080586 -0.70577598 -0.023094198 0
-0.018041335 0.026231674 0.042527117 0.19386755 0.98081201 -0.020570843 0
-0.012868796 0.025925968 0.042472914 0.25056288 0.96794051 -0.017592188 0
-0.0097913574 0.025043832 0.042543143 0.3099947 0.95066524 -0.011790445 0
-0.031528153 -0.06027383 0.047596268 -0.16966131 -0.98542368 -0.012460395 0
-0.027690668 -0.060796652 0.047864608 -0.092245191 -0.99558711 -0.017241107 0
-0.022553574 -0.060909651 0.046875712 0.031836532 -0.99937767 -0.01519217 0
-0.017470494 -0.060468826 0.04748233 0.1458324 -0.98925006 -0.010831029 0
-0.014849406 -0.060021508 0.048249021 0.23039988 -0.97289544 -0.019758655 0
-0.045509193 -0.055265028 0.047241095 -0.49807584 -0.86695981 -0.017355351 0
-0.042410947 -0.056330413 0.047711406 -0.45212397 -0.89181447 -0.015837993 0
-0.037783995 -0.057774544 0.04740889 -0.26188454 -0.96495873 -0.016464807 0
-0.032606129 -0.058686748 0.047722522 0.17832662 0.98387802 0.013551201 0
-0.027537396 -0.058941063 0.047560282 0.090986013 0.99581385 0.0087449225 0
-0.022612447 -0.059065375 0.047392793 -0.034202375 0.99930924 0.014534876 0
-0.017412882 -0.058550563 0.047481965 -0.16247194 0.98661709 0.013766202 0
-0.012106541 -0.058113497 0.04733384 -0.32500702 0.94557828 0.015877785 0
-0.0076865321 -0.056742258 0.047549851 -0.43504426 0.89978409 -0.033542972 0
-0.0035333564 -0.055932194 0.047412697 0.4555105 -0.89012438 -0.013746014 0
-0.051636498 -0.051064309 0.047256041 -0.62145501 -0.7832582 -0.017326606 0
-0.047747191 -0.052689962 0.047412299 0.58754945 0.80902892 0.016060453 0
-0.043659162 -0.054160271 0.047229674 0.4722997 0.88136262 0.011525758 0
-0.0055673877 -0.054866545 0.04715509 -0.44958973 0.89313722 0.013230977 0
-0.0020761839 -0.053613063 0.047464155 -0.49672797 0.86772949 0.017515244 0
0.0018580857 -0.051762745 0.047308743 0.56846696 -0.82219911 -0.028879777 0
0.0051045786 -0.050157446 0.048994064 0.67191672 -0.74049169 -0.014141058 0
-0.05616359 -0.046539295 0.047698155 -0.74615163 -0.66563952 -0.013484479 0
-0.053050254 -0.047915384 0.047350824 0.69096303 0.722718 0.01577202 0
0.0036218532 -0.048800763 0.047453944 -0.64927638 0.76047027 0.011186231 0
0.0072304127 -0.047139179 0.047922533 0.72512656 -0.68853837 -0.010320069 0
0.010028808 -0.045040153 0.046296626 0.77937299 -0.62640738 -0.013841548 0
-0.060757853 -0.040810019 0.047372155 -0.8413685 -0.54023683 -0.01559525 0
-0.057963803 -0.042663343 0.047329646 0.82160234 0.5698511 0.015470902 0
0.0087261619 -0.04361992 0.047505677 -0.7708658 0.63681304 0.015334209 0
0.011885341 -0.042128004 0.047546148 0.81353986 -0.5813908 -0.01173089 0
-0.061837871 -0.03739981 0.047670424 -0.86227196 -0.5063765 -0.0083560757 0
-0.059640035 -0.039097369 0.047300592 0.85723013 0.51492941 0.0020535064 0
0.013241106 -0.037841372 0.047752187 -0.87457901 0.48463032 0.015649831 0
0.015571238 -0.0366638 0.047778107 0.89417106 -0.4475615 -0.012118181 0
-0.065387569 -0.031205883 0.047120031 -0.94498712 -0.32683694 -0.013304204 0
-0.063437954 -0.032813244 0.047678869 0.93707424 0.34863469 0.018592933 0
0.014586752 -0.034328975 0.047752831 -0.90463215 0.42589471 0.015946763 0
0.016876573 -0.031985596 0.04717515 0.92934191 -0.36903039 -0.011836472 0
-0.066301949 -0.027372014 0.047494829 -0.9687919 -0.24740085 -0.015335187 0
-0.064416692 -0.027773023 0.047522638 0.96818435 0.24987739 0.013431561 0
0.017887978 -0.027671665 0.047667097 -0.93797123 0.34424183 0.0413213 0
-0.066448428 -0.022606451 0.04765486 -0.9999404 -0.010425872 0.0032350956 0
0.018823208 -0.022823397 0.047807027 -0.99352467 0.11301676 0.011663458 0
0.020102214 -0.021409933 0.047969881 0.99399537 -0.10848434 -0.014291955 0
-0.066748135 -0.017367205 0.047515783 -0.12299591 0.98094141 -0.15041937 0
0.018462278 -0.017682498 0.047457453 -0.99988091 0.0149432 -0.0038428449 0
0.020357883 -0.017320283 0.047286827 0.999515 -0.028767364 -0.011919082 0
-0.066591382 -0.012538017 0.047246773 -0.98977917 -0.1398004 0.028161271 0
0.01832437 -0.012067086 0.047465723 -0.99532551 -0.096140593 0.0091749784 0
0.020297734 -0.013113503 0.04738076 0.99722362 0.074069776 -0.0076654674 0
-0.066344149 -0.0077903131 0.047664575 -0.96961486 0.24436685 -0.011481048 0
-0.064550199 -0.0067157052 0.047625136 0.96762383 -0.25202966 0.013608036 0
0.018323783 -0.0074563874 0.047589071 -0.96386033 -0.26522025 0.025129868 0
-0.065549247 -0.0031729469 0.047721282 -0.94967854 0.31294808 -0.013195615 0
-0.063586012 -0.0023074511 0.047585327 0.95059788 -0.31013626 0.01338103 0
0.016861945 -0.0024308066 0.047376595 -0.93598914 -0.35163397 0.016665922 0
-0.062271152 0.0025725907 0.047752444 -0.94113261 0.33800802 -0.004466264 0
-0.05981034 0.0047707194 0.046779647 0.86278844 -0.50552297 0.0065379087 0
0.013838338 0.0026018103 0.047292378 -0.88437426 -0.46642748 0.018097606 0
0.016149661 0.0020537437 0.047533389 0.90412635 0.42704102 -0.013841731 0
-0.060986008 0.0066134771 0.047618669 -0.85168713 0.52383238 -0.015122013 0
-0.058300372 0.0076920786 0.047419731 0.8251695 -0.56476802 0.011508825 0
0.009445983 0.009194837 0.047172762 -0.78264344 -0.62224519 0.016738046 0
0.012350067 0.0071677309 0.047679942 0.84691799 0.53167069 0.007493699 0
-0.056652427 0.011865638 0.047593508 -0.76121444 0.64827001 -0.017279057 0
-0.052995574 0.013872407 0.047289521 0.67541593 -0.73738503 0.0087558385 0
0.004513077 0.014508564 0.047667839 -0.67147613 -0.74101263 -0.0044839368 0
0.0077558374 0.012572523 0.047466073 -0.73834395 -0.67440695 0.0048496178 0
0.010644702 0.010951526 0.04752383 0.79396868 0.60771453 -0.017227983 0
-0.051770575 0.016615754 0.047410212 -0.63974679 0.76839733 -0.017014815 0
-0.048186783 0.018050618 0.047604397 0.58272815 -0.8121742 0.028301936 0
-0.04461623 0.019765561 0.046497654 0.4814589 -0.87635255 0.014264365 0
-0.0011625816 0.018809978 0.047807869 -0.54133993 -0.84074217 0.01018235 0
0.0024023731 0.017381031 0.047435705 -0.59271199 -0.80488938 -0.029078579 0
0.0060155028 0.015822249 0.047280457 0.66043752 0.75068223 -0.017275976 0
-0.046583559 0.020877149 0.047300272 -0.53194916 0.8467043 -0.011038961 0
-0.042638239 0.022093046 0.047485534 -0.40866128 0.91260338 -0.012289362 0
-0.037975069 0.023448523 0.047631752 0.31917238 -0.94751495 0.018558776 0
-0.03289612 0.024351966 0.047397275 0.22610654 -0.97387791 0.02091914 0
-0.029488496 0.024985548 0.046657339 0.15745774 -0.98729122 0.021520706 0
-0.016215159 0.024725461 0.046913221 -0.18930082 -0.98170245 0.020626873 0
-0.012140565 0.023774136 0.047464073 -0.27184764 -0.96225029 0.013165885 0
-0.0071028066 0.02292569 0.047570098 -0.45850557 -0.88865554 -0.0080056172 0
-0.0028165663 0.021534171 0.04736384 0.49448436 0.86888069 -0.023054799 0
0.00023550261 0.020355847 0.04805658 0.55018914 0.83489543 -0.015538985 0
-0.036522713 0.025411893 0.047390126 -0.30051273 0.95366299 -0.014798062 0
-0.032453991 0.026446588 0.047576711 -0.20271052 0.979141 -0.013833459 0
-0.027573496 0.026310222 0.04749433 -0.13144852 0.99088311 -0.029528027 0
-0.022635873 0.026415754 0.047523014 -0.23489569 0.97129995 -0.037423011 0
-0.018319679 0.026218668 0.047901094 0.16995743 0.98544121 -0.00447952 0
-0.012421609 0.025896827 0.047523078 0.26385364 0.96443665 -0.015595564 0
-0.0095381998 0.025052506 0.047979806 0.3102631 0.95033747 -0.024403572 0
-0.03199267 -0.060248617 0.052166875 -0.18315221 -0.98297632 -0.014584222 0
-0.02754583 -0.060884807 0.052491624 -0.089991756 -0.99585354 -0.013309057 0
-0.022383159 -0.060983736 0.052415859 0.039808884 -0.99911821 -0.013343465 0
-0.017562686 -0.060537145 0.05230628 0.1462639 -0.98916465 -0.012653636 0
-0.014704157 -0.060068224 0.052762758 0.21961179 -0.97544521 -0.016652783 0
-0.04567115 -0.055260822 0.052281488 -0.50692755 -0.86173427 -0.020942423 0
-0.042126823 -0.056276947 0.052817665 -0.46405998 -0.88558698 -0.01959539 0
-0.037823074 -0.057974078 0.05235257 -0.29574701 -0.95514244 -0.015381569 0
-0.032927852 -0.058960445 0.052371092 0.15896152 0.98720229 0.01276039 0
-0.027140295 -0.059029348 0.052127589 0.072443433 0.99731797 0.010429214 0
-0.022667097 -0.059137143 0.05273233 -0.0290574 0.99950856 0.011754377 0
-0.017504187 -0.058646318 0.052138638 -0.15164569 0.98826653 0.018242545 0
-0.012418238 -0.058436822 0.052462392 -0.16167818 0.98672801 0.015093919 0
-0.007598252 -0.056935553 0.052773081 0.26554269 -0.96398145 0.015061779 0
-0.0033451715 -0.055907384 0.052648712 0.4537912 -0.89100558 -0.013514639 0
-0.051361669 -0.051273592 0.052274596 -0.62252593 -0.78244132 -0.015718259 0
-0.048164863 -0.05244701 0.052726433 0.57465255 0.81839746 -7.4420691e-06 0
-0.043602653 -0.054299921 0.052725259 0.469814 0.88259119 0.017537531 0
-0.0053489027 -0.054812003 0.051434454 -0.42287141 0.90603882 0.016536886 0
-0.0018546507 -0.053543802 0.052860856 -0.50409824 0.86361724 0.0070843021 0
0.0017479475 -0.051954877 0.052346468 0.56999594 -0.82153606 -0.013533588 0
0.0052070436 -0.050120801 0.051839396 0.66954434 -0.74262798 -0.014631525 0
-0.056351688 -0.046350047 0.052326474 -0.75112778 -0.66001284 -0.01378966 0
-0.052935634 -0.048086207 0.052556116 0.67669559 0.73615736 0.012463437 0
0.0037948065 -0.048745565 0.052520074 -0.66156948 0.74974966 0.014190147 0
0.0073666 -0.047179297 0.05270987 0.73012447 -0.68323183 -0.01060313 0
0.01010646 -0.04506008 0.052327931 0.7583434 -0.65175551 -0.011402613 0
-0.060876943 -0.040774848 0.05272476 -0.84487164 -0.53471595 -0.016454922 0
-0.0581518 -0.042752225 0.052557413 0.83846146 0.54492158 0.00654141 0
0.0087522883 -0.043716457 0.052166928 -0.76984453 0.63805914 0.01483222 0
0.011570656 -0.042119265 0.052521292 0.80698204 -0.59039992 -0.014420962 0
-0.061939687 -0.037236858 0.052307423 -0.87703407 -0.48023459 -0.013634996 0
-0.059677739 -0.039251115 0.052426752 0.85343289 0.52104199 0.012945281 0
0.013508632 -0.03760365 0.052639905 -0.88149136 0.47211859 0.0087801972 0
0.01574241 -0.036476072 0.052920237 0.89696997 -0.44192025 -0.01230414 0
-0.06548126 -0.031170536 0.052929651 -0.948596 -0.3158085 -0.020751717 0
-0.06351807 -0.033144616 0.052498899 0.94825464 0.31667283 0.023056664 0
0.014674351 -0.034283873 0.052101415 -0.90189993 0.43169925 0.014569581 0
0.016498212 -0.03246459 0.052258171 0.91511005 -0.40289587 -0.015765956 0
-0.066324599 -0.027451152 0.052231375 -0.966268 -0.25694597 -0.01746073 0
-0.064459331 -0.027998215 0.052386027 0.96585053 0.25842816 0.018644037 0
0.018080037 -0.027871106 0.052839004 0.98278648 -0.18234743 -0.029668821 0
-0.066538118 -0.022558903 0.052780323 -0.99340099 0.055029731 -0.10062933 0
0.018747792 -0.023100767 0.05252764 -0.99378854 0.11051682 0.013050678 0
0.020159902 -0.021322072 0.051622156 0.99414873 -0.10698374 -0.014921146 0
-0.066791855 -0.017330747 0.052435573 0.99674374 0.080633514 -0.0003974181 0
0.018503148 -0.017737301 0.052697789 -0.99968791 0.023694297 0.0079237837 0
0.020420281 -0.017306037 0.052176915 0.99920321 -0.038300984 -0.011227588 0
-0.066747837 -0.01260932 0.052502938 -0.99371243 -0.10763852 -0.030815326 0
0.018352065 -0.012608037 0.052560411 -0.99639666 -0.084633797 0.0055478974 0
0.020293813 -0.012548523 0.052227557 0.99476361 0.1016677 -0.010438737 0
-0.066537559 -0.0079996735 0.052558701 -0.9740535 0.22500663 -0.024329573 0
-0.064607084 -0.0066360729 0.052416958 0.96992588 -0.24311607 0.01175961 0
0.018519549 -0.0077343299 0.052364007 -0.75847089 -0.64694518 0.078636445 0
-0.065634415 -0.0032377448 0.052168153 -0.94882679 0.31549287 -0.013858685 0
-0.06346599 -0.0019653509 0.052501075 0.9410696 -0.33794427 0.013480583 0
0.01725713 -0.0024051573 0.052398615 0.9497726 0.312545 -0.015738897 0
-0.062126584 0.0024707932 0.052331448 0.86030412 -0.50947189 0.017754124 0
-0.059795141 0.004921033 0.051119328 0.85284543 -0.52091712 0.036056843 0
0.014042116 0.0024852159 0.052350957 -0.8929612 -0.44970363 0.019667665 0
0.016228149 0.0019562321 0.05273933 0.90470439 0.42577091 -0.015133249 0
-0.061065376 0.0066133491 0.052262906 -0.84775138 0.5301488 -0.016118778 0
-0.058218904 0.0080726761 0.052481815 0.81470692 -0.57965475 0.015905317 0
0.0092548607 0.0095786201 0.051872019 -0.78180176 -0.62327266 0.017809195 0
0.012475022 0.0073571373 0.052646115 0.86316144 0.50482416 -0.01024345 0
-0.056395303 0.011810848 0.05232567 -0.73593843 0.67694849 -0.011629904 0
-0.05328621 0.013728825 0.052777752 0.69158822 -0.72222853 0.0095769539 0
0.0045887749 0.014498184 0.051926356 -0.64759082 -0.76117343 0.035230074 0
0.0077035236 0.012700171 0.052225608 -0.79286462 -0.60819566 0.038258046 0
0.010753376 0.010956123 0.053016778 0.80739385 0.58978403 -0.016431965 0
-0.051917318 0.016463563 0.052595336 -0.64921945 0.76049137 -0.012922279 0
-0.04788889 0.018490652 0.052694257 0.56076139 -0.8278845 0.012406616 0
-0.044720415 0.019834442 0.052974742 0.49930823 -0.86624408 0.01767293 0
-0.0015915236 0.019152226 0.052108094 -0.52505314 -0.85094064 0.014806043 0
0.0025896237 0.017482122 0.05252802 -0.82784802 0.55310792 0.093484409 0
0.0059925839 0.015961207 0.052646261 0.66818684 0.74383938 -0.015144863 0
-0.046554767 0.020981388 0.052453853 -0.5302422 0.84769219 -0.016161332 0
-0.042339377 0.022165092 0.052537974 -0.14464444 0.98688394 -0.071680211 0
-0.03797242 0.02349578 0.052609097 0.31537676 -0.94883358 0.01588425 0
-0.032513924 0.024527684 0.052395239 0.22001047 -0.97541797 0.012457854 0
-0.015997866 0.024796735 0.051993083 -0.19376729 -0.98086494 0.018923774 0
-0.012298952 0.023920774 0.05281166 -0.27002281 -0.96262509 0.020991687 0
-0.007203273 0.022946997 0.052534059 -0.42214477 -0.90650243 0.0068687066 0
-0.0029349609 0.021642139 0.052457001 0.47279951 0.88098764 -0.017929846 0
0.0004752856 0.020302655 0.052528981 0.55027419 0.83477271 -0.018784024 0
-0.03636514 0.025557781 0.053079348 -0.29026902 0.95682925 -0.014887423 0
-0.032510459 0.026466642 0.052547328 -0.20613605 0.97838122 -0.016675415 0
-0.027433801 0.026142458 0.052703835 0.066105984 -0.99775577 0.010654758 0
-0.022583894 0.026441252 0.052386485 -0.78595257 0.18888874 0.58872712 0
-0.017829392 0.026486186 0.052472852 0.14601968 0.98916459 -0.015220067 0
-0.012778115 0.026070772 0.052420713 0.25532791 0.96667755 -0.018503323 0
-0.0095124347 0.025138097 0.052487183 0.29076514 0.95661342 -0.018611377 0
-0.031631835 -0.060391728 0.05694535 -0.17960531 -0.98364204 -0.01379392 0
-0.027513864 -0.060960565 0.057383284 -0.093676321 -0.99543899 -0.018049922 0
-0.022059657 -0.061051838 0.057497792 0.049280308 -0.99863529 -0.017291928 0
-0.017616127 -0.060620464 0.057555076 0.14069162 -0.98997372 -0.012565399 0
-0.014699592 -0.060133938 0.057268512 0.20437229 -0.97885996 -0.0080753276 0
-0.045789655 -0.055305541 0.057924289 -0.48561597 -0.87412935 -0.0086588208 0
-0.041939724 -0.056554683 0.057907231 -0.43810743 -0.89887357 -0.009392607 0
-0.037634667 -0.057977948 0.057286028 -0.14384034 -0.98840529 -0.048629474 0
-0.033040032 -0.058608789 0.057163768 0.19287103 0.98120862 0.0055265962 0
-0.027361009 -0.059068915 0.057334539 0.082569331 0.99655181 0.0081797615 0
-0.022485364 -0.059189253 0.057694625 -0.026872434 0.99949968 0.016680894 0
-0.017698662 -0.058761455 0.057547349 -0.15900451 0.98721236 0.01137011 0
-0.01231524 -0.058472756 0.057217609 -0.18680224 0.98226249 0.016288068 0
-0.0073611583 -0.056872185 0.057493411 0.24350117 -0.96885502 -0.045021981 0
-0.0033618512 -0.056008846 0.057560306 0.45610574 -0.88968265 -0.020795533 0
-0.051267639 -0.05143353 0.057365082 -0.626607 -0.77909732 -0.019261543 0
-0.047793858 -0.052665271 0.057450615 0.59988314 0.79995263 0.014697928 0
-0.043594446 -0.054391999 0.057336871 0.46927431 0.88296807 0.012209105 0
-0.0050092726 -0.054773018 0.05875133 -0.45097387 0.89247304 0.01069857 0
-0.0023798109 -0.053570554 0.057729572 -0.50752217 0.86155057 0.01232052 0
0.0022810346 -0.051795207 0.057515025 0.59963572 -0.80015558 -0.013714369 0
0.0052649821 -0.050163168 0.057092093 0.65844393 -0.75253206 -0.01213029 0
-0.056281582 -0.046582431 0.057573769 -0.75156176 -0.65946293 -0.016230693 0
-0.053164054 -0.048252083 0.057503924 0.67607594 0.73681617 0.0048251916 0
0.0033352366 -0.0492214 0.057671029 -0.64180058 0.76684171 0.0067693316 0
0.0071701258 -0.047333017 0.057751395 0.73963016 -0.6728152 -0.016334115 0
0.010151858 -0.045100208 0.056885391 0.74488014 -0.6670506 -0.014040005 0
-0.060843706 -0.040993676 0.057485498 -0.83639079 -0.54779792 -0.019179294 0
-0.058033366 -0.042899311 0.057704426 0.82105249 0.57085127 0.0012389001 0
0.0088840676 -0.043640476 0.057701368 -0.77501553 0.6318717 0.0094435802 0
0.011879651 -0.042012163 0.057852387 0.81243891 -0.58291703 -0.012276504 0
-0.062131029 -0.037121844 0.057375442 -0.87957042 -0.4753159 -0.020753985 0
-0.059693981 -0.039340846 0.057437472 0.84521371 0.5342766 0.012735118 0
0.013345229 -0.038032383 0.057581346 -0.87335914 0.48697984 0.0097148111 0
0.015755776 -0.03657167 0.057562187 0.89544803 -0.44498882 -0.012555945 0
-0.065423034 -0.031584512 0.057270654 -0.94370669 -0.33015969 -0.020300984 0
-0.063496493 -0.033115432 0.057566702 0.93512088 0.35427183 0.0063565942 0
0.01468478 -0.034362655 0.057804056 -0.91044861 0.41354698 0.0078913085 0
0.016579404 -0.032314427 0.057569772 0.17065513 0.57480627 -0.80029649 0
-0.066202179 -0.027280033 0.057606798 -0.96438044 -0.26436332 -0.0090760542 0
-0.064473167 -0.028239299 0.057226148 0.9663431 0.25688824 0.013766482 0
0.018087769 -0.027612256 0.057516348 0.22106008 0.83582783 -0.50251794 0
-0.066619009 -0.022351481 0.057275575 -0.99939185 -0.019836567 -0.028678758 0
0.018803587 -0.023045605 0.057620343 -0.99834478 0.055661865 -0.014469754 0
0.020195961 -0.021505145 0.057014994 0.99429065 -0.10601329 -0.012136731 0
-0.066954233 -0.017435631 0.057431232 -0.99139941 0.073241845 -0.10845649 0
0.018535031 -0.017412402 0.057132494 -0.99987018 0.015528144 0.0043071089 0
0.020475388 -0.017198579 0.05745858 0.99949181 -0.031058168 -0.0071830857 0
-0.066770434 -0.012467524 0.057328325 -0.99855053 -0.052697707 -0.010945356 0
0.018328009 -0.012525206 0.057469659 -0.99548358 -0.094660759 0.0072061834 0
0.020337515 -0.012461194 0.057681438 0.99537951 0.095514625 -0.0098315021 0
-0.066293456 -0.0077792192 0.057548758 -0.95912653 0.28254107 -0.01570702 0
-0.064592928 -0.0063472521 0.057337102 0.96830761 -0.24937977 0.013786983 0
0.018395377 -0.0074021281 0.057455231 -0.99016851 -0.13924167 -0.013341866 0
0.020027678 -0.0099429227 0.056909166 0.98452222 0.17484231 -0.012090662 0
-0.065695815 -0.0031969198 0.057455596 -0.95153952 0.30716386 -0.014927656 0
-0.063705795 -0.0021001799 0.057520594 0.94501245 -0.32677791 0.012948005 0
0.017136898 -0.0025205989 0.05731079 -0.33319724 -0.93820345 -0.093562335 0
-0.062426317 0.0025218138 0.057319213 -0.94510972 0.32649383 -0.013013487 0
-0.059957206 0.0048525273 0.057031397 0.85072851 -0.52540714 0.014435886 0
0.013916766 0.0028907936 0.057502933 -0.89092803 -0.45400846 0.011116493 0
0.016043575 0.001768452 0.057415225 0.89845866 0.43880415 -0.014933813 0
-0.061034039 0.0068207523 0.057627406 -0.84522229 0.53423762 -0.013761612 0
-0.058448009 0.0078650396 0.057682939 0.82052779 -0.57141852 0.01466247 0
0.0094723124 0.0095106177 0.05772084 -0.78296411 -0.62162489 0.023446541 0
0.01264356 0.0072472529 0.057399601 0.8511678 0.52465236 -0.015915578 0
-0.056426335 0.011782407 0.057560384 -0.75272876 0.65797973 -0.021494906 0
-0.053576175 0.013551435 0.057341635 0.70082647 -0.71309316 0.018451279 0
0.0046660388 0.014614685 0.056314059 -0.6511634 -0.75837749 0.029151922 0
0.0076889205 0.012567176 0.057347916 -0.75927627 -0.6497708 0.036018725 0
0.010776941 0.01107509 0.057789274 0.80834788 0.58836174 -0.020102397 0
-0.051793031 0.016950175 0.058088686 -0.63038164 0.77614051 -0.014997018 0
-0.048175409 0.01835919 0.057532243 0.57114756 -0.82059729 0.020264607 0
-0.0447887 0.019873653 0.057343051 0.50679696 -0.86186838 0.01843139 0
-0.0013387224 0.019158302 0.058023717 -0.53003699 -0.84728128 0.034281701 0
0.0025576183 0.017649926 0.057641029 0.5267573 -0.41361162 0.7425983 0
0.0061640753 0.015919751 0.057693928 0.67208827 0.74025911 -0.017712049 0
-0.046747748 0.020947823 0.05699607 -0.52594221 0.85047668 -0.00861861 0
-0.042488132 0.022241859 0.057660773 -0.29722783 0.95399761 -0.039296888 0
-0.038165353 0.023558304 0.057567496 0.32573378 -0.94533032 0.01575123 0
-0.032848198 0.024523566 0.057359692 0.22403087 -0.97444499 0.016344279 0
-0.015665697 0.024824928 0.057268415 -0.17925939 -0.98368949 0.014866251 0
-0.012810569 0.024162358 0.057615608 -0.26456469 -0.96427304 0.013530836 0
-0.0069530364 0.023246791 0.057481281 0.3944765 0.9170391 0.058544837 0
-0.0029612607 0.021822803 0.057507463 0.47503915 0.87983799 -0.01492993 0
0.00053260656 0.02034683 0.057048932 0.54561061 0.83790809 -0.014798569 0
-0.036845654 0.025489103 0.057754301 -0.30461538 0.95233589 -0.016308574 0
-0.032083865 0.026486797 0.057489935 -0.20342155 0.97893816 -0.017313324 0
-0.027239941 0.026344953 0.05748478 0.0023992036 -0.99995941 0.0086900806 0
-0.022447132 0.026520392 0.057584811 -0.39529943 -0.90756118 -0.14167222 0
-0.017852087 0.02628026 0.057320345 0.22468203 0.97416103 -0.022984643 0
-0.011803873 0.025897453 0.057250358 0.272506 0.96198916 -0.01781119 0
-0.0093720304 0.02517944 0.05747366 0.30555117 0.95209169 -0.012646364 0
-0.031982675 -0.060415268 0.062847689 -0.17752504 -0.98392731 -0.019288654 0
-0.027475597 -0.061019391 0.06227478 -0.094111502 -0.99539268 -0.018344888 0
-0.022638323 -0.061147138 0.062631458 0.048614502 -0.99871099 -0.014595784 0
-0.017405318 -0.060661986 0.062294971 0.15009907 -0.9884811 -0.019374311 0
-0.014324268 -0.060142502 0.063204214 0.21315414 -0.9767825 -0.021477159 0
-0.045699127 -0.055440873 0.063006774 -0.49752057 -0.86716145 -0.022455066 0
-0.042296164 -0.056636155 0.062625058 -0.44232795 -0.89658654 -0.021873998 0
-0.037379544 -0.058038186 0.062702447 0.58690846 0.77809072 -0.22385994 0
-0.032935817 -0.058605455 0.06226426 0.18466549 0.98273039 0.011814514 0
-0.027456375 -0.059124064 0.062711217 0.083726168 0.99633592 0.017453693 0
-0.02242974 -0.059240844 0.062327515 -0.028040338 0.9995563 0.010041081 0
-0.017716991 -0.058814637 0.062307455 -0.14473273 0.98939055 0.012596861 0
-0.012296644 -0.058480751 0.062469505 -0.24445623 0.96963489 -0.0070254421 0
-0.00765575 -0.05710477 0.062499259 0.2653119 -0.96396512 -0.019516867 0
-0.0033644687 -0.056116957 0.062519975 0.45901269 -0.88809395 -0.024422403 0
-0.051470134 -0.051047016 0.06246426 -0.61188203 -0.79063171 -0.022403695 0
-0.047821607 -0.052595958 0.062414721 0.57753003 0.81630069 0.010593494 0
-0.043616783 -0.054456644 0.062438924 0.46126375 0.88709188 0.01742802 0
-0.0053270264 -0.054983217 0.061913557 -0.46274191 0.88613772 0.025097189 0
-0.0018883027 -0.053418733 0.062437147 -0.51753867 0.85548931 0.017078742 0
0.0020683978 -0.051852733 0.062745735 0.60727316 -0.79385662 -0.0317958 0
0.0051723234 -0.050310329 0.062696792 0.63422412 -0.77292413 -0.018657161 0
-0.056293927 -0.046340633 0.06288708 -0.75915492 -0.64974499 -0.038926121 0
-0.053258561 -0.04819994 0.062530644 0.67140341 0.74105316 0.0075978804 0
0.0039500794 -0.048769128 0.062406328 -0.66099131 0.75024223 0.015069532 0
0.0072486601 -0.047295891 0.062456612 0.73445725 -0.67771983 -0.035613347 0
0.010082982 -0.045277212 0.062363703 0.75342369 -0.65706176 -0.024951322 0
-0.060781822 -0.041259769 0.062305707 -0.83760202 -0.54586482 -0.021318296 0
-0.058052238 -0.043034662 0.062316127 0.82757038 0.56112254 -0.016391983 0
0.0089559881 -0.043634873 0.062393449 -0.77117068 0.63651103 0.012225802 0
0.011722071 -0.041999675 0.062513351 0.80600125 -0.59121835 -0.028685035 0
-0.06199947 -0.037391275 0.062492151 -0.93927664 -0.32693776 -0.10426468 0
-0.05965716 -0.039529338 0.062310994 0.84926969 0.52762419 0.018808683 0
0.013267067 -0.03804414 0.062569655 -0.87048656 0.49214762 0.0066227475 0
0.015823063 -0.036580637 0.062553413 0.89321166 -0.44949397 -0.011317757 0
-0.065475821 -0.031726319 0.062657505 -0.94452292 -0.32780439 -0.020513244 0
-0.063502513 -0.032990467 0.062325086 0.93893015 0.34399936 0.0086384732 0
0.014673016 -0.034503117 0.062071431 -0.90209717 0.43151683 0.0037330508 0
0.016832093 -0.032263849 0.062577114 0.9307639 -0.365403 -0.012621359 0
-0.066384695 -0.027306203 0.062370617 -0.96868151 -0.24720958 -0.023312286 0
-0.064489752 -0.028501585 0.062846199 0.96405828 0.26507059 0.018145006 0
0.018209035 -0.027486028 0.062310584 0.98388445 -0.16309313 -0.073293932 0
-0.066617556 -0.022457018 0.062676355 0.96268219 0.27050826 -0.0082659023 0
0.018532233 -0.022582173 0.062743641 -0.99292219 0.11864087 0.0054719052 0
0.020192346 -0.022084124 0.062561497 0.99343544 -0.11293652 -0.018199746 0
-0.06705083 -0.017552532 0.062461156 -0.99788433 -0.064999945 0.0013266515 0
0.018550653 -0.017585771 0.062571824 -0.99968213 0.025042398 0.0029305599 0
0.020514907 -0.017910585 0.062394232 0.9992317 -0.035520934 -0.016559763 0
-0.066682354 -0.012398222 0.062637046 0.96263337 -0.27057102 0.011335971 0
0.018380318 -0.012905237 0.06217185 -0.99604994 -0.088735774 0.0032352665 0
0.02041767 -0.012515256 0.062990822 0.99699473 0.076053098 -0.014743113 0
-0.066426173 -0.0080410754 0.062747143 -0.97144037 0.2354192 -0.029687416 0
-0.064689323 -0.0064224601 0.062434822 0.96781242 -0.25099793 0.018414166 0
0.018365676 -0.0074390648 0.062287293 -0.97865385 -0.2053536 -0.0081611089 0
0.020038687 -0.0095599545 0.063549168 0.98342919 0.18075719 -0.013918319 0
-0.065768428 -0.003161899 0.062356498 -0.9505825 0.30951893 -0.024309518 0
-0.063676782 -0.0020811826 0.062576786 0.94500685 -0.32673645 0.014328456 0
0.01718899 -0.0028359294 0.062341027 -0.92183769 -0.38756722 -0.0026217343 0
-0.062420942 0.0024743094 0.062633723 -0.43559849 -0.87067437 -0.22842956 0
0.013961866 0.002772663 0.062414166 -0.89074695 -0.45430741 0.01321644 0
0.016129704 0.0018727249 0.062420577 0.90495992 0.42509663 -0.018451225 0
-0.061075635 0.0068854559 0.062472124 -0.84360147 0.53662473 -0.019245256 0
-0.058598813 0.0079464531 0.062319048 0.82611603 -0.56330043 0.015000707 0
0.0096621467 0.0093989354 0.061570775 -0.78949982 -0.61345786 0.018962458 0
0.012568615 0.0072649312 0.062280063 0.83882064 0.5432772 -0.035068605 0
-0.056829199 0.012003494 0.062311742 -0.76425344 0.6446923 -0.016986335 0
-0.053612325 0.013599752 0.062528588 0.70198381 -0.71203107 0.015182381 0
0.0047253249 0.014805439 0.062763982 -0.66651571 -0.74521345 0.020338753 0
0.0080605717 0.012843042 0.062357403 -0.63895118 0.64895087 -0.41304258 0
0.01084401 0.011117497 0.062438861 0.7978211 0.60242468 -0.023789704 0
-0.051759578 0.016805032 0.062343169 -0.61273664 0.78984082 -0.026556058 0
-0.047881562 0.018456154 0.06241405 0.55176312 -0.83398587 0.005011193 0
-0.044935271 0.019848362 0.061942022 0.49877653 -0.86668158 0.0092233056 0
-0.0012142404 0.019259343 0.062400308 -0.53110826 -0.84693772 0.024909822 0
0.0026271476 0.017563159 0.06246962 -0.61555225 -0.78756744 0.028860932 0
0.0061031873 0.01611859 0.062961109 0.66924238 0.7425282 -0.027685385 0
-0.046762694 0.02104306 0.062681302 -0.52171594 0.85302734 -0.012526345 0
-0.042292643 0.022461914 0.062484894 -0.3285006 0.94414306 -0.026101623 0
-0.038031314 0.0237673 0.062401865 0.28069815 -0.9597764 0.0061478275 0
-0.032684114 0.024638595 0.062277172 0.21517034 -0.97650015 0.012214774 0
-0.015474881 0.024860632 0.06198455 -0.19409338 -0.98085678 0.015739739 0
-0.012118703 0.024049489 0.062364832 -0.27750075 -0.96057016 0.01727205 0
-0.0072127944 0.023190847 0.062486544 -0.42591292 -0.90473086 0.0077609164 0
-0.0028504457 0.021827258 0.062712759 0.48656803 0.87325978 -0.025862945 0
0.00083308894 0.020261137 0.062113941 0.55081463 0.8342315 -0.025710559 0
-0.036730252 0.025611512 0.062837034 -0.3035436 0.9526245 -0.01918211 0
-0.032158598 0.026398627 0.062673271 -0.21206339 0.97684526 -0.028328869 0
-0.027360566 0.026508125 0.062622651 -0.204662 0.97566628 -0.078669503 0
-0.022232994 0.026486278 0.062544368 -0.034181118 -0.99937332 -0.0092070764 0
-0.01777868 0.026456006 0.062424317 0.13033992 0.99068952 -0.039317869 0
-0.012240816 0.02611649 0.062340964 0.26145291 0.96493936 -0.023116056 0
-0.0093377512 0.025257567 0.062303033 0.32267424 0.94612151 -0.027119307 0
-0.040078301 -0.065381475 0.069975965 -0.26557729 -0.87507206 -0.40462041 0
-0.03718438 -0.065874077 0.06938298 -0.2279907 -0.78016937 -0.58254272 0
-0.032095313 -0.066307262 0.069141254 -0.064962834 -0.39597383 -0.91596103 0
-0.027209064 -0.066340037 0.069132656 -0.02183786 0.11537489 -0.99308199 0
-0.022303352 -0.066835113 0.069339491 0.032408647 -0.28410849 -0.95824426 0
-0.017701445 -0.066389829 0.069189206 0.022132823 -0.15713602 -0.98732895 0
-0.012867468 -0.065898381 0.069043137 0.0935129 -0.40512162 -0.90946788 0
-0.0083460072 -0.065250933 0.069435447 0.2541979 -0.79528433 -0.5503692 0
-0.050607391 -0.06030678 0.069630086 -0.43050477 -0.69644523 -0.57413393 0
-0.046984293 -0.061413672 0.069126077 -0.14740364 -0.25521618 -0.9555819 0
-0.042559013 -0.062953867 0.069239236 -0.0020372064 0.0014287238 -0.9999969 0
-0.03822653 -0.063749701 0.069234163 0.14564426 0.44371802 -0.88425231 0
-0.03248344 -0.061267518 0.067831568 -0.18290654 -0.95525187 -0.23246317 0
-0.027447861 -0.06129723 0.06754221 -0.072599247 -0.99624246 -0.047225058 0
-0.022712369 -0.06124296 0.067688905 0.025732681 -0.99948436 -0.019207831 0
-0.017222352 -0.061657526 0.068020336 0.13865241 -0.95407963 -0.26553258 0
-0.012994306 -0.062422495 0.068704449 0.00958155 -0.23907436 -0.970954 0
-0.0073447092 -0.063429736 0.069228321 -0.067586318 0.18785855 -0.97986794 0
-0.0028539547 -0.062044553 0.069154285 0.058231696 -0.11256427 -0.99193662 0
0.0014797301 -0.060562041 0.069248267 0.31579578 -0.53435165 -0.78405446 0
-0.056388069 -0.055948984 0.069367148 -0.47428694 -0.59987575 -0.64436084 0
-0.052083466 -0.057673801 0.069256335 0.04838866 0.037044447 -0.99814141 0
-0.046718456 -0.056866352 0.067966476 -0.39923808 -0.72461039 -0.5617373 0
-0.042100191 -0.056781996 0.06780991 -0.41958609 -0.90716434 -0.031629831 0
-0.037429623 -0.058291893 0.067290947 -0.22508739 -0.97351551 -0.040040731 0
-0.032747373 -0.058705553 0.067329362 0.17724846 0.98364377 0.032061484 0
-0.027291572 -0.059248157 0.067589641 0.083338536 0.99605286 0.030550612 0
-0.022873899 -0.059356272 0.067413859 -0.032110043 0.99904615 0.029594701 0
-0.017461399 -0.05886621 0.067654602 -0.14789923 0.98855174 0.029853232 0
-0.012530764 -0.058422662 0.067322724 -0.25063673 0.96778822 0.023816563 0
-0.0074011842 -0.057031382 0.06762851 -0.79238135 0.60204339 -0.098363973 0
-0.003044819 -0.056646764 0.067869201 0.46420783 -0.87490529 -0.13802768 0
0.0029943669 -0.058187012 0.069260009 -0.20761535 0.33375874 -0.91951126 0
0.0067405943 -0.056363072 0.069062583 0.16132903 -0.21329236 -0.96357632 0
0.01007068 -0.055019736 0.069782108 0.60225022 -0.74980712 -0.27401459 0
-0.061079364 -0.051108174 0.069153599 -0.51161712 -0.45138359 -0.73109561 0
-0.057782847 -0.052776806 0.06913963 0.15381715 0.16831669 -0.97365791 0
-0.051540293 -0.051508386 0.067892611 -0.62762547 -0.77321875 -0.090658545 0
-0.047719151 -0.053102046 0.067495495 0.60407621 0.79650903 -0.025795106 0
-0.043822527 -0.054453876 0.067390688 0.47510746 0.87977058 0.016633136 0
-0.0020204121 -0.053522542 0.067446135 -0.51224566 0.85847414 0.025032042 0
0.0019894119 -0.052043229 0.067738198 0.58604115 -0.81000888 -0.02100607 0
0.0082775159 -0.052633192 0.068876147 -0.009537789 -0.023665566 -0.99967444 0
0.011657692 -0.052344892 0.069196962 0.33766162 -0.34552678 -0.87555462 0
-0.065614186 -0.045777876 0.069344722 -0.62457699 -0.40129527 -0.66997445 0
-0.062712096 -0.047493603 0.069179446 0.12015575 0.098795876 -0.98782688 0
-0.056563988 -0.046699796 0.067639768 -0.74036348 -0.66898274 -0.06575767 0
-0.053032041 -0.048247565 0.067708343 0.67756879 0.73507535 0.023763301 0
0.0036699625 -0.049154546 0.066884249 -0.65444958 0.75562996 0.026814518 0
0.0074469717 -0.047220282 0.067582995 0.70552665 -0.70867741 -0.0028876332 0
0.012903534 -0.047919128 0.068773314 0.021612769 0.021568149 -0.99953365 0
0.016860077 -0.046540521 0.069251634 0.4977743 -0.34595501 -0.79532129 0
-0.067168452 -0.041841254 0.069180988 -0.22830966 -0.1338041 -0.9643501 0
-0.061549406 -0.042072773 0.068076745 -0.80443072 -0.52592725 -0.27620965 0
-0.05808552 -0.043182235 0.067640148 0.79655421 0.60402977 0.025481405 0
0.0089058382 -0.043809209 0.067414127 -0.76868331 0.63921595 0.022998849 0
0.011888246 -0.042254604 0.067446321 0.80860031 -0.58737165 -0.034059454 0
0.018390331 -0.042583838 0.069192335 -0.1477382 0.085187994 -0.98535097 0
0.020875875 -0.040465213 0.069157287 0.58736497 -0.30239671 -0.75070542 0
-0.070727088 -0.036487997 0.069441982 -0.75621158 -0.32226148 -0.56946611 0
-0.068506598 -0.037720952 0.069091126 0.28896445 0.12390141 -0.94928813 0
-0.062248822 -0.037127692 0.067541197 -0.95721698 -0.17665762 -0.22918946 0
-0.059830308 -0.039434936 0.067437112 0.85007054 0.52570289 0.031882528 0
0.013529823 -0.037847418 0.067470878 -0.88098973 0.47268942 0.020535272 0
0.016684441 -0.037106562 0.068179525 0.86095142 -0.42912075 -0.27316308 0
0.02166456 -0.037276577 0.069355451 0.24580218 -0.11041828 -0.96301037 0
-0.071414776 -0.032522481 0.069126323 -0.37379402 -0.1154368 -0.92030013 0
-0.066666007 -0.032259885 0.067874521 -0.86518955 -0.32137218 -0.38492459 0
-0.063767239 -0.032657936 0.067428544 0.93973345 0.3411561 0.022663632 0
0.014732154 -0.034497589 0.0668635 -0.90771037 0.41931915 0.015277028 0
0.016856525 -0.032298047 0.067415975 0.9390958 -0.34187132 -0.034972794 0
0.022888072 -0.03252757 0.069355018 -0.2812902 0.082261272 -0.95609051 0
0.025212947 -0.030687455 0.06969136 0.89658505 -0.25343677 -0.36318737 0
-0.072168224 -0.027381124 0.069157816 0.13384783 0.037546553 -0.99029034 0
-0.066479638 -0.027221918 0.067558467 -0.96874869 -0.24524462 -0.037164021 0
-0.064538881 -0.02872687 0.067200944 0.95661676 0.28986228 0.029397814 0
0.01831976 -0.027342331 0.067565262 0.975631 -0.19605805 -0.098515809 0
0.023663627 -0.028155148 0.069227383 -0.50708592 0.12393664 -0.85293812 0
0.02571553 -0.026845366 0.069283687 0.67138684 -0.12894645 -0.72980309 0
-0.073300295 -0.022406239 0.069224626 -0.22598386 -0.034803949 -0.97350913 0
-0.066930652 -0.022724612 0.067534707 -0.99480355 -0.092064492 -0.043474343 0
0.018628713 -0.022733849 0.067575313 -0.99129605 0.13070247 0.015779443 0
0.021156484 -0.021997573 0.067912377 0.9663648 -0.1264248 -0.22395489 0
0.026187139 -0.022408709 0.069161624 0.48897049 -0.058578994 -0.87033123 0
-0.073317669 -0.017651973 0.069197893 0.092889197 -0.010567194 -0.99562037 0
-0.067079127 -0.017629664 0.067443758 0.99929398 -0.028888714 0.024020979 0
0.01860282 -0.01764958 0.067391627 -0.99968767 0.019599099 0.015510665 0
0.021810936 -0.017529231 0.068075463 0.93863386 -0.030760298 -0.34354079 0
0.026619589 -0.017750951 0.069260873 0.5568527 -0.0053044567 -0.83059424 0
-0.073250189 -0.012616366 0.069254719 -0.052283794 0.014548973 -0.99852628 0
-0.066985004 -0.012640443 0.067447498 -0.99724078 0.070420854 -0.02349099 0
0.018416168 -0.012565223 0.067662597 -0.99576342 -0.090191141 0.017910775 0
0.021543331 -0.012215792 0.068071403 0.94628114 0.097148426 -0.308406 0
0.026312957 -0.012770507 0.069107778 0.41675869 0.038576525 -0.90819824 0
-0.072746404 -0.0077296756 0.069223419 -0.187062 0.035186961 -0.98171771 0
-0.066329777 -0.0076823328 0.0673948 -0.95724022 0.28820273 -0.025105905 0
-0.064764574 -0.0062609883 0.067085281 0.96724075 -0.25142083 0.035113215 0
0.018537413 -0.0070962389 0.067587718 -0.94927037 -0.3104941 -0.049792212 0
0.023541721 -0.0078728376 0.068883725 -0.28863746 -0.050804544 -0.95608962 0
0.026015645 -0.0075723422 0.069350265 0.72710794 0.1173835 -0.67641348 0
-0.071780771 -0.0033070256 0.069212876 -0.21006413 0.059756432 -0.9758597 0
-0.066047199 -0.0026680254 0.067898199 -0.94481641 0.31591988 -0.086698517 0
-0.063729778 -0.0023134288 0.067410626 0.94330186 -0.32976824 0.037874497 0
0.017169956 -0.00237684 0.067320079 -0.93284529 -0.35843065 -0.036428019 0
0.023492387 -0.0021159942 0.069248684 -0.22380038 -0.062915787 -0.97260213 0
0.025197783 -0.0033909248 0.069285087 0.73965317 0.18146765 -0.64806074 0
-0.07067354 0.0019488091 0.069293544 -0.62812704 0.25567287 -0.73490661 0
-0.069257163 0.0026251653 0.069079228 0.1473458 -0.058933947 -0.98732769 0
-0.062586933 0.0023563944 0.067635633 0.72599685 -0.6870501 -0.029842673 0
0.014064263 0.0026805198 0.067509316 -0.88817668 -0.45877138 0.025901495 0
0.016401926 0.0018558205 0.067551345 0.89936352 0.4234663 -0.10872703 0
0.022369532 0.0021125067 0.069359362 0.088477947 0.030610405 -0.99560767 0
-0.067445032 0.0070093656 0.06921532 -0.069982201 0.02059507 -0.99733561 0
-0.06108477 0.007011543 0.067849413 -0.84285021 0.5348767 -0.059248723 0
-0.058551472 0.0079684658 0.067447685 0.81512105 -0.5781846 0.035779797 0
0.009513854 0.0097669093 0.067351863 -0.78408676 -0.62025195 0.022256749 0
0.012378803 0.007416111 0.067424573 -0.6380381 -0.76727414 -0.064789258 0
0.018904535 0.0078083812 0.069234245 -0.36410022 -0.2036667 -0.90881842 0
0.020768197 0.0070153507 0.069225788 0.50846899 0.28095451 -0.81395566 0
-0.065997615 0.010911916 0.069215283 -0.55166197 0.36201021 -0.75141048 0
-0.063293353 0.012715861 0.069192052 0.2058363 -0.14981408 -0.96705073 0
-0.05678761 0.012041923 0.067351036 -0.74762261 0.66349739 -0.028839473 0
-0.053421058 0.013692847 0.067436792 0.6940307 -0.71857369 0.044421706 0
0.0048356233 0.014869797 0.06789048 -0.690202 -0.7229557 0.030924002 0
0.0076429956 0.012984006 0.067408986 -0.73318869 -0.67953372 0.025849763 0
0.011580735 0.011842201 0.067695193 0.75912327 0.61891246 -0.20169124 0
0.017142916 0.01198271 0.069091514 0.16077466 0.085082211 -0.98331708 0
-0.061391041 0.016542144 0.069189876 -0.37903291 0.32153273 -0.86772746 0
-0.058515925 0.017850833 0.069136687 0.34009579 -0.33055004 -0.88038146 0
-0.051911097 0.016692568 0.067211874 -0.64581871 0.76343715 -0.0090482226 0
-0.047863264 0.018602844 0.067396864 0.55349255 -0.83236164 0.028635832 0
-0.04476684 0.019989893 0.065129638 0.48991275 -0.87160361 0.017109575 0
-0.0010908026 0.019326227 0.067487702 -0.52898443 -0.84823555 0.025923714 0
0.0024984113 0.017609661 0.067604825 -0.59615952 -0.8024655 0.02535614 0
0.0072064018 0.017542215 0.068595976 0.5088771 0.59300154 -0.62401372 0
0.012510061 0.01733272 0.069193594 -0.11541255 -0.12099473 -0.98592097 0
0.015456766 0.015459709 0.069070905 0.3738333 0.24192579 -0.89538848 0
-0.056337062 0.021459518 0.069197029 -0.2700184 0.32727078 -0.90552968 0
-0.052874357 0.023111708 0.069191702 0.15754242 -0.21272978 -0.96432698 0
-0.047166407 0.02149586 0.067468755 -0.52024311 0.84307283 -0.13629109 0
-0.042677488 0.022201976 0.067530662 0.48303679 -0.87558633 -0.0049080821 0
-0.037676688 0.023577387 0.067393281 0.32259896 -0.94625372 0.023103351 0
-0.033380486 0.024577569 0.067244127 0.23626082 -0.9713136 0.027034478 0
-0.01538277 0.024936482 0.066724688 -0.18463627 -0.98255718 0.022157278 0
-0.012739366 0.024319246 0.067357741 -0.25538456 -0.96638983 0.029486585 0
-0.006953299 0.023358103 0.067436233 -0.34095755 -0.93918407 0.041001797 0
-0.0030324024 0.021915851 0.067486137 0.47592181 0.87880278 -0.034699645 0
0.0018782173 0.022195648 0.068817541 0.3213644 0.466757 -0.82393134 0
0.007005217 0.022607446 0.069188289 0.04743579 0.084891491 -0.99526042 0
0.010566922 0.020802971 0.069252267 0.48276842 0.53354239 -0.69445455 0
-0.051719222 0.025614245 0.069449015 -0.46872196 0.69942582 -0.53953981 0
-0.047368709 0.027066432 0.069328666 -0.060749043 0.11274918 -0.99176472 0
-0.042845432 0.028534209 0.069283716 0.14780514 -0.36675394 -0.91850162 0
-0.037215199 0.02652367 0.068044752 -0.2917254 0.91613698 -0.27493522 0
-0.032030109 0.02636872 0.067436278 -0.21448331 0.97621197 -0.031734474 0
-0.027700245 0.026694041 0.067488581 -0.02848696 0.99957824 -0.0056454022 0
-0.022250116 0.026480619 0.067519091 -0.042683173 -0.9986701 0.028916517 0
-0.017472966 0.02649875 0.067514002 0.16021235 0.98699486 -0.013159305 0
-0.012295728 0.026349939 0.067543514 0.25409275 0.96621239 -0.043250646 0
-0.0078981435 0.027402915 0.068691008 0.13549818 0.44105375 -0.88719326 0
-0.0020313389 0.027886638 0.069284342 -0.070020743 -0.13100049 -0.9889065 0
0.0020750999 0.02642265 0.069209553 0.18181586 0.29896775 -0.93678242 0
0.0053023775 0.025201466 0.069368333 0.4736352 0.69880503 -0.53604221 0
-0.041095819 0.03076203 0.069221444 -0.21125276 0.54823411 -0.80920428 0
-0.037625227 0.031335831 0.069215126 -0.078771733 0.22058803 -0.97218108 0
-0.032377094 0.032289945 0.069294058 -0.013791653 0.024950633 -0.99959362 0
-0.027496669 0.032825258 0.069185622 -0.016575338 0.0092264218 -0.99982011 0
-0.022666546 0.032994241 0.069277398 0.0019754628 -0.11648865 -0.99319005 0
-0.017293766 0.0326249 0.069234505 -0.0022886517 -0.049433284 -0.99877477 0
-0.012118958 0.031778969 0.069258749 0.020998605 0.058616143 -0.99805969 0
-0.0079195602 0.031318184 0.069225609 0.17949599 0.53462154 -0.82580924 0
-0.0044306791 0.030609155 0.069670938 0.33813536 0.84415072 -0.41602179 0
-0.040313717 -0.065331928 0.071550742 -0.3098872 -0.94771284 0.076224543 0
-0.037192099 -0.066016585 0.071986564 -0.25134608 -0.93331987 0.25639656 0
-0.0323896 -0.066676371 0.072712854 -0.14525265 -0.86171502 0.48615736 0
-0.027456792 -0.06702555 0.072854258 -0.077022225 -0.82713085 0.55670655 0
-0.023159673 -0.067350537 0.072579786 0.023082193 -0.88043451 0.47360575 0
-0.017476529 -0.06682846 0.072919905 0.11266737 -0.85176468 0.51166677 0
-0.012591664 -0.066408359 0.072345696 0.20456022 -0.91555971 0.34627375 0
-0.0088217407 -0.065579563 0.071930632 0.29435962 -0.92862856 0.22583489 0
-0.05080153 -0.060376924 0.071461566 -0.52076608 -0.85266739 0.041964192 0
-0.046975158 -0.061987072 0.072340809 -0.42810977 -0.82529479 0.36825323 0
-0.042522281 -0.062431451 0.073150799 -0.20338801 -0.52020675 0.82946861 0
-0.037332531 -0.062034167 0.073245279 0.21473214 0.66327453 0.71690786 0
-0.032858092 -0.062231749 0.072948672 0.015266594 0.14436106 0.9894073 0
-0.027430156 -0.062514476 0.072536141 -0.036598347 0.99748993 0.06061694 0
-0.022583669 -0.062666342 0.072829135 0.006563846 0.8477571 0.53034413 0
-0.017589651 -0.06222219 0.072793573 -0.065344267 0.39342582 0.91703123 0
-0.012833073 -0.062098753 0.072916545 -0.22911812 0.89681309 0.37845874 0
-0.0077515496 -0.062292274 0.073280394 0.01375976 -0.0056469142 0.99988937 0
-0.0025514867 -0.062276695 0.072549187 0.35726705 -0.75740606 0.5465312 0
0.0015225352 -0.061025523 0.072009064 0.48103446 -0.84310406 0.24037743 0
-0.056621578 -0.056011897 0.071942948 -0.62449372 -0.77190328 0.11905013 0
-0.052403267 -0.057526719 0.072824731 -0.42521134 -0.59839463 0.67905754 0
-0.047268569 -0.0570044 0.073264144 0.35848352 0.60397273 0.71183324 0
-0.042716295 -0.057837192 0.072828412 0.24815302 0.46368986 0.85053617 0
-0.037491329 -0.058703367 0.072002046 0.16251399 0.50169122 0.84964412 0
-0.032755896 -0.05894392 0.071781248 0.19934835 0.92116308 0.33424371 0
-0.027673377 -0.059554249 0.071381815 0.091658458 0.96046895 0.26286525 0
-0.022417594 -0.059626006 0.071364224 -0.052256014 0.96655577 0.25107589 0
-0.017515512 -0.059214663 0.071279384 -0.1336766 0.95910782 0.24948485 0
-0.011939437 -0.058714695 0.071818873 -0.2479409 0.79006386 0.5606463 0
-0.0072539244 -0.05779773 0.072592437 -0.28230301 0.63863969 0.7158522 0
-0.0023967451 -0.057628233 0.072888069 -0.44090328 0.87709653 0.19054101 0
0.0025046375 -0.05722269 0.073309407 0.024607569 -0.033153191 0.9991473 0
0.0071576815 -0.056723829 0.072746098 0.53246605 -0.68894881 0.49176162 0
0.010261266 -0.055072404 0.071170136 0.62381047 -0.7791487 -0.061544999 0
-0.061421059 -0.051247478 0.07191281 -0.73258108 -0.65052116 0.20036756 0
-0.057339936 -0.052253239 0.073038816 -0.10673563 -0.14761908 0.98326808 0
-0.052493423 -0.052558433 0.072996311 0.54652512 0.6240927 0.55840719 0
-0.047809128 -0.053399954 0.07196445 0.44346356 0.67951155 0.58446914 0
-0.04416877 -0.05447888 0.071106248 0.45075971 0.86705416 0.21220905 0
-0.0015005616 -0.053615194 0.071739666 -0.49137586 0.80310261 0.33701026 0
0.0027339295 -0.052732795 0.072470807 -0.40660748 0.58470184 0.70199305 0
0.0072193085 -0.052369047 0.072776213 -0.61394006 0.73663098 0.2836414 0
0.012322834 -0.052268542 0.072256237 0.67847514 -0.64569312 0.35035959 0
0.01502014 -0.050152481 0.071223274 0.79203868 -0.61044145 0.0060057412 0
-0.065704264 -0.046056986 0.07208018 -0.80088258 -0.56248087 0.20543231 0
-0.062007222 -0.047129687 0.073116027 -0.21571292 -0.15167093 0.96460557 0
-0.057372678 -0.047555715 0.072698176 0.71730572 0.66372836 0.21198396 0
-0.053319927 -0.048847403 0.071927935 0.56941444 0.64352512 0.51151007 0
0.0042748307 -0.049340174 0.071888201 -0.61991709 0.70400792 0.34651926 0
0.0079569733 -0.047733624 0.072460458 -0.52859139 0.51684862 0.67339337 0
0.01246927 -0.04746969 0.072791614 -0.70003074 0.58985484 0.40252736 0
