# .PCD v0.7 - Point Cloud Data file format
VERSION 0.7
FIELDS x y z
SIZE 4 4 4
TYPE F F F
COUNT 1 1 1
WIDTH 182
HEIGHT 1
VIEWPOINT 0 0 0 1 0 0 0
POINTS 182
DATA ascii
-0.043120977 -0.07034526 -5.331562e-05
-0.031719875 -0.076526292 -7.3509713e-05
-0.029811051 -0.076741673 -3.8285623e-05
-0.045908336 -0.065680079 -8.0317361e-05
-0.048701834 -0.059046809 -2.578553e-05
-0.040157888 -0.038528282 -7.1735235e-06
-0.03456486 -0.036504488 -3.4120079e-05
-0.029266549 -0.035553362 -1.1688434e-05
-0.032329898 -0.080414712 0.0084726112
-0.025244173 -0.080860965 0.008046723
-0.042900328 -0.072777368 0.0060625607
-0.035065126 -0.075192854 0.0054109786
-0.025101701 -0.075531207 0.0054297703
-0.01562532 -0.073826186 0.0059761172
-0.0088722371 -0.071357206 0.0083753951
-0.051083304 -0.06305857 0.0083038127
-0.045503922 -0.065086655 0.0053892778
-0.034982674 -0.06498266 0.0064951628
-0.024960704 -0.064986832 0.0065874346
-0.014560181 -0.065484077 0.0060637114
-0.0072812415 -0.064295366 0.0058866371
-0.051407918 -0.055071607 0.0081049157
-0.046008617 -0.055017021 0.0051854714
-0.035091169 -0.054925174 0.0064235423
-0.024916332 -0.054995388 0.0063848472
-0.014898296 -0.054979999 0.0066328607
-0.0063562053 -0.055030059 0.005529088
-0.050846465 -0.047675129 0.0084337275
-0.045013633 -0.04500353 0.0054013282
-0.035252281 -0.045019943 0.0066166325
-0.024935503 -0.044947349 0.0066652582
-0.014202475 -0.044302803 0.0057244515
-0.0077610021 -0.046511054 0.0058994023
-0.042683411 -0.037992746 0.0066337157
-0.034793224 -0.035976548 0.005363428
-0.025136847 -0.035525598 0.0055138255
-0.01633548 -0.037272017 0.0057301582
-0.0095281415 -0.03950588 0.0088370917
-0.033031013 -0.080788352 0.015202233
-0.024853207 -0.081093602 0.01494129
-0.019706238 -0.080094561 0.017018143
-0.044265825 -0.073987998 0.015098956
-0.03592106 -0.078528382 0.014883596
-0.024931615 -0.079176478 0.015033824
-0.014716228 -0.07617867 0.015010944
-0.0085503664 -0.071625881 0.01515647
-0.05126489 -0.063418135 0.015034473
-0.048747104 -0.067445464 0.014798116
-0.0054927198 -0.065078042 0.015065446
-0.051899534 -0.054948192 0.015036741
-0.0039482098 -0.054964986 0.01498235
-0.05104775 -0.047479205 0.015201829
-0.047540884 -0.043390576 0.014919534
-0.013238343 -0.042498223 0.0153819
-0.0063030901 -0.045642391 0.01486459
-0.043185357 -0.037257314 0.015015383
-0.035120577 -0.034148823 0.014868918
-0.025036734 -0.033958647 0.014922444
-0.015711106 -0.035772625 0.014457228
-0.009143386 -0.039135434 0.0152693
-0.033301156 -0.080938846 0.025021514
-0.024998628 -0.081297658 0.025011342
-0.019417405 -0.080196179 0.025741588
-0.044405121 -0.074150547 0.025015652
-0.035942506 -0.078740351 0.02503415
-0.024904704 -0.079490691 0.024956629
-0.014435104 -0.076201782 0.024941375
-0.0084393537 -0.071790628 0.025147732
-0.051337384 -0.063662566 0.025009859
-0.048909422 -0.067627057 0.024936847
-0.0052204127 -0.065098204 0.024979977
-0.051957082 -0.054958709 0.024945544
-0.00401911 -0.055018745 0.025037089
-0.051177289 -0.047324486 0.025045732
-0.047265172 -0.043292288 0.024857573
-0.014213938 -0.042556938 0.02484612
-0.00604505 -0.045594424 0.025101135
-0.04317509 -0.037091289 0.025131056
-0.03505012 -0.034256399 0.02494666
-0.024976244 -0.034746904 0.025126383
-0.01522445 -0.035324287 0.025120316
-0.009036731 -0.038989175 0.025123304
-0.033353444 -0.080979526 0.035125677
-0.025709281 -0.081110783 0.035234518
-0.019075764 -0.080288716 0.035383336
-0.044572763 -0.074265353 0.035045814
-0.036102448 -0.078872159 0.03480944
-0.023083268 -0.079495266 0.034567188
-0.014376452 -0.076525614 0.034928009
-0.0083884876 -0.07200747 0.035098474
-0.051433727 -0.063826911 0.035061091
-0.048997939 -0.067808628 0.034949988
-0.0050332067 -0.065134034 0.034990445
-0.052147068 -0.055002552 0.035066511
-0.0035283358 -0.05498182 0.035067007
-0.051204611 -0.047151916 0.035033286
-0.047737285 -0.042976778 0.034901604
-0.012021762 -0.041181799 0.032346133
-0.0060000345 -0.045180243 0.035119295
-0.043412838 -0.037034508 0.035072941
-0.035127241 -0.033091202 0.034856532
-0.024856316 -0.032483336 0.034761153
-0.015270366 -0.035595596 0.035258595
-0.0088834753 -0.038933147 0.034974951
-0.033386208 -0.080963947 0.045129541
-0.025791951 -0.08120542 0.044967934
-0.018845599 -0.080439821 0.045216966
-0.044653591 -0.07441289 0.045015361
-0.036552493 -0.078892231 0.04485691
-0.022149259 -0.079592027 0.045056924
-0.014351173 -0.076833621 0.045001183
-0.0082927421 -0.072166428 0.045000635
-0.051562145 -0.064029031 0.045117971
-0.049009275 -0.068012722 0.044964649
-0.0048090601 -0.065141551 0.0450329
-0.052548856 -0.055021424 0.045029517
-0.0031159427 -0.055014186 0.044963237
-0.051253434 -0.047013972 0.044963911
-0.04823862 -0.04282124 0.04495509
-0.010061624 -0.04008235 0.041864604
-0.0059283674 -0.044800781 0.045092847
-0.043576829 -0.036934443 0.04508616
-0.035079561 -0.03263298 0.045009479
-0.025017058 -0.031665202 0.044977155
-0.014782646 -0.035295691 0.04503436
-0.0088351509 -0.038760871 0.045097571
-0.04225444 -0.081368744 0.059784159
-0.033699919 -0.081242576 0.055588674
-0.025563959 -0.08156126 0.05543185
-0.017687393 -0.081133403 0.056524366
-0.050800513 -0.074094616 0.059923425
-0.044900656 -0.07468272 0.055165686
-0.036943741 -0.079037257 0.054792691
-0.021910572 -0.079683952 0.054368794
-0.014219983 -0.07702557 0.054980818
-0.0080626868 -0.072384261 0.055320982
-0.051692657 -0.064246245 0.055170663
-0.049038295 -0.068475813 0.054854259
-0.0043598944 -0.065230265 0.05515774
0.00045143193 -0.064793713 0.059936322
-0.05291852 -0.05496674 0.055259522
-0.0028652051 -0.054964785 0.05503808
-0.051454037 -0.046919379 0.055203162
-0.048349094 -0.042607769 0.054800991
-0.0057223346 -0.044723604 0.054993004
-0.043677378 -0.036924463 0.055015948
-0.035126194 -0.032547213 0.05500431
-0.024950268 -0.031478632 0.054957129
-0.014818299 -0.034996346 0.054994345
-0.0089099715 -0.038799886 0.055257581
-0.04238648 -0.081416458 0.061379064
-0.034606081 -0.082694642 0.061348442
-0.02517377 -0.083225809 0.061424423
-0.016026622 -0.081965089 0.061437234
-0.009890819 -0.080233164 0.061093789
-0.051763006 -0.072322063 0.061405946
-0.045710266 -0.075933345 0.06154038
-0.038044669 -0.079173379 0.061155286
-0.020464091 -0.079784468 0.060906004
-0.013465563 -0.077710956 0.061483629
-0.0064373966 -0.074009083 0.06135885
-0.05350871 -0.064904712 0.061542496
-0.049157541 -0.068826705 0.061139841
-0.0026905611 -0.065481126 0.061593249
0.00073584623 -0.062932774 0.061260805
-0.054740828 -0.055057608 0.061547045
-0.0018551196 -0.054890398 0.061472971
0.0010343979 -0.055119656 0.061378464
-0.052955523 -0.045394599 0.061465938
-0.048605505 -0.042241272 0.061586853
-0.0037766641 -0.044551529 0.061576582
0.0004557973 -0.048380256 0.061507206
-0.051045775 -0.038653996 0.061196387
-0.044899002 -0.035103403 0.061419643
-0.035723202 -0.032013595 0.061548058
-0.024758296 -0.031313606 0.061425842
-0.01429922 -0.033438303 0.061536819
-0.0073810252 -0.037215613 0.061607506
-0.040734604 -0.029553769 0.061348125
-0.03436083 -0.028393289 0.061477821
-0.02526978 -0.028215831 0.061660711
-0.017737729 -0.029092768 0.061523922
