# .PCD v0.7 - Point Cloud Data file format
VERSION 0.7
FIELDS x y z
SIZE 4 4 4
TYPE F F F
COUNT 1 1 1
WIDTH 175
HEIGHT 1
VIEWPOINT 0 0 0 1 0 0 0
POINTS 175
DATA ascii
-0.03277446 -0.06361369 -6.3526277e-05
-0.029588483 -0.063064739 -2.4779218e-05
-0.050464269 -0.04563722 -0.0001001671
-0.049746774 -0.042203929 -6.7883477e-05
-0.013365927 -0.042380095 -0.00010727307
-0.049031645 -0.039011776 -3.2282398e-05
-0.014638868 -0.037893925 -0.00010841533
-0.03281216 -0.027461398 -8.2666505e-05
-0.02936752 -0.027148901 -0.00011087965
-0.043617032 -0.062328108 0.0062851766
-0.034917027 -0.064062625 0.0054704999
-0.025199763 -0.063339591 0.0054569999
-0.017955925 -0.061779551 0.0078039747
-0.0517722 -0.053326502 0.0070145433
-0.045642793 -0.055323832 0.0052856039
-0.034605063 -0.054835264 0.0063298498
-0.024791693 -0.055162102 0.0061205667
-0.015608555 -0.054826833 0.0053523849
-0.0097037461 -0.05152319 0.0083445301
-0.05238048 -0.045086343 0.0057977755
-0.045728467 -0.044938952 0.0055410415
-0.034957696 -0.045005959 0.0060497178
-0.024918081 -0.045003083 0.006054691
-0.014750358 -0.045077626 0.005272998
-0.0092558684 -0.044697322 0.0080674794
-0.051536534 -0.036672447 0.0072162454
-0.045574028 -0.03463449 0.0051829731
-0.034789708 -0.035073034 0.0064122728
-0.024711793 -0.034674782 0.0061140349
-0.015703224 -0.03547455 0.0053323559
-0.0097249495 -0.039160211 0.0082049016
-0.042996339 -0.027919399 0.0060505578
-0.034934904 -0.026500061 0.0053098854
-0.025497068 -0.026923407 0.0058981017
-0.01804477 -0.02825308 0.0076920199
-0.050077431 -0.060124718 0.019198146
-0.044623666 -0.063284352 0.015062031
-0.035146344 -0.06697908 0.015022054
-0.024769694 -0.066150777 0.014953081
-0.017341964 -0.06227937 0.015076721
-0.052332606 -0.054461267 0.015126492
-0.0489421 -0.058496147 0.014613037
-0.012966174 -0.055883031 0.014910771
-0.0095587941 -0.051637281 0.015097147
-0.054127093 -0.044976804 0.015028941
-0.012809716 -0.044917926 0.015021459
-0.0089380583 -0.044976477 0.015010988
-0.05217313 -0.03593114 0.014949873
-0.045995452 -0.032363106 0.015052604
-0.033204049 -0.030196048 0.017217936
-0.02428806 -0.032113899 0.015487603
-0.013864052 -0.035502166 0.015011623
-0.0096242558 -0.038877435 0.015241494
-0.044146627 -0.026769912 0.015115635
-0.035183281 -0.025592441 0.014988597
-0.025363121 -0.024359744 0.014426209
-0.017128481 -0.027488546 0.015014517
-0.050181683 -0.060214758 0.025432421
-0.044841673 -0.063524351 0.025086008
-0.035171587 -0.067337401 0.024956476
-0.024845198 -0.06642101 0.024999892
-0.017364027 -0.062473401 0.025111048
-0.052514765 -0.054581102 0.025051787
-0.049000621 -0.058746465 0.02479735
-0.01291696 -0.056024611 0.024926327
-0.0094423052 -0.051779203 0.025148381
-0.054359131 -0.045009509 0.025034735
-0.012830334 -0.045062073 0.024948969
-0.0087472247 -0.044900253 0.025010904
-0.052322827 -0.035781682 0.025050076
-0.047460403 -0.031845912 0.024469711
-0.03022108 -0.030072669 0.020239143
-0.023926619 -0.032344177 0.024509856
-0.01388936 -0.035615351 0.024983728
-0.0095336866 -0.038640566 0.025393495
-0.044246297 -0.026766514 0.025102904
-0.035083871 -0.024729243 0.024983421
-0.025618155 -0.024478251 0.025530115
-0.016987499 -0.02741635 0.02497196
-0.050251938 -0.060287569 0.035436839
-0.044836085 -0.063815087 0.034987669
-0.035029601 -0.067640118 0.034998123
-0.024904998 -0.066672668 0.035033174
-0.01712404 -0.062559649 0.035041396
-0.052674644 -0.054664638 0.034966201
-0.04910348 -0.058868021 0.035046954
-0.012570797 -0.055953637 0.034929708
-0.0093756784 -0.052031197 0.035177704
-0.054490108 -0.045024887 0.034967266
-0.011054052 -0.045102328 0.035023656
-0.0086041773 -0.04492753 0.035079516
-0.052430928 -0.035519641 0.035082966
-0.048664581 -0.031558771 0.034673445
-0.021113558 -0.030976489 0.03095155
-0.013467659 -0.034345821 0.034784812
-0.0094834473 -0.038453009 0.035035554
-0.044620063 -0.026724773 0.035039321
-0.035051275 -0.023395373 0.034974556
-0.02481674 -0.024686199 0.034849044
-0.017331429 -0.027731191 0.035436068
-0.050352987 -0.06047406 0.044766966
-0.044872548 -0.064082131 0.045018129
-0.035009902 -0.067883477 0.04504611
-0.024891933 -0.066862129 0.044930782
-0.016992968 -0.062718779 0.044971153
-0.052796915 -0.054661877 0.044979785
-0.049190585 -0.05907074 0.044899486
-0.012327364 -0.055995099 0.044944495
-0.0092976093 -0.052238386 0.045060523
-0.054647345 -0.044950422 0.045031428
-0.010331923 -0.045052357 0.044969525
-0.0084828883 -0.045092631 0.045081887
-0.052498508 -0.035545435 0.045055699
-0.048933446 -0.031381395 0.044880342
-0.012631122 -0.034145348 0.044985145
-0.00948459 -0.038280912 0.045034435
-0.044773828 -0.026595358 0.04498864
-0.035090141 -0.023003917 0.045030594
-0.024857948 -0.023946006 0.045027439
-0.01732596 -0.027682038 0.045074254
-0.042138834 -0.07096485 0.058210298
-0.034842245 -0.071918599 0.058420502
-0.025407305 -0.07167533 0.058281757
-0.019406745 -0.070244968 0.058793053
-0.052026235 -0.062410034 0.058023371
-0.045369282 -0.064709269 0.055509251
-0.035080224 -0.068095155 0.055042539
-0.024788713 -0.067277506 0.055203363
-0.016175687 -0.0638844 0.056094155
-0.0090801651 -0.061306491 0.058480121
-0.053929921 -0.054905098 0.056024242
-0.049415849 -0.059066091 0.054224335
-0.012085106 -0.056157246 0.054723114
-0.0078871604 -0.053650822 0.056987043
-0.055769894 -0.045172401 0.055771641
-0.010195826 -0.044807989 0.053732485
-0.0076278825 -0.045096453 0.056216657
-0.053562675 -0.035186313 0.055773303
-0.049080968 -0.031237114 0.054282784
-0.01234046 -0.033934597 0.054821655
-0.0080200406 -0.036221866 0.056908764
-0.052003097 -0.027542738 0.058437888
-0.045142841 -0.025471197 0.055786841
-0.03508044 -0.022615135 0.055194024
-0.024826055 -0.023356639 0.055392072
-0.016215939 -0.026477771 0.056460034
-0.0094784666 -0.029057872 0.058477487
-0.041657213 -0.019451577 0.058632188
-0.03487812 -0.018486978 0.058586575
-0.025707403 -0.018720122 0.058517374
-0.019859795 -0.019952426 0.058689937
-0.041124873 -0.07019268 0.060121369
-0.034664407 -0.070879348 0.060148418
-0.026468147 -0.070762262 0.060201291
-0.05191642 -0.062219951 0.060141142
-0.045078423 -0.066822886 0.060182072
-0.038480703 -0.069342263 0.060179409
-0.022937732 -0.068589963 0.060175583
-0.015089884 -0.064038888 0.06024247
-0.0096185412 -0.060426883 0.060075719
-0.0553031 -0.055280142 0.060202483
-0.010999937 -0.057868354 0.060218338
-0.0078044017 -0.05440579 0.060192257
-0.056738831 -0.044647675 0.06022501
-0.0067439959 -0.045101121 0.060250442
-0.054655515 -0.034974061 0.060317967
-0.01105946 -0.032357484 0.060150377
-0.0080882553 -0.036457133 0.060193125
-0.051244896 -0.028634377 0.060208771
-0.04487757 -0.024350489 0.060217004
-0.036128718 -0.02117468 0.060266331
-0.02403092 -0.021260368 0.06025907
-0.016093049 -0.026028112 0.060182437
-0.033671614 -0.019252703 0.060322575
-0.027268428 -0.019496247 0.060297359
