# .PCD v0.7 - Point Cloud Data file format
VERSION 0.7
FIELDS x y z
SIZE 4 4 4
TYPE F F F
COUNT 1 1 1
WIDTH 223
HEIGHT 1
VIEWPOINT 0 0 0 1 0 0 0
POINTS 223
DATA ascii
0.0011864415 -0.083565526 -9.0790973e-06
0.0075519248 -0.065284759 -6.326798e-05
0.0063620401 -0.059032809 -1.7502925e-05
-0.030692887 -0.090393275 0.0085923616
-0.02414109 -0.091952175 0.007027518
-0.015067766 -0.092490636 0.0059346128
-0.0064844065 -0.091762982 0.0071771056
0.00024574518 -0.090158388 0.0092543
-0.03351593 -0.084156998 0.0063304068
-0.025227301 -0.08578518 0.0053276801
-0.015107003 -0.085616425 0.0060335216
-0.004595879 -0.085526109 0.0054800794
0.0034624625 -0.083385341 0.0059084073
-0.04125905 -0.073838145 0.0080405325
-0.03583727 -0.074986875 0.0055243024
-0.024927475 -0.07502003 0.0065350132
-0.01504262 -0.075101972 0.0063964906
-0.005035033 -0.075031936 0.0065256949
0.0055243974 -0.075067468 0.0053875074
0.011210409 -0.073654465 0.0079444833
-0.041578572 -0.065303065 0.0080373744
-0.036084443 -0.064963236 0.0053720851
-0.025093833 -0.064948842 0.0064387377
-0.014921128 -0.064935945 0.006293972
-0.0049638888 -0.064942591 0.0063796174
0.0059074485 -0.064891428 0.005353489
0.011362089 -0.065458015 0.0077015888
-0.040834166 -0.057384126 0.0084063904
-0.03483627 -0.055094872 0.0055254605
-0.025104843 -0.054847378 0.0065144114
-0.015024017 -0.05494117 0.0064771045
-0.0048499685 -0.054841086 0.006480135
0.0045295767 -0.055222493 0.0053762766
0.010516199 -0.058621041 0.0087272543
-0.032661173 -0.047795378 0.0071485308
-0.024797028 -0.045635413 0.0056032208
-0.014846765 -0.044725854 0.0056349575
-0.0053077592 -0.046041057 0.0055961809
0.0023043551 -0.048025623 0.0073626507
-0.020078842 -0.03998103 0.0090683075
-0.016334137 -0.039941989 0.0089482162
-0.030809013 -0.09052252 0.015486713
-0.024714958 -0.092604756 0.015017467
-0.015035978 -0.094139442 0.014964388
-0.0054667313 -0.092352733 0.015053266
0.00038170654 -0.090232484 0.014955612
-0.040142629 -0.080321126 0.017091906
-0.035321787 -0.085188128 0.014980675
-0.029071018 -0.089385748 0.014444332
-0.0012923969 -0.089064673 0.014607843
0.0047234711 -0.084883146 0.015010219
-0.041584089 -0.074271545 0.015121476
-0.038983457 -0.077875316 0.014782052
0.0089101782 -0.075665645 0.014901012
0.011373866 -0.074303277 0.014990069
-0.042056262 -0.064989194 0.015006872
0.0095980419 -0.064653836 0.015027234
0.011723793 -0.065218471 0.015029551
-0.040963102 -0.057397366 0.015190223
-0.037407614 -0.053527117 0.015000742
-0.00067530276 -0.050847467 0.018328259
0.006317487 -0.054239467 0.014974427
0.010752207 -0.058189362 0.015262417
-0.033122815 -0.047175646 0.0149513
-0.025185071 -0.04340082 0.014989414
-0.01468691 -0.044562485 0.014800903
-0.004857026 -0.043903619 0.015002728
0.0030055775 -0.047156729 0.014633019
-0.020261299 -0.039950337 0.015705725
-0.015316672 -0.039771739 0.015087801
-0.030978806 -0.090576813 0.025114246
-0.024717953 -0.092687652 0.025008541
-0.015032567 -0.094309397 0.025062157
-0.0053906199 -0.092505679 0.025038535
0.00046806686 -0.090365298 0.024954325
-0.040205706 -0.080420256 0.025178224
-0.035361741 -0.085381985 0.025017777
-0.029390968 -0.089577496 0.024709817
-0.0012504266 -0.089231789 0.024661027
0.0048425319 -0.084904574 0.024912111
-0.041620936 -0.074404001 0.02497947
-0.039177142 -0.078135014 0.024923457
0.0090492032 -0.075845078 0.024788423
0.01130959 -0.074270904 0.025300268
-0.042172641 -0.064979158 0.025090329
0.009461592 -0.064610578 0.024579797
0.011698022 -0.06517645 0.025246494
-0.041114025 -0.057416163 0.025036341
-0.036924552 -0.053090032 0.025039308
-0.0014732777 -0.051439282 0.024642836
0.0057083145 -0.055111252 0.025003538
0.010748918 -0.057955634 0.02507665
-0.033398315 -0.046928167 0.024702663
-0.025286309 -0.044969331 0.025056634
-0.015025411 -0.047102083 0.025147416
-0.0054724542 -0.044637233 0.024815435
0.0031399233 -0.046747904 0.025017815
-0.020500414 -0.039910313 0.025586957
-0.015125779 -0.039619558 0.025050569
-0.0099176811 -0.03998448 0.027014911
-0.031042563 -0.090686888 0.034865785
-0.024864307 -0.092790842 0.035009816
-0.014991362 -0.0944352 0.034842793
-0.0053436947 -0.092624053 0.03498356
0.00056527683 -0.090425931 0.035352096
-0.04022976 -0.080429927 0.034991995
-0.035498295 -0.085394792 0.035039157
-0.029528972 -0.089680031 0.034703303
-0.0011013005 -0.089293942 0.034975372
0.0049505378 -0.084986106 0.034937683
-0.041688476 -0.074425042 0.035092983
-0.039313078 -0.078453325 0.034951642
0.0090247532 -0.076954596 0.034750652
0.011074699 -0.074033581 0.034945615
-0.042236209 -0.065018319 0.034944642
0.009302807 -0.061888859 0.033700675
0.011518073 -0.065635882 0.035122104
-0.041164074 -0.057385743 0.035135977
-0.037905954 -0.053229332 0.034841582
-0.00038464885 -0.050330095 0.030821774
0.0065613356 -0.054094207 0.034856297
0.010795938 -0.057814233 0.035011373
-0.033307333 -0.047030326 0.035183985
-0.025386157 -0.043093789 0.034933627
-0.014907107 -0.042771947 0.03451363
-0.0047877757 -0.043751307 0.035001721
0.0030117587 -0.047346357 0.035410102
-0.020729559 -0.039876316 0.035200916
-0.015004052 -0.039532542 0.034925956
-0.0097063435 -0.039950941 0.035927467
-0.031197442 -0.090740338 0.045283794
-0.024947686 -0.092881039 0.044987801
-0.014985998 -0.094605662 0.04496967
-0.0053382283 -0.092743054 0.044996489
0.00064842659 -0.090550356 0.045124874
-0.040310401 -0.080594048 0.045338221
-0.035660889 -0.085420452 0.044932503
-0.029596524 -0.089773297 0.04462992
-0.00098683173 -0.089364283 0.044956893
0.0051235547 -0.084986165 0.045141187
-0.041790504 -0.074479565 0.045042939
-0.039356828 -0.078582183 0.044787791
0.0090196412 -0.077349149 0.044797864
0.011147571 -0.073899001 0.044941522
-0.042423852 -0.065031514 0.044941369
0.0098435031 -0.060564082 0.044342164
0.011517234 -0.065157764 0.045089774
-0.041159585 -0.057393655 0.0450675
-0.03822232 -0.052988611 0.045004796
0.0076249451 -0.054041967 0.044984177
0.010886331 -0.05771688 0.045098964
-0.033508968 -0.046807498 0.044973321
-0.025539907 -0.042346876 0.044974636
-0.014965721 -0.041282069 0.045099422
-0.0046291943 -0.042789731 0.044998009
0.0029835424 -0.047366619 0.045147803
-0.020924382 -0.039805744 0.045553889
-0.01504233 -0.039429825 0.044938117
-0.0094539942 -0.039893303 0.045403674
-0.031155594 -0.090856142 0.055057708
-0.024969045 -0.093000829 0.054953791
-0.015014758 -0.094749309 0.054939985
-0.0052417726 -0.092782781 0.055022392
0.00080893998 -0.090683676 0.055164509
-0.040446822 -0.080773912 0.055320244
-0.03560761 -0.085611135 0.055033952
-0.029703077 -0.089779876 0.054821923
-0.00084575836 -0.089457095 0.054582197
0.0052297669 -0.085091017 0.054923795
0.010001715 -0.080037698 0.058385909
-0.041969046 -0.074523665 0.05509986
-0.039430022 -0.07875596 0.054976545
0.0089704366 -0.077278249 0.054857783
0.011284501 -0.074067481 0.055008173
-0.042595804 -0.064898089 0.054985642
0.0099194339 -0.060379244 0.05424602
0.01163327 -0.065096602 0.055000182
-0.041137375 -0.057177119 0.055234186
-0.038275324 -0.052782834 0.054826848
0.0078238184 -0.053949501 0.055056028
0.010956 -0.057590704 0.055156965
-0.03360457 -0.046753 0.055013891
-0.025601313 -0.042215727 0.05497849
-0.015002316 -0.040983725 0.054952975
-0.0045719459 -0.042557281 0.054989573
0.0029538765 -0.047156688 0.054979775
-0.021307269 -0.039711818 0.055112496
-0.01503555 -0.039267328 0.05509473
-0.0092832139 -0.039837938 0.055425551
-0.032996289 -0.092209756 0.063675657
-0.025172187 -0.0946863 0.063156858
-0.015149843 -0.096401647 0.063122325
-0.0048584598 -0.094408989 0.063340724
0.0026708276 -0.091928273 0.063683666
-0.041803394 -0.083157472 0.063618749
-0.036404967 -0.086251304 0.063071005
-0.02973544 -0.089844689 0.061784159
-0.00047305803 -0.089506857 0.061802752
0.0061200452 -0.085849434 0.063134409
0.01148747 -0.082651481 0.063939713
-0.043484379 -0.075027481 0.063054398
-0.039605659 -0.079198278 0.061616506
0.0087757912 -0.07737232 0.062543914
0.012828593 -0.074566089 0.063501544
-0.044382326 -0.064911254 0.063054495
0.0099666994 -0.060123656 0.060918383
0.013045738 -0.065006196 0.063415401
-0.042613391 -0.05568279 0.063363522
-0.038462315 -0.052332379 0.062687337
0.0082784779 -0.053496253 0.062765189
0.012131577 -0.055945035 0.0637343
-0.040883843 -0.048880033 0.063650355
-0.034578629 -0.045608912 0.063432261
-0.025802437 -0.041829191 0.062915727
-0.015200218 -0.040728919 0.062518105
-0.0041571609 -0.042084239 0.06289579
0.0043393853 -0.045794867 0.06340538
0.010433375 -0.049282733 0.063415438
-0.030921731 -0.039481778 0.063764356
-0.024039097 -0.038339056 0.063694015
-0.014974169 -0.037925005 0.063503593
-0.0060318466 -0.038410883 0.063866451
0.0004725733 -0.03969074 0.063640296
