# .PCD v0.7 - Point Cloud Data file format
VERSION 0.7
FIELDS x y z
SIZE 4 4 4
TYPE F F F
COUNT 1 1 1
WIDTH 356
HEIGHT 1
VIEWPOINT 0 0 0 1 0 0 0
POINTS 356
DATA ascii
-0.0013332547 -0.00029730919 -1.1232228e-05
0.018582311 -0.0045976569 -7.804342e-05
0.02518763 -0.0029657006 -0.0002077078
0.030496996 -0.00051595486 -8.5641383e-05
-0.011013707 0.008617226 -0.00015551936
-0.0076854401 0.0047159768 -0.0001351891
0.038255781 0.0067661996 -9.2670984e-05
0.040464215 0.0091337981 -0.00010976358
-0.014411328 0.014522193 -0.00013074982
0.042223491 0.012338356 -6.4643595e-05
-0.016878337 0.021184994 -0.00013648265
0.04649559 0.027208276 -6.9558337e-05
0.045673214 0.034224648 -0.00010701834
-0.012410257 0.046752874 -0.00018864121
-0.0095322691 0.049845699 -0.0002854901
0.038589451 0.048162721 -0.00013628654
0.042370897 0.043210734 -0.00011004473
-0.0043928884 0.05363927 -0.00018916481
0.0044474751 0.05826078 -9.8574463e-05
0.015455681 0.05973915 -0.00012401016
0.020357367 0.059419733 -4.8235244e-05
0.035356086 0.051917624 -0.00011326423
0.0094467066 0.060177539 -0.00010887475
0.012178013 0.060100541 -0.00012989581
-0.0034091079 -0.001984556 0.0066100918
0.0052493871 -0.0038213937 0.0052698692
0.01491593 -0.0047906758 0.0053571342
0.024842516 -0.0034514458 0.0053479988
0.032773688 -0.001898228 0.0070109381
-0.012751301 0.006607838 0.0063739093
-0.0054229097 0.004595119 0.0051729931
0.0049141529 0.0049179415 0.0063956371
0.015035991 0.0049669603 0.006459346
0.025150904 0.004808763 0.0063056848
0.035246957 0.0046168691 0.0050628674
0.042299204 0.0070763598 0.0068250946
-0.020833099 0.017683726 0.0077436147
-0.014936185 0.01502212 0.0054254648
-0.0050826543 0.014956046 0.0066349632
0.0049630133 0.014763039 0.0063917958
0.01503919 0.014839553 0.0062505207
0.025144959 0.014989628 0.0062695937
0.035012271 0.014958906 0.0064762826
0.04445364 0.01508616 0.0053387582
0.050342783 0.019051434 0.0083508436
-0.021676751 0.024759321 0.0075161448
-0.015869072 0.025034925 0.0054429984
-0.005014217 0.024905095 0.006674476
0.0049545667 0.024971964 0.0064542294
0.015101567 0.024926096 0.0062567145
0.025031673 0.024909431 0.0062856507
0.035112873 0.025020426 0.0065861549
0.045481049 0.024924273 0.0051732357
0.050650526 0.024961013 0.0081117451
-0.02131642 0.034362502 0.007984235
-0.015650058 0.035120677 0.0055528251
-0.0050799679 0.035043824 0.0066284859
0.0051319827 0.035045933 0.0063775117
0.014981864 0.035040412 0.0061699571
0.025048316 0.03514662 0.0063931243
0.034888394 0.034966126 0.006638031
0.045324925 0.035053175 0.0053333719
0.05063168 0.034036603 0.008422168
-0.020102281 0.040328853 0.0091542508
-0.014022255 0.044696659 0.0055297622
-0.0052360347 0.045211136 0.0063322908
0.0050311773 0.045069877 0.0062771859
0.014984906 0.045028564 0.0062502553
0.025224948 0.044857293 0.006316103
0.035584033 0.045488827 0.0058899461
0.043481924 0.044203404 0.0056240619
-0.011948781 0.052025411 0.0080067441
-0.0047022095 0.054376107 0.0054282732
0.0047376598 0.055865593 0.0052347481
0.015005616 0.055679213 0.0055540563
0.025209166 0.055808652 0.0050994558
0.034432646 0.054251235 0.0056859301
0.041349776 0.05195 0.0081153009
-0.0016758586 0.060986128 0.0080161002
0.0056074657 0.061810914 0.0070244884
0.014951794 0.062203262 0.0060065733
0.02379436 0.061820168 0.0073183407
0.030573569 0.060402341 0.0085048936
-0.0041962136 -0.0028971361 0.014900906
0.004835444 -0.0064204689 0.014974882
0.014979484 -0.0074408893 0.014913627
0.025123175 -0.0062626586 0.014996927
0.033789571 -0.0025769488 0.015062573
-0.013583431 0.0055766259 0.014638526
-0.0071057733 0.0034997228 0.015444556
0.037921522 0.0016567656 0.014903078
0.04314708 0.0062022223 0.015015802
-0.020973338 0.017232276 0.015037935
-0.015717445 0.014077405 0.015009996
0.04750951 0.014308514 0.014958031
0.050339229 0.018697148 0.015290519
-0.02235858 0.024988316 0.0150074
-0.017470071 0.02502564 0.014850643
0.049052324 0.024980793 0.015009447
0.051090006 0.02503773 0.015004104
-0.021690834 0.035006955 0.014910502
-0.018459173 0.034969505 0.014918313
0.04870959 0.035699259 0.015046116
0.050863426 0.034196682 0.015297931
-0.020202639 0.040595483 0.015282751
-0.016541904 0.045524068 0.014939859
0.045585629 0.045193616 0.014986176
-0.012372226 0.052394953 0.014991853
-0.0057029654 0.055646449 0.014919325
0.0013307479 0.058716882 0.015577056
0.029079013 0.059571832 0.015003174
0.035491895 0.056381449 0.015001434
0.04162642 0.052115157 0.015036098
-0.0020169811 0.061069611 0.015154957
0.0054006083 0.062737167 0.014896385
0.015030796 0.063797079 0.014999992
0.024721438 0.062418755 0.014938232
0.031227531 0.060672734 0.015506942
-0.010090187 -6.9814399e-05 0.027886666
-0.0042551262 -0.0029873471 0.025006145
0.004948976 -0.0067587513 0.025033655
0.0150145 -0.0076532164 0.024975482
0.025167825 -0.0063974992 0.025026547
0.034012839 -0.0025828285 0.02503702
-0.013642191 0.0056558177 0.025402145
-0.0080542741 0.0029360468 0.023974381
0.038303092 0.0017664152 0.02479906
0.043146335 0.0059627895 0.025069453
-0.021054834 0.017093288 0.025127018
-0.017287713 0.014046097 0.024810275
0.047652379 0.014141777 0.024948521
0.050365757 0.018572764 0.025287537
-0.022181232 0.024614835 0.025190055
-0.01830129 0.025185648 0.024477948
0.048986025 0.024999168 0.025124542
0.051316231 0.0250732 0.024945313
-0.021846233 0.035023551 0.024977067
-0.017953848 0.034953196 0.025079206
0.048848715 0.035409845 0.024933605
0.050970569 0.034464553 0.024971243
-0.020298539 0.040963471 0.025350755
-0.016650843 0.045644231 0.024970895
0.046092756 0.045197677 0.025044285
-0.012412321 0.052428544 0.02507795
-0.0055736871 0.055556763 0.025034225
0.00080979441 0.058643587 0.023792662
0.029008597 0.059622802 0.024437729
0.035258088 0.055499878 0.025098378
0.041972872 0.052002445 0.024978133
-0.0021958565 0.061123785 0.025101494
0.0052232961 0.062781207 0.025042649
0.015111021 0.063927174 0.025050279
0.024662266 0.062510677 0.02499086
0.031570446 0.060892805 0.025063742
-0.010177206 -0.00015732288 0.036363866
-0.0045609493 -0.0030763701 0.035055764
0.0048586498 -0.0068918783 0.034858774
0.014965066 -0.0082029374 0.034993824
0.025113488 -0.0066030193 0.035054691
0.034001879 -0.0026895297 0.0349099
-0.013879343 0.0053337831 0.034945242
-0.0084523242 0.0011517463 0.034876265
0.038397666 0.0015071838 0.035021301
0.043305576 0.0058997469 0.035109151
-0.021034811 0.016772317 0.035078231
-0.018352089 0.014002045 0.034837574
0.047843374 0.014272079 0.035032991
0.050515417 0.018354233 0.035138331
-0.021639345 0.024866913 0.035227817
-0.019606963 0.026796503 0.031211903
0.049365159 0.024979157 0.034996904
0.051491562 0.024954472 0.035129499
-0.021705816 0.034352697 0.035415608
-0.019212857 0.035743795 0.034247793
0.049091127 0.035389468 0.034906827
0.051095564 0.034577928 0.035015628
-0.020412622 0.041150678 0.035267826
-0.016920045 0.045544177 0.035009187
0.046285402 0.045220632 0.035019998
-0.012388735 0.052646007 0.035148177
-0.0061196201 0.057097368 0.034892131
0.00021853491 0.059656668 0.031614155
0.029519932 0.059749167 0.034512371
0.035634082 0.056290299 0.034798883
0.042039104 0.052097827 0.035189051
-0.0021754308 0.061139893 0.035217471
0.004991245 0.062962614 0.035031628
0.015107241 0.064183414 0.035031207
0.024838286 0.062689342 0.035074197
0.031799816 0.060990922 0.03486672
-0.010263808 -0.00023194669 0.044882122
-0.0045830896 -0.003193039 0.045010909
0.0048858919 -0.0071154386 0.04493669
0.014998659 -0.0084217032 0.045070942
0.024902632 -0.0067435373 0.044984657
0.034076124 -0.002878661 0.044926215
-0.014036596 0.0053294962 0.04500803
-0.0085674645 0.0011178197 0.044783626
0.038328171 0.0013878271 0.044912547
0.043387111 0.0057382975 0.04498928
-0.021072449 0.016766144 0.044957653
-0.018480649 0.013903757 0.044898916
0.047916286 0.01423869 0.045018118
0.050681442 0.018126162 0.045146886
-0.021738058 0.024865605 0.044947907
0.049629495 0.024444643 0.044547569
0.05146889 0.025473671 0.045264326
-0.021545636 0.034295309 0.044997495
-0.019482234 0.037834678 0.044917144
0.049245466 0.035292897 0.044948075
0.051175982 0.034782708 0.044948988
-0.020526703 0.041192651 0.045089003
-0.017027497 0.045627605 0.044925269
0.046472531 0.045149043 0.044880759
-0.012495442 0.05279154 0.045059606
-0.0063277441 0.057486888 0.044921994
0.029793659 0.059929837 0.04365129
0.03596798 0.056934837 0.044895329
0.042153236 0.052235316 0.044973906
-0.0020892341 0.061130513 0.045004942
0.0049509844 0.06313666 0.045034353
0.015125087 0.064356953 0.044959195
0.025082838 0.062859327 0.045114387
0.031918731 0.061102714 0.044977594
-0.010427034 -0.00039717226 0.055762619
-0.0046041128 -0.0033375849 0.055059846
0.0050907512 -0.0073088645 0.055027246
0.014958039 -0.0085297981 0.055014145
0.025097653 -0.0069223749 0.05506058
0.034223232 -0.0029378387 0.055039149
-0.014172137 0.0052585346 0.054949723
-0.0088045234 0.00099367136 0.054982763
0.038391192 0.0014104465 0.054969698
0.043389026 0.0055380771 0.055020619
-0.02116137 0.016844811 0.055070411
-0.018573305 0.013743361 0.054968245
0.047998276 0.014166861 0.055002272
0.050728343 0.017795555 0.055151723
-0.021863449 0.024883239 0.054979917
0.049651075 0.02282179 0.054571781
0.051270798 0.02564913 0.055190422
-0.021631638 0.034434799 0.055044148
-0.019575313 0.03836501 0.054554429
0.049297169 0.035797596 0.054552171
0.051079892 0.034472603 0.055215511
-0.020645592 0.041506607 0.055576127
-0.017251305 0.045719039 0.055050295
0.046676058 0.04522673 0.05492302
0.050090395 0.040259752 0.057706475
-0.012608817 0.052891303 0.055039052
-0.0064422884 0.057643529 0.055001777
0.036055103 0.057171199 0.054984245
0.042285938 0.052311163 0.054986402
-0.0023307353 0.06116369 0.055077821
0.0049353936 0.063307375 0.055071019
0.015042252 0.064568385 0.054962527
0.025083117 0.06304536 0.054908782
0.031987194 0.061097175 0.05505202
-0.0028729371 -0.011034446 0.068750761
0.0050202827 -0.01253769 0.069187067
0.014729124 -0.01253954 0.068484373
0.024591602 -0.012199362 0.069153935
0.031747989 -0.010695423 0.069212608
-0.012229884 -0.0024402449 0.068121977
-0.0049442654 -0.0042475266 0.065645322
0.0047716079 -0.0074564177 0.06498827
0.01528076 -0.0086094253 0.064771906
0.025163284 -0.007208053 0.06530863
0.034547172 -0.0037906009 0.065780781
0.042955749 -0.0026481883 0.069266796
-0.021300858 0.0066855196 0.069368273
-0.014723017 0.0049938969 0.065494694
-0.0089616338 0.00090427138 0.064535432
0.038579725 0.0012966808 0.065091327
0.044278115 0.0051990282 0.066008881
0.051370855 0.007284604 0.068469442
-0.022545045 0.016204689 0.066588648
-0.018559758 0.013239724 0.064735174
0.048081193 0.014008895 0.065109968
0.052358944 0.016509868 0.067153282
-0.022992866 0.024819441 0.065801494
0.04971379 0.021475514 0.064219899
0.052259438 0.025331266 0.066208489
-0.022842566 0.034645379 0.066005871
-0.019713392 0.038964156 0.064374387
0.049250655 0.037091862 0.065056138
0.051990122 0.034441743 0.066127256
-0.022492101 0.043844294 0.067357644
-0.017449465 0.045786496 0.065062724
0.046833031 0.045570724 0.065175109
0.052012715 0.043658797 0.068372436
-0.021086682 0.051304575 0.068733461
-0.013639883 0.05388302 0.066144057
-0.0067836209 0.057756513 0.065015584
0.036323644 0.057305824 0.064959474
0.043494157 0.053304296 0.066410162
0.050235461 0.050416857 0.069306344
-0.011448813 0.061254393 0.068958022
-0.0034888857 0.062734194 0.06683664
0.0049118078 0.064224444 0.065870062
0.014990723 0.065276384 0.065783717
0.025082095 0.064185344 0.065935984
0.033190604 0.062543392 0.067016155
0.041132588 0.060876582 0.06951341
0.0080333557 0.070385881 0.069452614
0.014710105 0.070648782 0.069557719
0.021637674 0.070205361 0.069489166
-0.0022825941 -0.010951007 0.071281083
0.0055451323 -0.012288921 0.071634345
0.014877313 -0.012660003 0.071777396
0.024681348 -0.012448501 0.071933918
0.031769898 -0.010698293 0.071571611
-0.01290653 -0.0026935765 0.071703792
-0.0054524587 -0.0052697915 0.07165011
0.0046592169 -0.0079791341 0.071492285
0.014847513 -0.0087955836 0.07137794
0.025047487 -0.0080145886 0.071575865
0.035695378 -0.0051922766 0.071506009
0.042575475 -0.0026898913 0.07168404
-0.022251511 0.0070825936 0.071574368
-0.015659295 0.0043299911 0.071540751
-0.009304639 0.00066100218 0.07099057
0.039404627 0.0010215673 0.07073538
0.045495179 0.0045308592 0.071926475
0.051340207 0.0074743568 0.071507283
-0.023136547 0.015434587 0.071669139
-0.018714679 0.012289548 0.071062475
0.048543677 0.01378581 0.071134016
0.052668955 0.015810341 0.071750194
-0.025039587 0.024826303 0.071815096
0.049801923 0.020664653 0.070516929
0.053424526 0.024987629 0.071606643
-0.02423037 0.035356645 0.071772799
-0.01977806 0.039285585 0.070725545
0.049374416 0.037896324 0.071270056
0.053051073 0.034924515 0.071520813
-0.022446383 0.044080686 0.071677528
-0.018154114 0.046660781 0.071342051
0.04747637 0.045816228 0.071337491
0.052372925 0.044290196 0.071775481
-0.020898556 0.051346909 0.071216635
-0.014617579 0.054635525 0.071584076
-0.0079138335 0.058410492 0.071116991
0.037081994 0.05788295 0.071271345
0.04421353 0.054419797 0.071685277
0.050432317 0.050805025 0.071565285
-0.012038793 0.061829884 0.071475931
-0.0043577068 0.063419461 0.071645632
0.0046920222 0.065717384 0.071588099
0.014825785 0.066500977 0.07185033
0.025117379 0.06573572 0.071725495
0.034079328 0.062907971 0.071548253
0.041179415 0.061044704 0.071116842
0.0082944902 0.0705043 0.070771962
0.014770757 0.070584379 0.070855126
0.020715112 0.070178047 0.070385784
