# .PCD v0.7 - Point Cloud Data file format
VERSION 0.7
FIELDS x y z
SIZE 4 4 4
TYPE F F F
COUNT 1 1 1
WIDTH 50
HEIGHT 1
VIEWPOINT 0 0 0 1 0 0 0
POINTS 50
DATA ascii
-0.021110032 -0.020984333 -6.5760665e-05
-0.016355697 -0.022150757 -8.8675879e-05
-0.031848468 -0.012387616 -7.9465026e-05
-0.024634397 -0.01444649 -0.00010044644
-0.015107359 -0.014920033 -8.087555e-05
-0.0084095243 -0.012436586 -7.7830875e-05
-0.031353515 -0.0077717053 -0.00011139231
-0.024841649 -0.0051116119 -0.00014432754
-0.014988265 -0.0049809678 -0.00012451947
-0.0072457069 -0.0058524297 -9.4462317e-05
-0.02288059 0.0030479992 -0.00015515098
-0.01663781 0.0021677655 -0.00013536107
-0.009966136 6.4309083e-05 -7.1497461e-06
-0.02247159 -0.021578513 0.004842394
-0.015017918 -0.023801435 0.0048842174
-0.033788439 -0.013707886 0.0048703509
-0.027424905 -0.01836144 0.0048370766
-0.010557547 -0.019137597 0.0047501735
-0.0073259082 -0.014158471 0.004975379
-0.032391652 -0.0063676392 0.0049101962
-0.029140504 -0.0013738711 0.0048824567
-0.0044301921 -0.0044739302 0.0048016533
-0.02452161 0.0050778096 0.0048904624
-0.01503174 0.0038636194 0.0048673172
-0.0095559936 0.00030191484 0.0051531317
-0.022446804 -0.021564074 0.015024578
-0.014958113 -0.023852484 0.014977921
-0.033787034 -0.013700069 0.014994283
-0.027486574 -0.018336967 0.015020058
-0.010430298 -0.019296216 0.014944442
-0.0072035566 -0.014259911 0.015020742
-0.032327611 -0.0064252899 0.014953765
-0.029075615 -0.0014420758 0.015116188
-0.0043353401 -0.0044430443 0.015029675
-0.024493966 0.0050692176 0.015000722
-0.014977977 0.00388318 0.015008914
-0.0095221484 0.00030874531 0.01494463
-0.022294963 -0.021479664 0.023059037
-0.015234644 -0.023312707 0.023513688
-0.033227187 -0.013323656 0.023520647
-0.025441777 -0.015534731 0.024660511
-0.014688027 -0.015272595 0.025175735
-0.0074829506 -0.013897531 0.023398554
-0.032120824 -0.0068686809 0.023316229
-0.025557416 -0.0045369607 0.024940392
-0.014995646 -0.0049934462 0.025328256
-0.0053429152 -0.0050350046 0.023694485
-0.02381051 0.0043621347 0.023622291
-0.015567984 0.0033580209 0.023552461
-0.0095164059 0.00031275439 0.022383982
