# .PCD v0.7 - Point Cloud Data file format
VERSION 0.7
FIELDS x y z normal_x normal_y normal_z curvature
SIZE 4 4 4 4 4 4 4
TYPE F F F F F F F
COUNT 1 1 1 1 1 1 1
WIDTH 217
HEIGHT 1
VIEWPOINT 0 0 0 1 0 0 0
POINTS 217
DATA ascii
-0.015765412 -0.025319029 -0.00012402896 -0.099125139 -0.28873593 -0.95226347 0
-0.014781617 -0.025271658 -6.9371199e-05 0.38965222 -0.29110235 -0.87374514 0
-0.021556767 -0.020993328 -8.0922844e-05 -0.038957044 -0.02172995 -0.99900454 0
-0.017339522 -0.022241121 -0.00010485751 -0.0073044756 0.00061186712 -0.99997306 0
-0.013808657 -0.021851419 -7.78619e-05 0.054188583 -0.022634333 -0.99827421 0
-0.030625874 -0.015429183 -5.8012283e-05 -0.16464421 -0.19906399 -0.96605688 0
-0.027111098 -0.016678175 -0.00011710381 -0.027701886 -0.040497027 -0.99879563 0
-0.022339627 -0.017606542 -6.2286643e-05 0.0073977616 -0.010130911 -0.99992126 0
-0.017512059 -0.017603643 -6.078351e-05 -0.0029290181 -0.0012472459 -0.99999493 0
-0.012547123 -0.017344739 -7.5410506e-05 0.0072014211 -0.012545995 -0.99989539 0
-0.0093848612 -0.015899245 -8.4364598e-05 0.14973646 -0.11017571 -0.98256826 0
-0.035087079 -0.011950823 -2.6084457e-05 -0.34709689 0.094240941 -0.93308222 0
-0.032247741 -0.012296812 -9.9274366e-05 -0.031101333 -0.016070932 -0.99938697 0
-0.027468156 -0.012372512 -0.00011523074 -0.0027514659 0.00054287876 -0.99999613 0
-0.022506634 -0.012561257 -0.0001099459 0.0095443837 -0.0095070936 -0.99990928 0
-0.017541435 -0.012503453 -8.5656204e-05 -0.00087448081 -0.0060619377 -0.99998128 0
-0.012497018 -0.012511684 -9.9803787e-05 -0.0038865698 -0.0040182788 -0.99998438 0
-0.0083095711 -0.012105996 -9.2362658e-05 0.026114112 -0.012799597 -0.99957705 0
-0.031566739 -0.0080838613 -0.00012855045 -0.055905968 0.025061252 -0.9981215 0
-0.027481731 -0.0074725333 -0.00013455116 0.003983405 -0.0057292725 -0.99997556 0
-0.022515275 -0.0074419724 -0.00014347404 -0.003450566 -0.0034600166 -0.99998808 0
-0.017514588 -0.0074843359 -0.00011747689 0.0081893988 -0.0060202121 -0.99994832 0
-0.012554421 -0.0074996511 -0.00011651364 -0.0021662507 -0.00074718898 -0.99999732 0
-0.0074921562 -0.0074533001 -0.00010473884 0.0056346273 -0.0059793801 -0.99996626 0
-0.0039522368 -0.0065644742 -8.3125022e-05 0.067482896 -0.025161041 -0.99740309 0
-0.030351043 -0.0043726983 -9.3996779e-05 -0.23243937 0.14553425 -0.96166092 0
-0.02715221 -0.0027088518 -0.00015791265 -0.017741479 0.007796865 -0.99981219 0
-0.022380067 -0.0024572385 -0.00014836161 -0.0039625755 -0.00087317836 -0.99999177 0
-0.017474981 -0.0024905289 -0.00015310239 0.0063173436 -0.0060829828 -0.99996156 0
-0.012574805 -0.0025832008 -0.0001172398 0.002716633 0.001406275 -0.99999535 0
-0.0077625792 -0.0031387354 -0.00011068476 0.02006809 0.025523074 -0.99947274 0
-0.0039884425 -0.0044267033 -5.8622856e-05 0.069832303 0.09020739 -0.99347174 0
-0.026010258 0.001415808 -0.00015724004 -0.13407408 0.09438929 -0.98646581 0
-0.022481402 0.0024685641 -0.00016762801 -0.0026924869 -0.0011738917 -0.99999565 0
-0.017701462 0.0023819103 -0.00016833682 0.0097618205 0.023118597 -0.99968511 0
-0.013446251 0.0012852317 -0.00011299069 0.060055815 0.055968992 -0.99662465 0
-0.0099356938 1.8619661e-05 -5.072929e-05 0.14639051 0.29054528 -0.94559675 0
-0.021892246 0.0063949409 -0.00014844142 -0.02046271 0.10537726 -0.99422175 0
-0.019266222 0.0056417198 -0.00013111762 0.11756251 0.14476904 -0.98245662 0
-0.016124407 -0.025727771 0.0025511172 -0.40661886 -0.91253752 -0.044004407 0
-0.014542893 -0.025539881 0.0026705028 0.83198559 -0.5529654 -0.045047287 0
-0.025003863 -0.020029031 0.0012458297 -0.55996048 -0.82690573 0.051683102 0
-0.022499269 -0.021600889 0.0024278357 -0.54513121 -0.83638102 -0.057435244 0
-0.018644545 -0.024113683 0.002471243 -0.54947549 -0.83421361 -0.046522796 0
-0.012758466 -0.022526035 0.0024540918 0.84786439 -0.52627617 -0.064492941 0
-0.031297356 -0.015855225 0.0022952578 -0.54605895 -0.83218509 -0.096371695 0
-0.02752097 -0.018335924 0.0024215207 -0.54516941 -0.83659512 -0.053842228 0
-0.024856923 -0.019946976 0.002270296 -0.49550015 -0.80745673 -0.32014555 0
-0.010575844 -0.01906581 0.0023161215 0.83730119 -0.53867716 -0.093560711 0
-0.0089814551 -0.016630746 0.0025123369 0.83631206 -0.54366988 -0.07074751 0
-0.035640351 -0.012091013 0.0024540534 -0.98890388 -0.0064501246 -0.14841647 0
-0.0339761 -0.013637869 0.0022706394 -0.64815056 -0.74355948 -0.16437794 0
-0.0064774249 -0.012732637 0.0024134719 0.83136529 -0.54301244 -0.11819177 0
-0.0048181498 -0.010289079 0.002655051 0.83018935 -0.55588472 -0.042165812 0
-0.033101276 -0.0074211904 0.0023980767 -0.83395147 0.54488271 -0.087337367 0
-0.0030150884 -0.0075207371 0.002393153 0.84898639 -0.51641309 -0.11198018 0
-0.030743664 -0.0038068464 0.0026466709 -0.83517039 0.54727817 -0.054561965 0
-0.029149894 -0.0013368493 0.0025078838 -0.83991122 0.53822291 -0.069751166 0
-0.0070593036 -0.0013459637 0.0025003452 0.54794306 0.83363277 -0.069388777 0
-0.0032940793 -0.0038281681 0.002477393 0.55403203 0.82826221 -0.083845906 0
-0.026675006 0.0024769092 0.002535257 -0.83659494 0.54461664 -0.059174687 0
-0.024889028 0.0048237084 0.00023282439 -0.71784443 0.46797109 -0.51546335 0
-0.015855685 0.0044109211 0.0024742263 0.54023981 0.83976269 -0.054219268 0
-0.012656621 0.002309907 0.0024271109 0.54596549 0.83485937 -0.070224471 0
-0.0095688505 0.00030869636 0.0025842788 0.54822427 0.83591908 -0.026256217 0
-0.02502737 0.0050613112 0.0032657718 -0.83898532 0.5440461 -0.010836155 0
-0.022679636 0.0073545408 0.0024253663 -0.34707293 0.9344191 -0.080008507 0
-0.018365018 0.0060328487 0.0025002335 0.54502547 0.83492643 -0.076452702 0
-0.01612098 -0.025674988 0.0076743239 -0.46574926 -0.88487977 0.0080924584 0
-0.014495911 -0.025674595 0.0075735878 0.78028345 -0.62524563 -0.015019008 0
-0.022411603 -0.021611705 0.0074107302 -0.54210955 -0.84023613 0.010975522 0
-0.018607611 -0.024074562 0.0075600944 -0.54590225 -0.83779788 0.009243913 0
-0.012570996 -0.022465091 0.0074633216 0.85134172 -0.524005 -0.02522026 0
-0.03132071 -0.0158704 0.0074367472 -0.54275179 -0.83988535 0.0036156692 0
-0.0273984 -0.018408725 0.0075856778 -0.54229468 -0.84018373 -0.0027832107 0
-0.024959974 -0.019975452 0.0081401197 -0.52261466 -0.85254884 0.0058665317 0
-0.010487353 -0.019145951 0.007426925 0.8400197 -0.54223734 -0.018587805 0
-0.0088935448 -0.016672332 0.007489339 0.84042525 -0.54165328 -0.017235832 0
-0.0356659 -0.012031315 0.0075604338 -0.99997884 -0.0060681994 0.0023307744 0
-0.033903636 -0.013831127 0.0075168121 -0.63096809 -0.7757957 -0.0044929096 0
-0.0064348318 -0.012883157 0.0075041633 0.83824891 -0.54493046 -0.01973802 0
-0.0047781328 -0.010360328 0.0078607863 0.83404458 -0.5512991 -0.020951919 0
-0.033127442 -0.0074826018 0.0075882911 -0.83505446 0.55000728 0.013267642 0
-0.0029090301 -0.0075246692 0.0074887639 0.86679405 -0.49845082 -0.014656234 0
-0.030737342 -0.0038076069 0.0073976652 -0.83890235 0.54419833 0.0095447917 0
-0.029148865 -0.0013583027 0.0074592247 -0.83901018 0.54393953 0.013848764 0
-0.006985032 -0.0013573891 0.0074947355 0.55014622 0.83506727 -0.0013291112 0
-0.0032431819 -0.003827201 0.0075854002 0.56893957 0.82236362 -0.005090225 0
-0.026645154 0.0024793514 0.0075838366 -0.8377769 0.54579365 0.015464044 0
-0.024986459 0.0049852226 0.0089887874 -0.84155172 0.54012281 0.0076169372 0
-0.015846597 0.0044283806 0.0074730096 0.53907096 0.84224093 -0.0057187327 0
-0.012429912 0.0022050343 0.0074876836 0.54751354 0.83679545 -0.0015143635 0
-0.0095047038 0.0002980842 0.0074315085 0.54385406 0.8391782 0.0016254985 0
-0.025017507 0.0050606434 0.0053651817 -0.8363052 0.54815829 0.010776136 0
-0.022824675 0.0072164917 0.0074923192 -0.40893388 0.91254258 0.0062467549 0
-0.018340247 0.0060705175 0.0074339556 0.55046642 0.83484757 -0.0040186211 0
-0.016110407 -0.025620729 0.012356209 -0.46383214 -0.88577235 0.016346471 0
-0.014427842 -0.025591802 0.012507941 0.74977189 -0.66166973 -0.0059372997 0
-0.02242068 -0.021561645 0.012513904 -0.53456718 -0.84512568 -0.00078650349 0
-0.018576369 -0.024032317 0.012512461 -0.54335505 -0.83946019 0.0084816627 0
-0.012485694 -0.022513701 0.012470547 0.8510381 -0.52490813 -0.014336576 0
-0.031328842 -0.015839335 0.012592766 -0.54644066 -0.83749783 -9.2359769e-05 0
-0.027429355 -0.01839073 0.012494649 -0.54309487 -0.83966982 0.0015868633 0
-0.024949729 -0.019976852 0.012395542 -0.52131414 -0.85331833 -0.0089149326 0
-0.010479447 -0.019285783 0.012567525 0.84216166 -0.53894198 -0.017472045 0
-0.008857538 -0.016782783 0.012539822 0.83875608 -0.54415679 -0.019532871 0
-0.035654292 -0.011990702 0.012449675 -0.99730062 0.071671046 0.015960198 0
-0.033993702 -0.013540354 0.01250842 -0.69408715 -0.71987301 0.005082434 0
-0.0063519641 -0.012884833 0.012438277 0.8404246 -0.5418725 -0.0077952445 0
-0.0047165873 -0.010381492 0.012440309 0.83107841 -0.55613232 -0.0050505847 0
-0.033059046 -0.0075134463 0.012484116 -0.8324393 0.55398029 0.012273917 0
-0.0028343669 -0.0075362888 0.012521057 0.8608101 -0.50886345 -0.0080001885 0
-0.030729907 -0.0039488054 0.012481041 -0.84221292 0.53896147 0.014067492 0
-0.029117389 -0.001445366 0.012486453 -0.83821589 0.54519081 0.012696636 0
-0.0070680734 -0.0013018445 0.01250321 0.54911751 0.83574384 0.0015151984 0
-0.0032825759 -0.0037876526 0.012469901 0.56427556 0.82558656 0.0001784682 0
-0.026627209 0.0023938988 0.012457786 -0.83985835 0.54271632 0.0098461872 0
-0.024972323 0.0049571618 0.012723609 -0.84239471 0.53882331 0.0063741743 0
-0.015856769 0.004446432 0.012527683 0.54524565 0.83827627 0.00031614321 0
-0.012509491 0.0022644701 0.012485697 0.54691911 0.83718508 -0.00075654703 0
-0.0095289508 0.00031625092 0.01238904 0.54434586 0.83883822 -0.0061683189 0
-0.022753375 0.0072561097 0.012532305 -0.39460593 0.91883713 0.0049597509 0
-0.018413547 0.0061275377 0.012417479 0.54793763 0.83651203 0.0034509792 0
-0.016049996 -0.025655823 0.017491797 -0.4870238 -0.87331069 -0.011670134 0
-0.014399165 -0.025700908 0.017608371 0.74153167 -0.6709156 -0.0017348037 0
-0.022530289 -0.021535803 0.017478099 -0.5359174 -0.8442142 -0.0097450642 0
-0.018486353 -0.024088364 0.017498897 -0.53825259 -0.8427363 -0.0089241359 0
-0.012376714 -0.022456124 0.017532041 0.84704417 -0.53152257 5.2224863e-05 0
-0.031247925 -0.015869891 0.017453283 -0.54994625 -0.83518738 0.0046060709 0
-0.027552918 -0.0182907 0.017498475 -0.54630309 -0.83757341 0.0048679076 0
-0.024968475 -0.019974824 0.017822549 -0.54851007 -0.836124 0.0057730111 0
-0.010405197 -0.0193366 0.017463718 0.84657604 -0.53215116 -0.011141863 0
-0.0088172173 -0.016827174 0.017501941 0.84596545 -0.53323543 -0.0015298409 0
-0.035599474 -0.012059894 0.017560979 -0.99986506 0.013086713 0.0099280216 0
-0.033966433 -0.01353161 0.017517371 -0.69607198 -0.71791339 0.0091750873 0
-0.006383915 -0.012998734 0.0175421 0.83889705 -0.54423106 -0.0080089094 0
-0.004701097 -0.010441369 0.017627344 0.83183193 -0.55489838 -0.011976087 0
-0.033011951 -0.0075174868 0.017514916 -0.83209234 0.55459607 0.0067446269 0
-0.002784017 -0.0075364294 0.017513387 0.86846584 -0.49559247 -0.012462079 0
-0.030674426 -0.0039676931 0.017494453 -0.83136857 0.55558515 0.012311388 0
-0.029064547 -0.0014988551 0.017430499 -0.84102958 0.54069799 0.017745713 0
-0.0069544567 -0.001368615 0.017429225 0.54740983 0.83685046 -0.0048894291 0
-0.0032711565 -0.0037834262 0.01757317 0.56231195 0.82690448 -0.0058506033 0
-0.026549159 0.0024207786 0.017510947 -0.84147805 0.54012239 0.013511059 0
-0.024945132 0.0049081119 0.017712777 -0.83988774 0.54250658 0.016592653 0
-0.015823873 0.0044426494 0.017665282 0.54427844 0.8388707 -0.0075524817 0
-0.012502056 0.0022641504 0.017455254 0.54791188 0.83653545 -0.0010424202 0
-0.0095203612 0.00030749149 0.017565524 0.55383307 0.83262682 -0.0012081212 0
-0.022708928 0.0072935927 0.017475629 -0.40943143 0.9123174 0.0065450598 0
-0.018325977 0.0060819308 0.017538916 0.54739094 0.83687466 -0.002003096 0
-0.016204003 -0.025652977 0.022518095 -0.49308962 -0.86917919 0.037285898 0
-0.014359185 -0.025701966 0.022668825 0.74393022 -0.6681596 0.011427931 0
-0.022505073 -0.021584133 0.022474211 -0.54679447 -0.83726007 0.0033781757 0
-0.018596513 -0.024107182 0.022476887 -0.54206049 -0.840132 0.018671976 0
-0.012319654 -0.02236318 0.022502188 0.84719282 -0.53118843 -0.010154911 0
-0.031259812 -0.015841076 0.022366298 -0.55415618 -0.83230394 0.013454116 0
-0.027539603 -0.018281234 0.022539973 -0.54824007 -0.83564949 0.033506561 0
-0.024958391 -0.019964181 0.02165796 -0.54993141 -0.83520204 0.0035985846 0
-0.01038139 -0.01932466 0.022420187 0.84414417 -0.53611577 -0.00074421655 0
-0.0087806135 -0.016851613 0.022584641 0.83979285 -0.54286176 -0.0070104138 0
-0.035578065 -0.012095112 0.022548767 -0.99960673 -0.013430655 0.024615895 0
-0.03386331 -0.013650212 0.022402216 -0.66704166 -0.74499375 0.006305384 0
-0.0063646408 -0.013115264 0.022479095 0.83763468 -0.54622763 0.0018328466 0
-0.0046284371 -0.010507732 0.022740791 0.83210838 -0.55460906 0.0021201721 0
-0.032970589 -0.0074778544 0.022483872 -0.82864338 0.55977648 -0.00072004943 0
-0.0027081002 -0.0075386181 0.022516161 0.87430066 -0.48449317 0.029407306 0
-0.030660281 -0.0040299315 0.022544945 -0.8303889 0.55714244 0.0068213157 0
-0.028971963 -0.0014792208 0.022572482 -0.83544993 0.54941154 0.01305302 0
-0.007022894 -0.0012949454 0.022542762 0.54729402 0.83642459 0.029379677 0
-0.0031931335 -0.0038014015 0.022468098 0.56789017 0.8220672 0.041307978 0
-0.02650281 0.0023404083 0.022515615 -0.843027 0.53742135 0.02199607 0
-0.024898792 0.0048599406 0.022693187 -0.84780198 0.52969635 0.025564503 0
-0.015842203 0.0044887206 0.022528205 0.54790968 0.83577389 0.035733946 0
-0.012515362 0.0023025069 0.022571448 0.54621655 0.83706957 0.031016516 0
-0.0094547365 0.00030652655 0.022694962 0.55836833 0.82944113 0.015879562 0
-0.022616288 0.0072466224 0.022612713 -0.36043525 0.93237412 0.027656071 0
-0.018336495 0.0061251675 0.022461647 0.54622245 0.83761728 0.0061935424 0
-0.015665125 -0.02544342 0.025182726 -0.23984443 -0.44599104 0.86230308 0
-0.014553485 -0.025417974 0.025197268 0.31258583 -0.3333315 0.88948321 0
-0.021665661 -0.021129284 0.025304336 -0.16474652 -0.24729952 0.95483065 0
-0.017313808 -0.022283211 0.025363011 -0.026284918 -0.056875858 0.99803519 0
-0.013346055 -0.022006676 0.025349746 0.14744243 -0.10297279 0.98369575 0
-0.030859828 -0.015557147 0.025259769 -0.21257028 -0.42083797 0.88187826 0
-0.02703407 -0.016838167 0.025353028 -0.089854747 -0.12068871 0.98861539 0
-0.022513788 -0.017429551 0.025389794 -0.0016352355 -0.010996889 0.99993819 0
-0.01748099 -0.017567987 0.025388721 -0.0018044844 0.0029453679 0.9999941 0
-0.012486719 -0.017488617 0.025384635 0.036206182 -0.015415348 0.99922544 0
-0.0091693792 -0.016304092 0.02529759 0.25521237 -0.19121125 0.94778955 0
-0.035266917 -0.01181131 0.025313281 -0.64261252 0.056270111 0.76412219 0
-0.032317843 -0.01246254 0.025436943 -0.033484988 -0.055838034 0.99787813 0
-0.027439555 -0.012528718 0.025409175 0.014413353 -0.0081699761 0.99986273 0
-0.022506375 -0.012424793 0.025379576 -0.0068861172 0.0059231636 0.99995875 0
-0.017405648 -0.012496134 0.02538711 0.0056176214 -0.00068039622 0.99998403 0
-0.012540679 -0.012602123 0.025362937 0.0019658089 0.0090522338 0.99995703 0
-0.007856572 -0.012197569 0.025315562 0.086072251 -0.046112899 0.9952212 0
-0.0048141545 -0.010217939 0.025180677 0.40704736 -0.2267396 0.8848173 0
-0.031760123 -0.0080355508 0.025429437 -0.11968149 0.087766714 0.9889254 0
-0.027556092 -0.0075004133 0.025429379 0.0073568011 0.0031189588 0.99996811 0
-0.022504156 -0.0074908067 0.025385201 0.011976579 -0.0025446676 0.99992508 0
-0.01751863 -0.0075604832 0.025361583 -0.00020713299 0.0095791798 0.9999541 0
-0.012459343 -0.0075711594 0.025336051 0.0071855374 0.0022105004 0.99997169 0
-0.0074006603 -0.007470089 0.025297765 0.0059954417 0.0092132809 0.99993962 0
-0.0037268137 -0.0068891454 0.025245436 0.11662325 -0.035574425 0.99253887 0
-0.030485895 -0.0042957598 0.025309069 -0.49124917 0.36811313 0.78940928 0
-0.027281856 -0.0026675998 0.025393572 -0.051626902 0.046926044 0.99756336 0
-0.022598805 -0.0024916939 0.025353162 0.0069926973 0.0092243114 0.99993294 0
-0.017507512 -0.0024351499 0.025325043 0.0037773568 0.0063216514 0.99997294 0
-0.012447974 -0.0024298655 0.025301794 0.0068425913 0.011132204 0.99991459 0
-0.0078487843 -0.0029846844 0.025252227 0.050193563 0.068322055 0.99639988 0
-0.003990869 -0.0043470492 0.02519986 0.087402061 0.16488777 0.98243213 0
-0.025995061 0.0018320581 0.025334485 -0.27730599 0.18330686 0.94313306 0
-0.022541137 0.0024886944 0.025334051 0.020508185 0.0059311595 0.99977219 0
-0.017677803 0.0024144324 0.025259526 0.018553546 0.041107327 0.99898249 0
-0.013044394 0.0012971706 0.025229406 0.085634068 0.13025847 0.98777503 0
-0.0097806938 9.6278935e-05 0.02513727 0.27850896 0.25797486 0.92513877 0
-0.022006381 0.0064431415 0.025284585 -0.031486843 0.15261537 0.98778397 0
-0.018883152 0.0057573719 0.025194224 0.14417817 0.20740543 0.96757203 0
