# .PCD v0.7 - Point Cloud Data file format
VERSION 0.7
FIELDS x y z
SIZE 4 4 4
TYPE F F F
COUNT 1 1 1
WIDTH 80
HEIGHT 1
VIEWPOINT 0 0 0 1 0 0 0
POINTS 80
DATA ascii
-0.034910824 -0.01108548 0.0050346451
-0.028185552 -0.010645972 0.0052552093
-0.043864716 -0.0044466848 0.0043697348
-0.034804951 -0.0052577672 0.0042929067
-0.025030803 -0.0049647372 0.0034576976
-0.019222202 -0.0018250372 0.0055103512
-0.045100238 0.0044859685 0.0041082837
-0.038778231 0.0084695192 0.0050711054
-0.024687853 0.0050664563 0.0042856853
-0.018680237 0.0050040288 0.0049909847
-0.043411631 0.013551483 0.0044893282
-0.034677938 0.014941271 0.0042963335
-0.025223812 0.014337402 0.0038763147
-0.019795854 0.010433183 0.0056515057
-0.034725089 -0.010984342 0.014560874
-0.028557172 -0.010625952 0.013742421
-0.044148427 -0.0046746912 0.015265339
-0.035291888 -0.0055354647 0.014933403
-0.023806259 -0.0063962457 0.016162895
-0.019330099 -0.001683025 0.014144813
-0.045688391 0.0044131028 0.01518438
-0.034938093 0.0049224505 0.011485622
-0.024634866 0.0048815026 0.015136388
-0.018824641 0.0048974724 0.014672653
-0.043444376 0.013455747 0.015367724
-0.034882408 0.015854498 0.015255688
-0.024918422 0.014381547 0.015751146
-0.019871045 0.010268351 0.012411366
-0.040661212 -0.00082243286 0.023630768
-0.035062965 -0.0039055892 0.024257369
-0.027502714 -0.0023555357 0.023383636
-0.041208632 0.0042050597 0.02450702
-0.039197508 0.0091995802 0.024855671
-0.025995316 0.0054562856 0.024164185
-0.040093541 0.01012062 0.020013507
-0.034190603 0.011147237 0.024388522
-0.029133869 0.01050322 0.024023809
-0.040425494 -0.00062986853 0.034929801
-0.034674618 -0.0028093474 0.035518121
-0.028112613 -0.0018618844 0.035198081
-0.041183501 0.0043576639 0.035103265
-0.035493508 0.0055894405 0.036003962
-0.027230803 0.0048067225 0.035362795
-0.034313489 0.011185033 0.035016656
-0.029399792 0.010364899 0.034608297
-0.031422291 -0.010107919 0.049683873
-0.042362671 -0.0031894816 0.04755969
-0.034647737 -0.0036151479 0.045692049
-0.026971895 -0.0030821909 0.046684399
-0.042767376 0.0047389725 0.046144202
-0.036746331 0.0066910684 0.045059368
-0.026473602 0.0047624758 0.045611873
-0.042158518 0.012062208 0.04870937
-0.034661811 0.012448167 0.04620323
-0.027010629 0.012258386 0.047897641
-0.031539951 -0.010255702 0.055222593
-0.029623644 -0.010258319 0.055615868
-0.043323684 -0.0042271134 0.055499531
-0.03557469 -0.0063169133 0.054540407
-0.025531894 -0.0044298163 0.054984294
-0.019824671 -0.00045243007 0.0563084
-0.044277791 0.005038925 0.054964699
-0.039301228 0.0067338161 0.051197052
-0.023420766 0.0053251055 0.054535691
-0.019893359 0.00058034109 0.055180952
-0.042544156 0.012436133 0.055141147
-0.035149969 0.014281696 0.054960776
-0.026139613 0.012843818 0.054982647
-0.031853803 -0.010233046 0.062587075
-0.029604312 -0.010176779 0.061788969
-0.04318092 -0.0040403409 0.063382544
-0.035441451 -0.0075955964 0.063365348
-0.02547995 -0.0045915795 0.06346067
-0.01985481 -0.00056460564 0.061147261
-0.045070745 0.005341264 0.063387074
-0.022531528 0.0051118387 0.063419603
-0.019903816 0.00043459149 0.061187908
-0.042103097 0.012032977 0.063417882
-0.03531988 0.014695282 0.063550144
-0.026117105 0.012762263 0.063573971
