# .PCD v0.7 - Point Cloud Data file format
VERSION 0.7
FIELDS x y z
SIZE 4 4 4
TYPE F F F
COUNT 1 1 1
WIDTH 1322
HEIGHT 1
VIEWPOINT 0 0 0 1 0 0 0
POINTS 1322
DATA ascii
0.055387683 -0.073983088 0.0017115982
0.065227844 -0.075187974 0.0044414503
0.016427446 -0.066207856 0.007781805
0.024748174 -0.066499561 0.0065580662
0.031682353 -0.067801371 0.0068842028
0.048943166 -0.067159832 0.0063825166
0.054919753 -0.065678179 0.0059077661
0.064397715 -0.065258436 0.0077671893
-0.023489468 0.059673991 0.0097073009
-0.014744705 0.059445277 0.009256999
-0.0055148657 0.059329271 0.0095131351
-0.025376966 0.064787485 0.0064574718
-0.015011213 0.064897366 0.0056994371
-0.0050066165 0.065050051 0.0061945915
0.00057739089 0.067137755 0.0076653459
0.067291953 0.066996403 0.0080571882
0.074960403 0.066980153 0.0076769325
0.085057698 0.067381248 0.0077454685
0.092902526 0.067876972 0.0081067858
-0.026226928 0.075383857 0.0050118556
-0.015201144 0.074997336 0.0019262783
-0.0042309943 0.074948184 0.0022047483
0.00059799594 0.075011127 0.0044693281
0.067723826 0.075321168 0.0045563718
0.074927442 0.074915588 0.0027028145
0.084897354 0.074700922 0.0036059252
0.093010291 0.075680979 0.0055492413
-0.026695667 0.084390931 0.0039722943
-0.015311065 0.085048415 0.001002522
-0.0034865721 0.085105047 0.003406802
0.00033022219 0.083437108 0.0023380399
0.067909963 0.084774837 0.004252431
0.075489089 0.084394768 0.00082569872
0.085327566 0.085193947 0.004392405
0.092430472 0.084982857 0.0053732432
-0.026334669 0.094723888 0.0056353486
-0.015003869 0.095006287 0.0039600581
-0.0039896602 0.09490981 0.0047397213
5.4674827e-05 0.090381622 0.0010564828
0.066637293 0.095058575 0.0044146078
0.075372025 0.094976529 0.0020850305
0.085133351 0.095039412 0.0023584343
0.092040494 0.094635814 0.0051716045
-0.024703158 0.10141184 0.0091801081
-0.015148496 0.10140137 0.0088444306
-0.0049994532 0.10111462 0.0090929428
0.065444402 0.10436222 0.0068241335
0.075169675 0.10525244 0.0064645689
0.084793851 0.1054289 0.006153347
0.091488063 0.10471481 0.0073602065
0.017836349 -0.097598799 0.014662617
0.023909487 -0.096551493 0.015201151
0.034875084 -0.094226435 0.015265649
0.046146587 -0.092565894 0.015518134
0.054117762 -0.09776631 0.014920457
0.066212736 -0.095486075 0.015002915
0.022799235 -0.084930845 0.0149868
0.036046784 -0.086527944 0.011023597
0.045238584 -0.085614644 0.011745725
0.065604009 -0.08463861 0.015209154
0.016940603 -0.072524995 0.012688637
0.021803925 -0.075362727 0.015311434
0.035101995 -0.074607722 0.012447667
0.045000367 -0.07449469 0.010628938
0.059465338 -0.078386508 0.017680736
0.064594641 -0.074869335 0.014543678
0.015190427 -0.065225288 0.015094869
0.025350593 -0.061891604 0.01490097
0.033667739 -0.066048846 0.015521837
0.046236284 -0.066898435 0.015021337
0.054638177 -0.061873302 0.014963379
0.065334782 -0.06362319 0.014927752
0.058731087 -0.059812799 0.019176645
0.063558683 -0.059848666 0.014278668
-0.024890833 0.057310961 0.01509525
-0.015285498 0.056259077 0.015218996
-0.0046402626 0.05631673 0.014982316
0.00041214129 0.057847403 0.017434021
0.068873338 0.059462622 0.017114082
0.073932074 0.059451271 0.018365962
0.081968121 0.059816156 0.019606968
-0.027101584 0.065610819 0.01589454
-0.017928323 0.068517923 0.017936092
-0.0010126266 0.066208132 0.017242251
0.00093097432 0.065045834 0.014956872
0.012658448 0.069772862 0.01883004
0.068084799 0.06357877 0.013291947
0.074046634 0.063175328 0.01460092
0.085261725 0.062046885 0.014644125
0.093618065 0.065246053 0.015721764
-0.02521337 0.07332395 0.01239396
-0.017833212 0.074750654 0.014763189
-0.0030852305 0.074918494 0.015650013
0.0042160898 0.073347636 0.018202739
0.01167142 0.07016851 0.017773839
0.056206755 0.073475279 0.018462317
0.063966095 0.076222926 0.017412819
0.071398854 0.075127281 0.015500646
0.08606717 0.075384155 0.015636321
0.093207076 0.074379928 0.014121545
-0.023861276 0.086980022 0.012077931
-0.017929045 0.084224045 0.015633432
-0.005810685 0.084982514 0.014450428
0.0029641767 0.084295355 0.018924199
0.065397434 0.084965661 0.017660934
0.071779296 0.084852755 0.015821384
0.082860604 0.085031003 0.014266222
0.091804296 0.086531714 0.010209029
-0.027108917 0.094092108 0.015216658
-0.0045354934 0.095780566 0.015091547
0.003648917 0.093353972 0.019450752
0.067597315 0.094929636 0.015223072
0.070519589 0.091942862 0.017487833
0.085593358 0.094281279 0.014176073
0.091743171 0.094992973 0.011259129
-0.030168718 0.10568529 0.017750259
-0.026323395 0.10528977 0.014854209
-0.015153189 0.10661776 0.014523104
-0.0037586498 0.10541495 0.014910992
0.065213777 0.10579716 0.014457251
0.074143693 0.10965345 0.010698522
0.08914014 0.10110817 0.01627039
0.091784909 0.10507275 0.014505119
-0.0019784705 0.11008339 0.019218938
0.065555967 0.11238541 0.01637394
0.074623652 0.11260512 0.01543404
0.085145697 0.1125066 0.01514138
0.0909549 0.11177779 0.016055247
0.017005011 -0.09533456 0.025453739
0.023843929 -0.096019469 0.024512621
0.034827575 -0.095765956 0.024682241
0.045200393 -0.094496205 0.024636749
0.054444745 -0.097132444 0.024747267
0.066328317 -0.095808163 0.024803933
0.016064873 -0.085232913 0.028369924
0.02275636 -0.084736653 0.025423395
0.066042699 -0.084689714 0.0246563
0.016280852 -0.074083164 0.028022429
0.022347381 -0.075772636 0.025111359
0.059493184 -0.078401104 0.023239018
0.064838924 -0.074802041 0.02554059
0.015332618 -0.066210777 0.025152262
0.025091311 -0.064691141 0.025248922
0.034469906 -0.066980734 0.024845595
0.045777638 -0.067189671 0.024865115
0.054088119 -0.061845649 0.025338195
0.064410217 -0.066223122 0.024803245
0.054742076 -0.059796035 0.023744693
-0.025170671 0.055450182 0.025548948
-0.015238026 0.054777179 0.025450084
-0.0046958509 0.055573042 0.024293767
0.00040771856 0.054649223 0.021771682
0.069988906 0.058579698 0.020026654
0.075175248 0.058426645 0.023772376
0.08496885 0.058989335 0.024277834
0.090754583 0.059432533 0.025424752
-0.024720497 0.06269215 0.022698086
-0.0163089 0.065352373 0.025602192
-0.0036383872 0.063370958 0.024596892
0.0048701568 0.068297528 0.025554895
0.012263385 0.069051273 0.025294241
0.069240831 0.069328085 0.025310004
0.073823839 0.065054491 0.025736988
0.085776299 0.065517314 0.026943367
0.092944153 0.065040641 0.024544913
-0.02481075 0.076369442 0.025168793
-0.018100627 0.074497536 0.024223719
-0.0040326007 0.075936072 0.021507863
0.0046887705 0.074284993 0.024296081
0.010333093 0.070062809 0.020285208
0.055390261 0.072561167 0.025027571
0.063980557 0.073961884 0.02451119
0.072067507 0.074728891 0.022578424
0.083728991 0.075414114 0.025486121
-0.024726106 0.084232457 0.024779458
-0.018324908 0.085076541 0.022328606
-0.0046219174 0.085307322 0.023034073
0.0036004055 0.084881008 0.024502374
0.061477382 0.084720001 0.024273785
0.071686916 0.082203194 0.020755924
0.085850552 0.082762823 0.023365641
0.092022605 0.084740825 0.025657969
-0.024904495 0.094523571 0.025205981
-0.019461799 0.090488471 0.023450561
-0.004166509 0.095890276 0.024908664
0.0047236653 0.095713414 0.024807103
0.011485323 0.097624227 0.025532514
0.058317095 0.097261652 0.025806166
0.063998148 0.094618 0.022158401
0.070160866 0.093447104 0.020122427
0.087886423 0.095879704 0.023209322
0.090795048 0.092825167 0.026476819
-0.030559221 0.10488653 0.025210807
-0.025584357 0.1072109 0.024926262
-0.015454639 0.10933618 0.024604566
-0.0024143343 0.10535008 0.024868185
0.05594812 0.10074637 0.026203308
0.06432198 0.10383897 0.024916969
0.088895142 0.10143809 0.025636179
0.091602914 0.10622463 0.024499867
-0.011265054 0.1101929 0.028797638
-0.0046363748 0.11047542 0.025652491
0.064885795 0.11432121 0.025183542
0.075077116 0.11628147 0.024890106
0.085112408 0.11687003 0.02478596
0.09101072 0.11375367 0.025460377
0.016785575 -0.09202981 0.032898743
0.025006082 -0.093148649 0.033948656
0.035096578 -0.095217928 0.035102811
0.044817336 -0.096523464 0.034911945
0.054195169 -0.093677245 0.034504771
0.064498529 -0.092297159 0.032728367
0.015594292 -0.085109711 0.036204379
0.02487007 -0.085076459 0.038008839
0.032949492 -0.085218422 0.038093071
0.056167584 -0.085803472 0.038854178
0.066088229 -0.084963553 0.036375914
0.015824135 -0.075253464 0.033746589
0.024487806 -0.075296275 0.035458896
0.033080582 -0.074775577 0.037799239
0.049728114 -0.071344651 0.039279517
0.055048555 -0.074752189 0.038668375
0.065945767 -0.075048722 0.035421897
0.016742518 -0.068091348 0.03120718
0.024751026 -0.067983322 0.032310575
0.035226099 -0.069078662 0.03377787
0.045296174 -0.068855934 0.034955904
0.05484644 -0.065759756 0.034121338
0.064413168 -0.066636369 0.033653952
-0.023521965 0.058268551 0.034180276
-0.018185053 0.059132271 0.033883221
-0.02549644 0.060696524 0.038000189
-0.014183612 0.063696332 0.033385027
-0.0048515499 0.063784264 0.035239123
0.0053557497 0.067551911 0.034900572
0.01238242 0.067886733 0.034851719
0.054879103 0.069618948 0.037637789
0.064213857 0.069778681 0.038634978
0.074629858 0.068093181 0.031826217
0.086912021 0.066235043 0.033082116
0.091399178 0.065357544 0.034013864
-0.024892898 0.075735807 0.034647241
-0.016698632 0.073827274 0.036600351
0.0045677591 0.074809432 0.03496379
0.055670548 0.07162106 0.034390155
0.063217647 0.073259152 0.034360938
0.075417355 0.072552316 0.036379684
0.082402073 0.076607488 0.033453394
-0.025186868 0.085422739 0.034566641
-0.019313864 0.084476449 0.038604353
0.0042193588 0.085426755 0.035186306
0.060678825 0.084978387 0.035133071
0.085581034 0.084486015 0.036651384
0.091872089 0.086771823 0.034111992
-0.023421049 0.094931617 0.03458818
-0.019688325 0.091588505 0.039206233
-0.0018366135 0.098171085 0.034060445
0.0049932352 0.094769858 0.035047021
0.012081563 0.095952772 0.035565048
0.056051519 0.097593077 0.035346292
0.060465492 0.093531914 0.035299569
0.086634628 0.095363364 0.036928896
0.091115542 0.092054322 0.034349822
-0.030921707 0.10643973 0.035264097
-0.026280019 0.10615952 0.035747256
-0.017180271 0.10959195 0.035332091
-0.0018333269 0.10431616 0.034673538
0.057061747 0.10018222 0.031008398
0.063550353 0.10401388 0.035006203
0.087519094 0.10224321 0.035181846
0.091659755 0.1070928 0.034554619
-0.012792137 0.11039215 0.034682278
-0.0050719106 0.11113143 0.035308789
0.065142602 0.11429825 0.035082024
0.074983709 0.11608499 0.034817055
0.085156411 0.11601589 0.034816694
0.091275975 0.11349937 0.034958135
0.036312286 -0.096069552 0.04507694
0.045058474 -0.098407194 0.045318533
0.051732086 -0.09397494 0.045689523
0.015050863 -0.086084552 0.04002304
0.034768403 -0.084962226 0.045120042
0.052577797 -0.085105188 0.04438971
0.035342932 -0.073914707 0.04486588
0.046642371 -0.072133079 0.045438871
0.050437156 -0.077872634 0.044267844
0.046212438 -0.069889963 0.040747553
-0.020432198 0.059714332 0.040589143
-0.019847076 0.059523635 0.040217604
-0.023650911 0.065565199 0.045600101
-0.017597076 0.068804331 0.048384584
-0.0045876876 0.067305394 0.044564594
0.0056941388 0.066532321 0.044960756
0.012631333 0.066680163 0.044730607
0.054495577 0.068575665 0.045147181
0.064439893 0.068973467 0.044838384
0.089502878 0.06905809 0.043089546
0.09055309 0.068010397 0.041828044
-0.024811598 0.075034574 0.047867693
-0.014496876 0.074521795 0.045886837
-0.0092231808 0.070563078 0.043782048
0.0048307893 0.074957453 0.045291837
0.055180185 0.070889741 0.044940595
0.062011205 0.07445661 0.045250077
0.075306803 0.073849969 0.045124251
0.085081585 0.075692579 0.046779621
0.091055319 0.074422389 0.047325518
-0.031105198 0.089621373 0.049708787
-0.024131466 0.084686466 0.048795428
-0.017176613 0.084973976 0.045341045
0.0044298773 0.084678188 0.044895284
0.060621046 0.084971286 0.044866428
0.079912953 0.080584794 0.048235789
0.08281336 0.085224107 0.046583466
0.091957092 0.087637961 0.049126498
-0.031103721 0.096210286 0.046591278
-0.024726942 0.094956197 0.04473209
-0.018556688 0.091856338 0.044491976
-0.00042914241 0.098438635 0.043493751
0.0050277207 0.09413106 0.045205377
0.012606034 0.094380029 0.045021806
0.049724542 0.096564308 0.045976341
0.055709887 0.096546777 0.044948231
0.061538681 0.096723773 0.045300536
0.085048437 0.094625629 0.044224095
0.092373237 0.095770679 0.047041148
-0.031007711 0.10287377 0.043606181
-0.025286756 0.10418317 0.04480185
-0.014907463 0.10602004 0.045225322
-0.0039592017 0.10530153 0.045016974
0.064220585 0.10574767 0.045875244
0.074894406 0.10831456 0.04832352
0.086284943 0.10510546 0.044859663
0.092261292 0.10499473 0.045107946
-0.0046256399 0.11027144 0.040452529
0.06573879 0.1128808 0.042866696
0.074904837 0.11278565 0.043790057
0.085085459 0.1123797 0.044479419
0.091431372 0.11174245 0.043856516
0.038748808 -0.11078763 0.058924086
0.044724654 -0.11128271 0.057887368
0.052140519 -0.11048498 0.058970224
0.027542243 -0.10230271 0.05820119
0.035153016 -0.10449304 0.055780575
0.045177836 -0.10533957 0.053721625
0.054766856 -0.1047193 0.056495108
0.060932036 -0.10281088 0.058825932
0.027284836 -0.094841339 0.057277396
0.033761829 -0.095559306 0.052974388
0.045424957 -0.099378273 0.05085988
0.05645024 -0.095275171 0.053714477
0.060927164 -0.09518443 0.058677983
0.027115257 -0.084838748 0.057705887
0.033541892 -0.084918082 0.053445078
0.055576213 -0.084674776 0.054755688
0.060654804 -0.085664958 0.059161291
0.027317114 -0.074979924 0.0580073
0.034441568 -0.074394733 0.053481203
0.045921061 -0.072376244 0.052145474
0.054652303 -0.075288206 0.056031436
0.060267612 -0.078129478 0.059595801
0.027515016 -0.064727433 0.058440179
0.034922387 -0.065074228 0.054952178
0.044772193 -0.06482143 0.054209445
0.054476026 -0.065384485 0.057342492
0.028086424 -0.055599589 0.058822736
0.035468381 -0.054482233 0.056269132
0.044399947 -0.053813327 0.056118503
0.053429808 -0.055237696 0.058066763
0.028921245 -0.045444977 0.059359852
0.034672968 -0.045318492 0.057635605
0.045634978 -0.044452395 0.057474006
0.0523591 -0.045418043 0.058852859
0.029333863 -0.035546623 0.059623566
0.03473179 -0.035281397 0.058067884
0.045062795 -0.035051435 0.058117889
0.051138554 -0.037254397 0.059572313
0.029604843 -0.028210124 0.059777603
0.035339631 -0.025367951 0.059032395
0.043440707 -0.025781371 0.0589981
0.037120227 -0.0164533 0.059714109
0.041238453 -0.017304109 0.059595123
-0.06152742 -0.00028214688 0.059472468
-0.056242935 -0.00025798602 0.059123736
-0.049212277 -0.00015091698 0.059840299
-0.07395681 0.0062034708 0.058229797
-0.065009296 0.0048001562 0.056899946
-0.054620642 0.004357331 0.05632817
-0.045104597 0.0039968612 0.056592986
-0.03497117 0.004312438 0.056664146
-0.025252359 0.0043912451 0.056796148
-0.015102476 0.0047758953 0.056736887
-0.0048248628 0.005122188 0.056805532
0.004992703 0.005367212 0.056820877
0.015244561 0.0058051008 0.056746785
0.024994131 0.005693384 0.057018317
0.034724832 0.006264904 0.057104651
0.045223042 0.0066538928 0.05734574
0.054742772 0.0071364469 0.057416741
0.065272145 0.0075257882 0.057522982
0.074866354 0.0077714059 0.057640523
0.08534164 0.0080777919 0.057735492
0.094744861 0.0085988669 0.057594031
0.10457546 0.008825616 0.058034744
0.11422703 0.009356332 0.058206547
0.12280346 0.0097866822 0.058884699
-0.080600202 0.016948279 0.058592957
-0.075458691 0.015020612 0.057330601
-0.064961731 0.015073943 0.057102092
-0.054994736 0.015200046 0.057108957
-0.044900756 0.015127921 0.057054389
-0.034706634 0.01496165 0.056965511
-0.024976475 0.015127272 0.056915835
-0.01512323 0.014944373 0.056829933
-0.0053504431 0.015267972 0.056775413
0.0049130293 0.014691991 0.056606341
0.015326688 0.014828122 0.05651097
0.02513545 0.015155586 0.056442037
0.035077948 0.014905561 0.056294039
0.045004938 0.015095502 0.056232352
0.054686546 0.014832446 0.056208227
0.064849176 0.014918178 0.056203485
0.075382963 0.015145719 0.056212962
0.085176855 0.015340184 0.056219999
0.094847821 0.014940386 0.056171115
0.10505869 0.014304999 0.056113258
0.11486962 0.014831695 0.056178652
0.12518705 0.014041769 0.056536283
0.13492778 0.014680977 0.056779135
0.14432977 0.016067645 0.057478208
-0.081691258 0.025205685 0.058509473
-0.075058244 0.02505962 0.058039814
-0.065225206 0.025103351 0.058045689
-0.055166289 0.025240121 0.058066729
-0.045137398 0.025075376 0.058046438
-0.034740672 0.024922548 0.057978902
-0.025121877 0.024905752 0.057920106
-0.014893917 0.024913475 0.057856135
-0.0049842568 0.024820935 0.057766628
0.0049582352 0.02501351 0.057681326
0.014992544 0.024958815 0.057569269
0.025078699 0.025198195 0.057572283
0.034518667 0.02441049 0.057887036
0.044962332 0.025111096 0.057600323
0.054729681 0.025058029 0.057282083
0.064957187 0.024746811 0.057223871
0.075171381 0.02502938 0.057239473
0.085212857 0.024992488 0.057222158
0.094837442 0.024997393 0.057209719
0.10478073 0.025251176 0.057222642
0.11521921 0.024954971 0.057161383
0.12506168 0.024905285 0.057082064
0.13496143 0.024952097 0.057011727
0.14515848 0.024936551 0.057309423
0.1509788 0.024640307 0.059403095
-0.082371965 0.034818482 0.059078995
-0.075175501 0.034619037 0.058934249
-0.065047182 0.034854047 0.058953315
-0.054834079 0.034917884 0.058962554
-0.04488688 0.034785401 0.058956407
-0.034967765 0.035230968 0.058966309
-0.025151407 0.035084475 0.058903981
-0.014776371 0.035245273 0.05886811
-0.0049222466 0.034985345 0.058798879
0.0050517856 0.034994781 0.058743455
0.014866437 0.035066016 0.058675379
0.025369206 0.034849498 0.058885477
0.033428386 0.035817686 0.059471413
0.045584634 0.034657508 0.058740016
0.05481841 0.03511719 0.058388039
0.065014809 0.035120517 0.058301549
0.074956387 0.034824159 0.058256775
0.084843129 0.034982789 0.058259964
0.095110714 0.035156298 0.058262724
0.10533652 0.034806516 0.058180179
0.11489971 0.035214011 0.058148146
0.12499084 0.03514234 0.058076717
0.13488704 0.034790747 0.057980906
0.14490549 0.035080347 0.058098171
0.15078919 0.034705225 0.059618019
-0.082608402 0.043359969 0.059758328
-0.075036779 0.042846307 0.059704032
-0.064773977 0.042845242 0.059700735
-0.054823037 0.042962529 0.059709433
-0.045110475 0.042824145 0.059702329
-0.034974199 0.043212987 0.05972404
-0.024853187 0.043264035 0.059679322
-0.014691557 0.043321725 0.059635274
-0.0050642225 0.043815419 0.05964813
0.0049619665 0.043948293 0.059623625
0.015371271 0.044021554 0.059588622
0.025345577 0.044283174 0.059568435
0.034215588 0.045260146 0.059654042
0.045047212 0.044942357 0.059533041
0.054912973 0.045278154 0.059477668
0.064583316 0.045268208 0.059383102
0.075361639 0.044857487 0.059297986
0.0850849 0.04506382 0.059298724
0.09487725 0.045147557 0.059252206
0.1049061 0.0452253 0.05919474
0.1147789 0.044784877 0.059090327
0.12521949 0.045055125 0.059052441
0.13482271 0.044991393 0.058986794
0.14498255 0.045145646 0.058996066
0.15044449 0.043900374 0.059810936
0.05676581 0.050202712 0.059975784
0.065118149 0.050579295 0.059947334
0.075739242 0.050760992 0.059909813
0.085404284 0.050971769 0.059882205
0.095408089 0.051461231 0.059868131
0.10517947 0.051793467 0.059840497
0.1150098 0.052010752 0.059801143
0.12533523 0.052487046 0.059784293
0.13531306 0.052406777 0.059714701
0.14514475 0.052955873 0.059714586
0.15011141 0.051890079 0.059961233
-0.022927582 0.069294408 0.050863978
-0.018630642 0.069770388 0.050230354
-0.0024299708 0.068836808 0.052941006
0.0053593889 0.065885887 0.055015493
0.014100528 0.065688007 0.055787116
0.021731436 0.066228829 0.059173614
0.047940496 0.066563271 0.058555562
0.054663956 0.06807024 0.055270646
0.063639864 0.068349957 0.054940473
-0.024035959 0.075144224 0.054754209
-0.015509212 0.072303079 0.054531038
-0.0060461708 0.071050078 0.056272171
0.0050321319 0.075392507 0.0552026
0.056217246 0.070107304 0.051173281
0.06334684 0.073696941 0.055476893
0.074604608 0.075408831 0.054491192
0.084712975 0.07876423 0.054769963
0.09162309 0.079144008 0.05062921
-0.030690121 0.086618185 0.051299881
-0.026383838 0.085104153 0.055519819
-0.018559165 0.08963868 0.059728127
0.0045708595 0.084862053 0.055349682
0.060541842 0.084798589 0.055084568
0.088131346 0.082956225 0.053389199
0.09204179 0.084056139 0.054256558
-0.030750163 0.095007524 0.051643316
-0.02508398 0.094643176 0.055638008
-0.015008694 0.094985351 0.056658562
-0.0047642668 0.095816158 0.056531519
0.0053006834 0.092965029 0.055173844
0.013021834 0.092683211 0.055247013
0.049229838 0.094619021 0.055386554
0.055563353 0.09496817 0.055191122
0.063764535 0.096595876 0.055781063
0.075113803 0.096958488 0.058144614
0.085561007 0.096102305 0.058288712
0.09247718 0.095350921 0.054447625
-0.030475931 0.10062008 0.051030301
-0.024437649 0.10110386 0.051585514
-0.014374803 0.10151938 0.051954135
-0.0049368977 0.10172445 0.052107785
0.065959901 0.10291298 0.052419022
0.075071394 0.10350476 0.052799556
0.08502955 0.10387439 0.053125948
0.092249379 0.10330621 0.052845944
-0.0019911279 -0.12101432 0.067165807
0.005354329 -0.12266602 0.065936387
0.014702138 -0.12317101 0.065783404
0.02491048 -0.12280001 0.065797225
0.035087176 -0.12242534 0.065955855
0.044950765 -0.12203835 0.066096947
0.054966945 -0.12147748 0.066446058
0.064895503 -0.12094665 0.066674948
0.074511118 -0.12045236 0.06614729
0.082230076 -0.12018046 0.066084675
-0.010428779 -0.11248133 0.068730325
-0.0055112457 -0.11538494 0.065636292
0.0049985116 -0.11507564 0.064359911
0.014986813 -0.11483049 0.064191386
0.024961131 -0.11494146 0.06395603
0.034797747 -0.11483915 0.06295453
0.044806097 -0.11569425 0.062750652
0.054966584 -0.11447845 0.062795617
0.06489107 -0.11543114 0.063470565
0.075133704 -0.11597745 0.064527467
0.08489465 -0.116413 0.065444365
0.093548372 -0.11465279 0.066525862
-0.010919775 -0.10509323 0.068816893
-0.0053198463 -0.10498863 0.065560482
0.0047688726 -0.10513712 0.065134786
0.01526892 -0.10504743 0.064942494
0.024498863 -0.10551407 0.063197173
0.031981848 -0.10902047 0.06110074
0.058811225 -0.10938372 0.060613643
0.065123834 -0.10518563 0.063067436
0.074654952 -0.10491981 0.064021312
0.085073434 -0.10533293 0.063835301
0.095369831 -0.10513381 0.065126054
-0.010998122 -0.094708741 0.068413243
-0.0051541352 -0.095337711 0.066177547
0.0051036435 -0.095101811 0.065923192
0.015028784 -0.095077537 0.065745145
0.022668239 -0.095047794 0.063340917
0.065094754 -0.094788879 0.063654184
0.074755751 -0.095176369 0.064798452
0.085306883 -0.095099576 0.064636245
0.09592475 -0.09470395 0.06579306
-0.011250106 -0.085073136 0.06833484
-0.0047467435 -0.08487004 0.066922493
0.0048478548 -0.084946148 0.066741079
0.014922664 -0.085323609 0.066540442
0.022207923 -0.084813885 0.06340313
0.064894542 -0.085129075 0.064048968
0.075446792 -0.085028268 0.065620579
0.084864721 -0.085134119 0.065431602
0.095731653 -0.08518865 0.066108845
0.10006149 -0.081748836 0.069095172
-0.01141183 -0.075999111 0.06858895
-0.0050886776 -0.074860729 0.067874648
0.0048942794 -0.074564122 0.067626938
0.015377787 -0.074690782 0.067303918
0.022008553 -0.074819393 0.063179493
0.059879504 -0.071035609 0.06019818
0.064675957 -0.07496804 0.064716846
0.074717656 -0.074867569 0.066478111
0.0852191 -0.07504151 0.066249408
0.095681854 -0.074838027 0.066809468
0.10020825 -0.078089871 0.06883654
-0.0046556834 -0.069596514 0.06964267
0.0051911003 -0.069504336 0.069212258
0.017653573 -0.065835267 0.067996606
0.02217005 -0.064917304 0.062728167
0.059327509 -0.063514985 0.060782693
0.063777946 -0.065282546 0.065441452
0.075315543 -0.066946939 0.067647777
0.084875934 -0.066620924 0.06767188
0.093452044 -0.067208044 0.067702129
0.018305039 -0.054968435 0.067644723
0.022711204 -0.055018902 0.062382054
0.037616972 -0.052311849 0.06255842
0.042528432 -0.051720649 0.062222321
0.058594689 -0.054417104 0.061435435
0.06290701 -0.055056669 0.066169068
0.018008512 -0.044988096 0.067391582
0.024203768 -0.045010686 0.062420491
0.036948357 -0.045603413 0.062901296
0.043732345 -0.046580449 0.062729046
0.057104427 -0.04465678 0.061650861
0.0623593 -0.045643624 0.066707581
0.017669884 -0.034663118 0.067817986
0.024396492 -0.034975085 0.063000843
0.049355265 -0.030161975 0.0601843
0.05574536 -0.034411006 0.06235915
0.061984073 -0.035217993 0.067602105
0.017650761 -0.025174653 0.068086319
0.024992095 -0.02498121 0.06297686
0.030864529 -0.021672299 0.060222551
0.04799505 -0.024117259 0.060731854
0.05529847 -0.025123229 0.06360314
0.061592769 -0.024827063 0.06859827
0.018148379 -0.014831098 0.068102837
0.024987094 -0.014972095 0.063489929
0.033776667 -0.013752383 0.060565628
0.045510225 -0.014554824 0.061476268
0.055524107 -0.015226573 0.065226525
0.060708392 -0.015523016 0.069225676
-0.06358815 -0.00086352113 0.06287685
-0.055222668 -0.00091492408 0.06264054
-0.045670211 -0.0005450754 0.062752329
-0.037519809 -0.00017110714 0.063179068
0.018202407 -0.0050214268 0.06847208
0.024593387 -0.0050615156 0.064319335
0.034873631 -0.0048941928 0.061406523
0.045148503 -0.0050382386 0.062829673
0.054997128 -0.005148842 0.066438094
0.060202386 -0.0085653495 0.069860339
-0.074040934 0.0058492706 0.063227288
-0.065638594 0.004644176 0.065166101
-0.055176232 0.0048140301 0.06566219
-0.044938669 0.0048424201 0.065433726
-0.034459684 0.0039636618 0.064683974
-0.024897126 0.0035001081 0.064357959
-0.01508283 0.004212033 0.064374998
-0.0050820443 0.0042646811 0.064250834
0.0047379369 0.0045285597 0.064218581
0.015865324 0.0047197579 0.065274127
0.023443246 0.0035668591 0.064105131
0.034845557 0.0024431092 0.061834741
0.045322992 0.0035269849 0.063094176
0.055267684 0.0050616777 0.065526366
0.064708993 0.0069281599 0.063206233
0.075028472 0.0073673874 0.06311731
0.084774964 0.0075506871 0.062943012
0.09484975 0.0078667728 0.062858626
0.10470448 0.0082018515 0.062715016
0.11526015 0.0087367706 0.062534295
0.12477926 0.0092724534 0.062613651
0.13314019 0.0096643353 0.063138269
-0.080775283 0.017907154 0.062943362
-0.07601852 0.014664688 0.066256084
-0.064572297 0.015106603 0.067464769
-0.055100992 0.014775345 0.067315221
-0.0449805 0.01494153 0.067239903
-0.034641951 0.014966655 0.067138851
-0.024800366 0.01525242 0.067085691
-0.014683716 0.014774828 0.066905029
-0.00510001 0.014949585 0.066847749
0.0051545189 0.015212033 0.06680274
0.015732851 0.014920432 0.067284197
0.020435762 0.011458117 0.066230737
0.057233583 0.014513995 0.067645192
0.064893275 0.015296342 0.066077791
0.074838288 0.014934483 0.065902516
0.084932186 0.015204915 0.065837741
0.094875157 0.015039719 0.065704189
0.10492928 0.015306318 0.06564001
0.11466225 0.015127461 0.065506577
0.12486863 0.014837179 0.065341361
0.13534771 0.013997731 0.064471684
0.14446521 0.015169594 0.063248701
0.15050356 0.018818082 0.061748009
-0.082601309 0.02535315 0.065169059
-0.075013801 0.024896285 0.069194317
-0.065100223 0.024886934 0.069082066
-0.054988924 0.024985632 0.06899263
-0.044891518 0.024848122 0.068867259
-0.03515701 0.02497608 0.068789236
-0.025221221 0.025081322 0.068705477
-0.014978625 0.024949538 0.068580739
-0.0049989447 0.025393974 0.068564966
0.0052293409 0.024674401 0.068361372
0.013630917 0.024505939 0.0685881
0.029592993 0.029547237 0.060256455
0.035184454 0.027042229 0.063103624
0.041288737 0.028911283 0.061438248
0.05820455 0.024152339 0.06863565
0.064745598 0.025036693 0.067695923
0.074810117 0.02517136 0.067592025
0.084849283 0.02504768 0.067449816
0.094972029 0.0251844 0.067360133
0.10489238 0.024924148 0.067217842
0.11476167 0.025029343 0.067156285
0.12505592 0.024926981 0.067073397
0.13461158 0.024930419 0.067014962
0.14518715 0.024460498 0.066413149
0.15273151 0.025554087 0.062652767
-0.085254386 0.034566712 0.065599672
-0.064379953 0.030263314 0.069967054
-0.054059967 0.030614944 0.069908947
-0.043761466 0.030627443 0.069805682
-0.034307994 0.031248931 0.06981165
-0.024689279 0.031354647 0.069731198
-0.014470721 0.031930145 0.069723837
-0.0050154375 0.031986132 0.069649503
0.0051748934 0.032205459 0.069611244
0.012140645 0.031938586 0.069601096
0.027736256 0.036523107 0.061041433
0.035667639 0.034800533 0.063168436
0.041400526 0.034811359 0.062641472
0.059439886 0.033416968 0.069587439
0.065056801 0.034437213 0.0692527
0.075455196 0.034942698 0.069206096
0.085195161 0.034911595 0.069078714
0.094857544 0.03527353 0.069029927
0.10470935 0.034965623 0.068912163
0.1152608 0.034934297 0.068844721
0.12474716 0.03514481 0.068823807
0.13468556 0.035041422 0.068747841
0.14502773 0.03497684 0.06867414
0.15360506 0.03526305 0.06422355
-0.086527251 0.045535356 0.064409882
-0.0750359 0.047930323 0.060179774
-0.06483449 0.047743276 0.060159113
-0.055077024 0.048100572 0.060189508
-0.045032963 0.047859807 0.060168479
-0.03515891 0.048179019 0.060193498
-0.025026761 0.048391111 0.060167078
-0.014926062 0.048412334 0.060121458
-0.004655594 0.048706178 0.060115673
0.005082252 0.048896808 0.060098976
0.01478431 0.049162023 0.060085282
0.024592601 0.049090829 0.060082581
0.035395779 0.043176137 0.061895516
0.041457634 0.042345252 0.060507953
0.086142831 0.040199883 0.069944799
0.095383197 0.040721059 0.06993676
0.10460294 0.040901605 0.069903508
0.11532208 0.040803544 0.069824941
0.12508336 0.041124977 0.069821835
0.13488159 0.041356102 0.069803461
0.14497046 0.041530296 0.069773771
0.15420803 0.045002583 0.064786635
-0.090030842 0.059750855 0.067890301
-0.087110393 0.055049077 0.063664027
-0.074874341 0.05478622 0.060821209
-0.065284878 0.054974589 0.060835894
-0.05483485 0.05533129 0.060866043
-0.045040388 0.054877974 0.060821444
-0.034935892 0.054939043 0.060827017
-0.025322657 0.05491462 0.060788028
-0.014761629 0.054832276 0.060734559
-0.0048399153 0.054977965 0.06071721
0.0052607367 0.055125441 0.060696915
0.015129434 0.054834276 0.06062885
0.024664797 0.055343229 0.060635988
0.034952044 0.055082321 0.060562134
0.044986419 0.05470993 0.060475759
0.055230342 0.055310473 0.06048039
0.065020829 0.055845141 0.060491338
0.074869424 0.055854607 0.060419712
0.085092202 0.056131996 0.060392302
0.094681062 0.056429151 0.060362317
0.10495012 0.056694392 0.060325015
0.11497279 0.056865629 0.060279947
0.12517965 0.057589419 0.060288202
0.13530435 0.057701141 0.060236666
0.14474884 0.058097877 0.06021769
0.15472561 0.054915834 0.064361677
-0.090722278 0.065778263 0.066279389
-0.085274212 0.064791597 0.061853673
-0.07491599 0.065066822 0.061783213
-0.06502223 0.065191872 0.061791871
-0.055012029 0.065114453 0.061781511
-0.044965487 0.065171942 0.061783779
-0.035118416 0.06498377 0.061764143
-0.025041111 0.06483756 0.061729517
-0.015044058 0.065434575 0.06174593
-0.0049615372 0.064994283 0.061636914
0.005839793 0.065314054 0.062950455
0.014990003 0.065993369 0.063505523
0.024726363 0.065914147 0.062745467
0.034991369 0.065628059 0.063319668
0.044960443 0.066212356 0.062618352
0.055015672 0.066433929 0.062455952
0.06416893 0.065620489 0.061797112
0.07510376 0.064840615 0.061186355
0.084994487 0.065206401 0.061256796
0.095038675 0.065157123 0.061214171
0.10504084 0.06522505 0.061165214
0.11520196 0.065118693 0.06109203
0.12507515 0.065073088 0.06102654
0.13485461 0.064718597 0.060931139
0.14481442 0.064849332 0.060882453
0.15497005 0.065157451 0.064019397
-0.091619372 0.074869782 0.065746605
-0.084982112 0.074878134 0.062714688
-0.075039521 0.075034551 0.062713988
-0.065105967 0.07508903 0.06271439
-0.055037741 0.074667729 0.062671877
-0.044985153 0.074923225 0.062691823
-0.035095695 0.074893452 0.062685564
-0.025437256 0.075002372 0.062180288
-0.015315718 0.07185445 0.061683457
-0.0055277171 0.071367957 0.061323702
0.0058517368 0.075334057 0.065885954
0.014657964 0.074907087 0.068939246
0.024988765 0.073916256 0.068919167
0.035696402 0.074561387 0.068669334
0.044693619 0.075182408 0.068452708
0.054846104 0.075062573 0.067820147
0.062818505 0.074465014 0.063331164
0.075012468 0.074353889 0.061692748
0.084837064 0.075566754 0.061913069
0.095117711 0.075102314 0.062130045
0.1051405 0.075105458 0.062105209
0.11454502 0.075219035 0.06208225
0.1251189 0.075174704 0.062021788
0.13513534 0.074939258 0.061936863
0.14469385 0.075033329 0.061887085
0.1556651 0.075115822 0.06479761
-0.091374405 0.081816949 0.068035126
-0.085377194 0.085073851 0.065347999
-0.074995995 0.085074991 0.063770637
-0.064830326 0.084750824 0.063669242
-0.055032179 0.084886499 0.063641593
-0.04458439 0.084834851 0.063606858
-0.035097539 0.084924966 0.063602746
-0.024246318 0.085276052 0.062809534
-0.019197656 0.088672489 0.063058868
0.0056920424 0.085896961 0.065463014
0.01442202 0.087094791 0.068088308
0.024077322 0.089172646 0.068465583
0.037270408 0.086488307 0.069325775
0.045081716 0.085165218 0.068719238
0.055149592 0.084067397 0.069310993
0.060401082 0.085036561 0.064488634
0.089098118 0.085634425 0.062070906
0.094654351 0.084878817 0.062800579
0.1050138 0.085018337 0.062993519
0.1154222 0.08500316 0.062973954
0.1248719 0.085136421 0.062964864
0.13504867 0.084701978 0.062890716
0.14477439 0.085138887 0.062882133
0.15564187 0.085045137 0.06516736
-0.081926651 0.092117004 0.067349032
-0.074852489 0.093772218 0.06657216
-0.065102808 0.093899116 0.066274159
-0.054892104 0.094489887 0.066391915
-0.044986501 0.094787367 0.06625928
-0.035042204 0.095062874 0.066182688
-0.024861135 0.095324405 0.066157646
-0.015371021 0.094798096 0.064681292
-0.0050974865 0.095858075 0.064552642
0.0052466807 0.09539108 0.064392239
0.01462732 0.094354935 0.064045399
0.024860147 0.094454013 0.065080151
0.034944221 0.094004199 0.065257661
0.045467157 0.094223589 0.064384773
0.055322882 0.094258532 0.064079508
0.064323537 0.095316201 0.0630849
0.074906141 0.095910259 0.062570795
0.085762925 0.095176756 0.063015491
0.09537562 0.095209375 0.063844629
0.10498923 0.095014758 0.063819803
0.11495595 0.094831645 0.063814059
0.1249653 0.09510465 0.063837908
0.1348113 0.094765663 0.063797511
0.14490236 0.094902024 0.063816994
0.15419704 0.094778769 0.065965846
-0.013608086 0.10019818 0.069768615
-0.0047032735 0.10043275 0.069509171
0.0056405189 0.10080893 0.069315813
0.015250798 0.10096693 0.068801008
0.025602259 0.10131525 0.068397909
0.03531462 0.10167674 0.068093337
0.044951156 0.10196447 0.067722455
0.054763239 0.10218173 0.067283034
0.065274492 0.10258804 0.067086384
0.075241499 0.10277817 0.066749215
0.084926873 0.10332091 0.066782899
0.09504848 0.10364706 0.066515334
0.10539048 0.10391343 0.066409126
0.11472382 0.10444702 0.066401064
0.12475726 0.10463006 0.066225618
0.13467138 0.10502341 0.066151217
0.14469053 0.10350423 0.066255368
0.15222563 0.10164923 0.06852597
-0.0027416197 -0.12068756 0.070911892
0.005673355 -0.12187897 0.07083153
0.014911266 -0.12247393 0.070513479
0.025242141 -0.12187029 0.07041578
0.034560889 -0.12159391 0.070281647
0.045097083 -0.12108292 0.070345551
0.05446744 -0.12044609 0.070099749
0.060598068 -0.12020581 0.070022136
-0.010254222 -0.1105753 0.070056669
-0.0055004782 -0.1149147 0.072106838
0.0047472226 -0.11518494 0.072209001
0.014957648 -0.11505935 0.071903884
0.026007632 -0.11435454 0.073281683
0.034996416 -0.11691749 0.074757867
0.044935074 -0.11857752 0.074724771
0.055036176 -0.11701216 0.074437216
0.065004729 -0.11523289 0.074011274
0.074344933 -0.11452292 0.070772015
0.084672719 -0.11321513 0.070677519
0.092955813 -0.11298729 0.070444845
-0.011415823 -0.10375104 0.071178295
-0.0056660543 -0.10491827 0.073964089
0.0050314548 -0.10488392 0.074090622
0.015256751 -0.10488616 0.073791176
0.022346595 -0.10578047 0.075890362
0.066331089 -0.10447942 0.075552694
0.074967489 -0.10502686 0.072347917
0.084961705 -0.10489714 0.072135352
0.094836682 -0.10493731 0.071665525
-0.012455086 -0.094465442 0.072551742
-0.0054918323 -0.094918467 0.075950511
0.0047288486 -0.09469267 0.075949781
0.015909608 -0.094850086 0.075922072
0.020445785 -0.097997181 0.077816993
0.067618415 -0.095004238 0.07611879
0.07451655 -0.094755456 0.074187838
0.084702745 -0.094995767 0.073897831
0.095648587 -0.094746888 0.073115245
-0.01326956 -0.084901065 0.074009486
-0.0050228345 -0.085089587 0.077873655
0.0050284308 -0.085052431 0.077708624
0.015082072 -0.085156843 0.077766769
0.06809327 -0.085284285 0.077167109
0.075248651 -0.085328586 0.07588584
0.085077144 -0.08507102 0.075685471
0.095528126 -0.08506918 0.074139677
-0.011982102 -0.0764919 0.074600227
-0.0055571608 -0.073911011 0.07761623
0.0050903545 -0.074736819 0.079054609
0.013486217 -0.075130165 0.079108268
0.068249956 -0.075744219 0.078438871
0.075061701 -0.075136721 0.077755563
0.084968925 -0.075032189 0.077510975
0.095222861 -0.075067416 0.074476056
-0.0032352554 -0.069116108 0.072365366
0.0050751017 -0.068970539 0.073543124
0.015206114 -0.065953583 0.074721359
0.067593299 -0.064360432 0.075218797
0.075066425 -0.065936469 0.075307377
0.08495722 -0.066041246 0.075858139
0.092469424 -0.066831551 0.074502498
0.015350171 -0.055101704 0.07510636
0.066618428 -0.054857798 0.075013429
0.014703245 -0.045169793 0.074788049
0.066114604 -0.044759709 0.074630804
0.013830744 -0.034766823 0.074895129
0.065834984 -0.034861617 0.075028233
0.013084031 -0.025196163 0.074987598
0.065399677 -0.025007203 0.075178429
0.0099213095 -0.011337995 0.079754248
0.012773637 -0.015122866 0.074625529
0.064728677 -0.015178964 0.075134352
0.0096707689 -0.0042113801 0.079254173
0.012958738 -0.0051645078 0.073941752
0.059572674 -0.0015756686 0.070370644
0.063760489 -0.0050907712 0.074897617
0.0094610211 0.0049003642 0.078952692
0.013252896 0.0050080707 0.073715687
0.058874581 0.0060607363 0.070913829
0.063152954 0.0053505157 0.075365879
0.0092938961 0.015232881 0.078592256
0.013809173 0.015259357 0.073454082
0.057784881 0.015357088 0.072387077
0.062865421 0.014322991 0.077042438
-0.081324622 0.029594952 0.070020661
-0.077188395 0.029780831 0.070036665
0.0089387652 0.025320549 0.07863991
0.013385457 0.025034843 0.073952876
0.057749663 0.025358742 0.073866472
0.061174098 0.024646023 0.078583814
-0.082062826 0.036511786 0.07096757
-0.074907646 0.034568112 0.0708092
-0.065155819 0.035115208 0.070786193
-0.054843243 0.035880074 0.070793264
-0.045138054 0.035711136 0.070656575
-0.035354175 0.035890125 0.070585161
-0.025010802 0.036312498 0.070549332
-0.014692733 0.03699233 0.070558146
-0.0055794222 0.037412759 0.07054843
0.006643903 0.03654851 0.073601566
0.012232383 0.035376683 0.073861457
0.058184307 0.035102647 0.07472606
0.062693633 0.037174735 0.073945351
0.072297364 0.039839916 0.070058733
-0.083812341 0.04490006 0.071977563
-0.074856155 0.044968911 0.072545111
-0.065052755 0.045104846 0.072452843
-0.054853141 0.044950791 0.072307579
-0.044835385 0.044759989 0.072158284
-0.035102166 0.044987526 0.072083779
-0.025032254 0.044810638 0.071946628
-0.01512941 0.04482051 0.071849398
-0.004950603 0.045223821 0.071839876
0.0060131992 0.045040339 0.073057882
0.011235893 0.044447217 0.075705707
0.058710728 0.044547461 0.075319253
0.065000884 0.045228537 0.071082063
0.074813582 0.044969991 0.070878841
0.084926277 0.04511559 0.070777021
0.094591953 0.045605369 0.070763476
0.10482793 0.046026263 0.070756599
0.11548881 0.046037056 0.070695736
0.12456433 0.045870464 0.070615299
0.13477121 0.046362672 0.070638053
0.14455426 0.046476338 0.0705963
0.15158479 0.047503524 0.070567854
-0.085503608 0.055052973 0.07322076
-0.074925013 0.054957423 0.074213557
-0.065034226 0.054974061 0.07410036
-0.054912429 0.054997571 0.073985659
-0.044787947 0.054803755 0.07383462
-0.03484948 0.055343453 0.07380832
-0.024810588 0.054934345 0.073624216
-0.014734942 0.05510781 0.073551476
-0.0050405171 0.054618374 0.073414207
0.0063362359 0.054765694 0.074947864
0.010537691 0.053238504 0.077548325
0.059244573 0.05463903 0.076676726
0.065062732 0.055057094 0.072775938
0.07511615 0.054972317 0.072535574
0.084900089 0.055165574 0.072453193
0.094883725 0.054939497 0.072328582
0.10471065 0.055152778 0.072283767
0.11512967 0.055134278 0.072213165
0.12519068 0.054991379 0.072130941
0.1350147 0.055250969 0.07211715
0.14532323 0.054795206 0.071947329
0.15255836 0.055322859 0.071442895
-0.09051834 0.066329718 0.071256869
-0.085384853 0.06478785 0.075308397
-0.07532981 0.065130889 0.075916842
-0.064950921 0.065073736 0.075786151
-0.05526017 0.065127537 0.075684562
-0.045115747 0.065310642 0.075603358
-0.035110597 0.064975224 0.075439036
-0.02496314 0.064424261 0.075237833
-0.015294102 0.065476321 0.075317055
-0.0050987368 0.064855009 0.075139716
0.0050919279 0.064675294 0.076305777
0.059726823 0.064008996 0.077885866
0.064548612 0.065155253 0.074652158
0.075085513 0.064884312 0.074181825
0.085003868 0.064809211 0.074068561
0.095058441 0.064905435 0.074000791
0.10498899 0.065148219 0.073958829
0.11484928 0.064945228 0.073850133
0.12470625 0.065372683 0.07386297
0.13505358 0.065120012 0.07376083
0.14507 0.065117523 0.073601604
0.15368615 0.065365992 0.072486073
-0.091221116 0.075141169 0.073029585
-0.085647739 0.074897103 0.077428363
-0.075110935 0.075096436 0.077592045
-0.065032519 0.075060397 0.077478886
-0.054810666 0.075369693 0.077424049
-0.045032248 0.074834764 0.077229537
-0.035014957 0.07488656 0.077132903
-0.025018267 0.074915327 0.077032506
-0.01514019 0.074890278 0.076924145
-0.0048031653 0.074848004 0.076824799
0.0033358815 0.074960843 0.077529989
0.028848864 0.074232139 0.072910398
0.033275735 0.075654291 0.076190323
0.059913006 0.071099713 0.079497389
0.064463794 0.075125076 0.07650283
0.075391427 0.075121649 0.07588467
0.084941603 0.075125881 0.075801536
0.094912305 0.074616879 0.075632937
0.10516302 0.075071 0.07562378
0.11485305 0.075306512 0.075583301
0.12503929 0.075084791 0.0754788
0.13523901 0.075168788 0.075433575
0.1452112 0.07485839 0.075128481
0.1541793 0.074870229 0.073669933
-0.091411315 0.083085112 0.072878771
-0.08555501 0.085412428 0.076798141
-0.075050011 0.08490704 0.079186544
-0.065013506 0.085257225 0.079165854
-0.054845467 0.085217722 0.07910426
-0.04527995 0.085011475 0.078974083
-0.034718122 0.08503972 0.078866698
-0.02476711 0.084997073 0.078754045
-0.015034691 0.085134521 0.07867492
-0.0047568912 0.085026219 0.07855127
0.0044980696 0.085211113 0.074835747
0.015398398 0.085911721 0.070555612
0.025574496 0.085280649 0.070889339
0.033630885 0.083959661 0.073167019
0.046120171 0.085202426 0.070134424
0.054630388 0.088318028 0.07017339
0.065351851 0.08458408 0.077942379
0.075040244 0.084847189 0.077516966
0.084716313 0.085065201 0.077472605
0.09504021 0.085190408 0.077407606
0.10498933 0.085267112 0.077337511
0.11494442 0.084985912 0.077207334
0.124676 0.084908947 0.077119164
0.13497177 0.085156128 0.077088431
0.14486842 0.08489275 0.076699056
0.15531641 0.085419223 0.074511565
-0.082639471 0.092424557 0.074087381
-0.075328186 0.094559297 0.075550407
-0.064883746 0.095104419 0.075735368
-0.05490429 0.09533488 0.075990029
-0.044898581 0.095682211 0.076260276
-0.034958418 0.095994383 0.076409683
-0.024896007 0.096310034 0.076495402
-0.015234268 0.095923439 0.077530235
-0.0048376247 0.095178708 0.07848563
0.0020806321 0.097301528 0.078029796
0.058388367 0.090814739 0.070319466
0.066304184 0.095036618 0.079119414
0.075265922 0.095131949 0.079151474
0.085423909 0.094819687 0.079092994
0.09509977 0.094834276 0.079026639
0.10489956 0.094883487 0.078953192
0.11497767 0.09544044 0.078962781
0.1249686 0.094566219 0.078733206
0.13509719 0.094878957 0.078662179
0.1449676 0.095035762 0.078170314
0.15484771 0.095352001 0.075529829
-0.020483324 0.1000309 0.070175827
-0.013825355 0.10021395 0.071417443
-0.0044256281 0.10049962 0.072861642
0.0053791436 0.10087315 0.07432735
0.015270743 0.10256694 0.075755671
0.024871446 0.10516635 0.075120285
0.035140719 0.10549923 0.074800059
0.045339841 0.10533862 0.075842977
0.05487255 0.1035163 0.075356551
0.064539075 0.10341742 0.074692808
0.075023234 0.10369819 0.074942417
0.085454099 0.10392094 0.075407684
0.095073253 0.10442518 0.075523369
0.10508563 0.10484534 0.075690761
0.11525151 0.10506221 0.076040342
0.1246307 0.10532564 0.076360203
0.13522238 0.10580181 0.075905696
0.14438777 0.10431249 0.074927881
0.15270086 0.10237397 0.072795883
0.027676612 0.11069442 0.07934054
0.035156585 0.11093991 0.079336368
0.041760139 0.11025833 0.07949245
-0.022711128 0.12675163 0.0794103
0.045010787 -0.12037709 0.085995927
0.028204642 -0.1121143 0.083605483
0.035574935 -0.11485915 0.085475013
0.045014076 -0.11871234 0.084491506
0.053953469 -0.11388728 0.084765144
0.060783822 -0.11114892 0.081190437
0.024958642 -0.10510433 0.085264601
0.031194124 -0.10907365 0.089468852
0.057989072 -0.10758252 0.08736527
0.062868252 -0.10388026 0.084130913
0.019765839 -0.091075704 0.081344448
0.021739028 -0.095039912 0.085663751
0.065048933 -0.09508577 0.085332647
0.019054567 -0.084600829 0.08390712
0.020744052 -0.087424435 0.08813373
0.066133313 -0.084988385 0.08507368
-0.0052415975 -0.073545679 0.080078773
0.0016910533 -0.073034465 0.080023333
0.01743602 -0.075037546 0.084812254
0.066923343 -0.074913934 0.084766582
0.015670728 -0.065012805 0.085239507
0.06747783 -0.065053381 0.084963322
0.013973062 -0.055182762 0.085005641
0.067803964 -0.054986496 0.0852971
0.012423296 -0.044909932 0.084803782
0.068074167 -0.045194265 0.085083932
0.011103169 -0.034980454 0.084811904
0.068193533 -0.035218328 0.085082382
0.0095236227 -0.023654295 0.086425468
0.010391699 -0.026194861 0.082820602
0.068180926 -0.024658976 0.084776759
0.0087506445 -0.014936127 0.085402668
0.010134291 -0.017459916 0.08036726
0.068176903 -0.015186458 0.084977865
0.0080026109 -0.0050702244 0.084456205
0.067952827 -0.0049547702 0.084506795
0.0069305315 0.005309246 0.084960438
0.067788847 0.0048703519 0.084838636
0.006134389 0.014848594 0.084953435
0.067239136 0.015139078 0.084493205
0.0053521153 0.024901567 0.085252523
0.066046663 0.025249498 0.084636159
0.004837025 0.035096902 0.085100092
0.065217525 0.035067841 0.084531628
0.0046412097 0.045046799 0.084833652
0.059691701 0.045387506 0.080408752
0.064458281 0.044933796 0.085167378
0.0045953412 0.055019945 0.084751919
0.059379216 0.055142868 0.080639876
0.063709192 0.054783344 0.085694395
0.0046132272 0.065027393 0.084690981
0.03307962 0.06972833 0.084469818
0.059504077 0.064753763 0.080965444
0.063368358 0.064843319 0.085841097
0.0043868013 0.075070091 0.084732272
0.033646192 0.072845094 0.082336351
0.05976627 0.074677028 0.081679597
0.063037708 0.075252362 0.085985914
0.0033339821 0.084958144 0.085182153
0.059924014 0.08236824 0.082532629
0.062233873 0.08513549 0.085187629
0.0026528784 0.094943561 0.085119382
0.06216659 0.094471067 0.085174575
0.0061316979 0.10437964 0.085337065
0.013681501 0.10694788 0.08166831
0.0211956 0.10955202 0.080435075
0.048330966 0.10944093 0.080250047
0.055932391 0.10558764 0.084257588
0.060913958 0.10169458 0.085424788
0.11618669 0.10179459 0.080019467
0.12523417 0.10245713 0.080039859
0.13152239 0.10285904 0.08004275
0.0084664803 0.1114395 0.088153668
0.015774257 0.11416759 0.086482592
0.024603961 0.11557678 0.084453911
0.035181645 0.11595125 0.083365902
0.04510441 0.11493155 0.085098118
0.052455757 0.11241847 0.086686321
-0.023153774 0.12780569 0.084733017
-0.015331324 0.12742525 0.085547924
-0.0059663365 0.12834872 0.087891527
0.0032918388 0.12637003 0.089155361
0.019490909 0.12007062 0.089930862
0.025997013 0.12064367 0.088701017
0.033952501 0.1207414 0.088337682
0.040322933 0.12008715 0.089956321
-0.023707278 0.13024929 0.088361166
-0.018049782 0.13008225 0.088594988
0.067701772 0.13355292 0.089086264
0.075513706 0.13439748 0.087034002
0.084512807 0.13375725 0.085748218
0.04477502 -0.12081937 0.094907098
0.039504487 -0.11404312 0.094397582
0.045122936 -0.11889823 0.095217831
0.050381903 -0.11356499 0.094878271
0.027906243 -0.10305049 0.091575086
0.035987724 -0.10543464 0.094888076
0.049808815 -0.1058441 0.098623864
0.053891893 -0.10496451 0.093742549
0.0602438 -0.1005025 0.090325177
0.026388828 -0.0947356 0.093235962
0.033872142 -0.09562964 0.097705327
0.04951575 -0.097910523 0.099508278
0.055441283 -0.095096156 0.096162364
0.061502166 -0.093959421 0.091350533
0.02476164 -0.084799729 0.094894655
0.03151837 -0.087698787 0.098990552
0.056781515 -0.085641019 0.09797769
0.062500864 -0.084953882 0.092751004
0.019140532 -0.073421918 0.091720209
0.02296955 -0.075692944 0.096493639
0.058725961 -0.076375581 0.098920614
0.063316397 -0.074644797 0.094140828
0.017987762 -0.064260393 0.093586303
0.021188922 -0.066721976 0.098059937
0.037120581 -0.060518455 0.099199131
0.059743464 -0.068985999 0.099698506
0.063855663 -0.06497401 0.095449351
0.016565017 -0.054714311 0.095037133
0.020296967 -0.059415501 0.099850111
0.037632436 -0.056605093 0.096567102
0.042752802 -0.054326415 0.097620174
0.065363884 -0.054989636 0.095327713
0.014640437 -0.045293488 0.09541364
0.066404864 -0.045027092 0.095247246
