# .PCD v0.7 - Point Cloud Data file format
VERSION 0.7
FIELDS x y z
SIZE 4 4 4
TYPE F F F
COUNT 1 1 1
WIDTH 466
HEIGHT 1
VIEWPOINT 0 0 0 1 0 0 0
POINTS 466
DATA ascii
-0.040823229 0.019019431 -0.00019039196
-0.036520552 0.018008534 -0.00017372397
-0.042145055 0.022031032 -9.6064614e-05
-0.037283577 0.021471733 -0.00014594554
-0.072966874 0.053596232 -5.0236242e-05
-0.081193335 -0.080746956 0.0083421376
-0.076142043 -0.081658952 0.0075504766
-0.091535054 -0.071383804 0.0062326682
-0.085007548 -0.074969716 0.004496817
-0.074638337 -0.075441077 0.0053523886
-0.067435905 -0.07330893 0.0080816317
-0.10185041 -0.061840475 0.0065610437
-0.095333442 -0.065316632 0.0034871702
-0.085035115 -0.064924993 0.0019092802
-0.075024374 -0.064969189 0.003622748
-0.065046564 -0.064971693 0.0063530407
-0.058446877 -0.062279768 0.0087568723
-0.103488 -0.055238981 0.0057033836
-0.095502153 -0.054887071 0.0022678738
-0.085053764 -0.055189081 0.002426937
-0.074967943 -0.055075034 0.0034435282
-0.064814843 -0.055073176 0.0050728894
-0.055798911 -0.054609288 0.0077645462
-0.049868993 -0.050234947 0.0097452626
-0.10170635 -0.048154756 0.0081654079
-0.094973154 -0.045217074 0.0058488599
-0.084973864 -0.044960108 0.0037832086
-0.0749892 -0.045099244 0.0040430087
-0.065044567 -0.045030791 0.0051294253
-0.054922644 -0.044939253 0.0071548638
-0.048485804 -0.043834902 0.009242652
-0.091683224 -0.038499217 0.0084307054
-0.084667429 -0.035430271 0.0067963256
-0.075150728 -0.034929547 0.0055341125
-0.064975262 -0.034881927 0.0057874555
-0.055035289 -0.035066571 0.007391219
-0.047331106 -0.034868579 0.0092208851
-0.081419788 -0.028925875 0.0092548579
-0.074512258 -0.026251689 0.0080870651
-0.065103151 -0.025112184 0.0076864674
-0.055076968 -0.025117308 0.0084219528
-0.048141453 -0.026003264 0.0096246945
-0.07032451 -0.019804139 0.0099684848
-0.063876577 -0.017971409 0.009371683
-0.055430271 -0.018117817 0.009590786
-0.049569365 -0.019151986 0.0099326139
-0.041864611 -0.00096248364 0.0094639575
-0.034578178 -0.0024632767 0.0082747433
-0.025094004 -0.0029864693 0.0077271154
-0.015575827 -0.0021432 0.0082753096
-0.0080240071 -0.00081550371 0.0092822816
-0.05103875 0.0085013285 0.0090233916
-0.044695035 0.0053792731 0.0068048751
-0.035070151 0.0048775836 0.0041127806
-0.024912918 0.004813897 0.0029571305
-0.01504854 0.0048989458 0.0041105771
-0.0051998361 0.0054619745 0.0073088277
6.0707436e-05 0.0095942104 0.0099553084
-0.060451046 0.019361926 0.0095078982
-0.053967327 0.015816418 0.0068470803
-0.045164976 0.014900657 0.0025766934
-0.034439504 0.013942626 0.0007158356
-0.02489477 0.014950487 0.00089626748
-0.014916359 0.01502745 0.0027167299
-0.0049795243 0.014863815 0.0069307736
0.00017789619 0.013029923 0.0097799608
-0.070153445 0.029876634 0.0098960279
-0.063607529 0.026145207 0.0072837397
-0.055192884 0.024823621 0.0031401333
-0.045591202 0.025335984 0.0005388445
-0.034449559 0.025724031 0.00056833832
-0.024949109 0.025125807 0.0017442335
-0.014914774 0.02500779 0.0054862928
-0.0073920619 0.023209695 0.0086491639
-0.073129073 0.036242042 0.0073773991
-0.065245345 0.034854237 0.0034853169
-0.055133685 0.034946125 0.0010639153
-0.04494375 0.034983326 0.00124883
-0.034890674 0.03485937 0.0018523132
-0.024895877 0.03510803 0.0045276256
-0.016679529 0.033616882 0.0081751281
-0.0823019 0.046688996 0.0076010264
-0.075671248 0.045484267 0.0037353933
-0.065140821 0.044843461 0.00082531851
-0.055035356 0.044975702 0.0016519841
-0.045023981 0.044892035 0.0024688372
-0.034792405 0.045138098 0.0039588939
-0.026242618 0.043956805 0.0074946927
-0.019641252 0.040451705 0.00986432
-0.082247876 0.054544572 0.0067806588
-0.075773455 0.054933578 0.001662162
-0.065005548 0.054996129 0.00077472941
-0.054853871 0.05498343 0.0021412368
-0.044811394 0.055071522 0.0037336603
-0.035791922 0.054170314 0.0070397058
-0.029270696 0.050651506 0.0093177129
-0.082053959 0.064793453 0.008205642
-0.074818164 0.065054506 0.0048107645
-0.065277651 0.065364502 0.0020681934
-0.054773804 0.06518171 0.0031749918
-0.045711506 0.064526185 0.0067218561
-0.039003495 0.060873181 0.0091619371
-0.080211692 0.070164301 0.0092370976
-0.074438609 0.073183455 0.0074858274
-0.064847343 0.073763259 0.006207875
-0.055828486 0.073633999 0.0065571894
-0.048925593 0.070948973 0.0088876579
-0.082101174 -0.081837893 0.015443967
-0.074798062 -0.084023744 0.014873888
-0.069259271 -0.080810532 0.016343517
-0.092587814 -0.072308786 0.015316722
-0.087052435 -0.077223197 0.014688344
-0.072575986 -0.078562476 0.010410987
-0.064589262 -0.075077973 0.014907719
-0.059756014 -0.070258379 0.017667972
-0.10289394 -0.062892437 0.015279153
-0.097592086 -0.06763079 0.014657706
-0.06086928 -0.068979338 0.011313931
-0.055856891 -0.064660169 0.015127604
-0.10775419 -0.05504455 0.015057562
-0.051639505 -0.057515211 0.012990085
-0.047429409 -0.053640988 0.015813511
-0.10308179 -0.046697158 0.015323041
-0.098194592 -0.041840985 0.014444802
-0.043606851 -0.045460764 0.014138519
-0.038988449 -0.041843597 0.018036915
-0.093284711 -0.036665972 0.015244851
-0.088124558 -0.031875707 0.014280489
-0.042374656 -0.035585321 0.011365879
-0.036551598 -0.034395348 0.015911616
-0.082841218 -0.025981355 0.015582657
-0.076860003 -0.022377897 0.012390465
-0.043382436 -0.024502574 0.010736931
-0.034639228 -0.025241515 0.014621006
-0.028849822 -0.022855725 0.018297596
-0.081571475 -0.015128758 0.016987016
-0.074676938 -0.015417161 0.014737532
-0.065589324 -0.01344995 0.012858078
-0.054837607 -0.013060184 0.010731205
-0.04488916 -0.014946878 0.011330179
-0.034352604 -0.014815732 0.013525857
-0.026061034 -0.0138618 0.016509715
-0.017665833 -0.011180628 0.017954947
-0.080252215 -0.0097838016 0.018210627
-0.074581333 -0.0067610941 0.017249227
-0.065023273 -0.0050535132 0.016994072
-0.05523878 -0.0048033237 0.013961123
-0.045234583 -0.0051925462 0.011408199
-0.035061322 -0.0073142615 0.011207087
-0.024844738 -0.0080452887 0.011725479
-0.014436955 -0.0070830132 0.014024763
-0.0052954592 -0.0035978504 0.015331373
0.0010498541 -0.00089691067 0.018631294
-0.063254975 0.0021629806 0.018718412
-0.055153668 0.004968584 0.015285935
-0.048707679 0.0013979643 0.010806916
-0.0013943091 0.0016891556 0.011982648
0.0032656754 0.005368338 0.015440305
-0.06281963 0.016787654 0.015911551
-0.057764731 0.012579799 0.013263468
-0.00084686012 0.016663201 0.010836451
0.0040171044 0.014917986 0.014584609
-0.0804343 0.029256994 0.019283678
-0.073211171 0.027658032 0.016681463
-0.067127682 0.02322025 0.013833739
-0.0035038532 0.026200235 0.013069462
0.0026539392 0.023387309 0.016988473
-0.08159855 0.036539607 0.01745032
-0.076667272 0.033651929 0.014005609
-0.012997275 0.036788929 0.012886058
-0.0068031242 0.033423558 0.016305707
-0.085687533 0.04471622 0.0147015
-0.079696119 0.040207271 0.010237418
-0.022596573 0.047217183 0.013102748
-0.016446508 0.043287363 0.016027527
-0.090275548 0.059131961 0.019380681
-0.086562514 0.055054851 0.014699221
-0.032364715 0.057504494 0.01332528
-0.026430691 0.053314894 0.015924295
-0.090646021 0.068091087 0.018451586
-0.086840071 0.065027632 0.014191231
-0.042216297 0.067691505 0.013267471
-0.036516 0.063563623 0.01576443
-0.10028341 0.079722933 0.017300026
-0.094492912 0.075746216 0.015575979
-0.08492329 0.074712053 0.012727992
-0.075557373 0.076918811 0.0130219
-0.064586781 0.078235283 0.013576669
-0.054023556 0.077451147 0.013107528
-0.046461985 0.073277861 0.015604278
-0.1022736 0.084689282 0.015853275
-0.095269471 0.085085727 0.012480196
-0.085519373 0.085157491 0.015347949
-0.075289503 0.081190407 0.017689735
-0.066228688 0.080940478 0.01740076
-0.05651515 0.081192963 0.017187664
-0.10016619 0.090216033 0.01837796
-0.094815336 0.092306785 0.016059183
-0.08972045 0.090228565 0.016174294
-0.082948074 -0.08240705 0.025068935
-0.075478293 -0.083188541 0.024572728
-0.069415338 -0.080556013 0.021259991
-0.093504488 -0.073206425 0.025217934
-0.088053115 -0.078128032 0.024901863
-0.072599642 -0.078233548 0.028341042
-0.065374918 -0.074703708 0.024751483
-0.059775542 -0.070215315 0.020941325
-0.10316061 -0.063633934 0.024942413
-0.098393954 -0.068489388 0.024754245
-0.061144873 -0.068901338 0.027947001
-0.055905018 -0.06458196 0.024733543
-0.10496791 -0.05512267 0.025219437
-0.097996771 -0.053605016 0.029129006
-0.05111694 -0.058635175 0.026133832
-0.046970341 -0.05383816 0.024599293
-0.10223684 -0.047224704 0.023315175
-0.096532568 -0.043960668 0.026653459
-0.04216798 -0.047041126 0.025461456
-0.038500074 -0.042144958 0.024312608
-0.092793621 -0.036986705 0.024275476
-0.087725259 -0.032878127 0.026498139
-0.034058642 -0.035019651 0.025019271
-0.082972094 -0.026015691 0.024500145
-0.078064024 -0.022295991 0.027796941
-0.030599272 -0.028984169 0.025422674
-0.027666491 -0.024251092 0.024931503
-0.081644669 -0.015182903 0.022370262
-0.074957363 -0.01495731 0.026103279
-0.068349987 -0.011876498 0.028216083
-0.022827616 -0.017292319 0.024812782
-0.015973613 -0.012312666 0.025176205
-0.080533653 -0.0095155621 0.022225382
-0.074261226 -0.0060142833 0.023746431
-0.06584356 -0.004113005 0.026909776
-0.059477899 -0.0010421682 0.029236885
-0.011086851 -0.0094810417 0.023615045
-0.0050285342 -0.0065172738 0.025026442
0.0023377424 -0.0020561661 0.025069101
-0.06330543 0.0031050334 0.025029097
-0.05915181 0.0074161785 0.025012806
0.0066901674 0.0048833741 0.024956038
-0.064030707 0.015079045 0.024906568
-0.059644151 0.010369896 0.021820998
0.0086973961 0.01498712 0.025082808
-0.080455571 0.029531498 0.020621086
-0.073773406 0.026282419 0.024684824
-0.069029532 0.02107588 0.024787081
-0.00024122231 0.029736239 0.020690074
0.0050190371 0.02545286 0.024963651
-0.082095616 0.036215547 0.024263438
-0.078282915 0.031976923 0.026250713
-0.010276931 0.039893378 0.020411763
-0.0044526644 0.035560843 0.024594704
0.0010588856 0.030956678 0.027139775
-0.090014145 0.048141345 0.025226614
-0.087785587 0.044879843 0.025015352
-0.020271368 0.049767904 0.0205396
-0.014511912 0.045381062 0.024746129
-0.0091904737 0.040744577 0.026430003
-0.090839244 0.058712527 0.023531115
-0.088682696 0.054360487 0.025216112
-0.030241931 0.059794202 0.020638285
-0.02493863 0.055366278 0.024993787
-0.019519094 0.050506748 0.026221545
-0.09072081 0.065223284 0.023664612
-0.089066342 0.065248035 0.027349317
-0.040436547 0.069587842 0.025411891
-0.034920428 0.064640328 0.024977105
-0.029843379 0.060191065 0.025912561
-0.10051844 0.079578578 0.023322925
-0.094572745 0.075271435 0.025364483
-0.088064075 0.076536559 0.028928669
-0.07652621 0.079149008 0.02902546
-0.063121654 0.079866849 0.0202507
-0.050997242 0.079174846 0.025316417
-0.045279987 0.074178919 0.02491314
-0.10271233 0.084828444 0.023857988
-0.094981171 0.085026503 0.027204871
-0.085237779 0.085247703 0.025704488
-0.074934475 0.081636898 0.024836393
-0.06495893 0.081555068 0.024867106
-0.055774409 0.08216764 0.024898008
-0.10044521 0.090540357 0.022921503
-0.095126234 0.092747621 0.02388693
-0.089803629 0.090234108 0.021585293
-0.082101621 -0.081091896 0.030679321
-0.079309322 -0.08099059 0.030251561
-0.092267223 -0.072295479 0.031261642
-0.084888086 -0.074972227 0.032026973
-0.07584469 -0.073881775 0.031511206
-0.06769827 -0.071576506 0.030952638
-0.10103934 -0.062421929 0.030690568
-0.094740637 -0.064756863 0.03160074
-0.08509741 -0.06508892 0.032715436
-0.075005673 -0.06500189 0.033650849
-0.065072872 -0.064896241 0.033038761
-0.057932701 -0.062250666 0.03173114
-0.10066382 -0.059268259 0.030291239
-0.093839772 -0.055591218 0.031072551
-0.085124366 -0.054944582 0.033059292
-0.07504002 -0.054995485 0.034576364
-0.064859957 -0.055101566 0.035768576
-0.054968819 -0.054983694 0.034084689
-0.048490409 -0.052013118 0.031819586
-0.091963224 -0.046564925 0.030759985
-0.085020609 -0.044916198 0.032746743
-0.074796274 -0.044976756 0.0351342
-0.065075018 -0.045287885 0.036605727
-0.054993987 -0.045104399 0.036986917
-0.045328427 -0.044541251 0.033778049
-0.03942395 -0.040950157 0.030827008
-0.083417155 -0.035825204 0.031887792
-0.075114883 -0.034959365 0.034618832
-0.06510672 -0.035018001 0.036773622
-0.054915566 -0.035115376 0.037871219
-0.044921212 -0.035118558 0.03715191
-0.036792692 -0.034182344 0.033278935
-0.080886655 -0.028926175 0.030671893
-0.074485518 -0.025545543 0.032815538
-0.065106936 -0.02492529 0.03608156
-0.055027403 -0.024921183 0.038010977
-0.045135319 -0.024910932 0.03866107
-0.034502286 -0.025177702 0.036119703
-0.028264876 -0.022697957 0.032443173
-0.071586683 -0.018238757 0.031239448
-0.06489227 -0.015327682 0.033839796
-0.054992724 -0.014836285 0.037221536
-0.045284539 -0.015283559 0.038981557
-0.03465436 -0.017402161 0.0389986
-0.024453398 -0.016056914 0.035510056
-0.016292896 -0.011774164 0.034596577
-0.062073492 -0.0076526357 0.031665213
-0.055349298 -0.0046232119 0.035786044
-0.04852749 -0.0071749371 0.039294906
-0.011528503 -0.0093666315 0.036464818
-0.0049161105 -0.0065004909 0.035035562
0.0019972913 -0.0019966981 0.034446076
-0.060575157 0.0069990158 0.031400353
-0.057300176 0.0046185241 0.035286237
0.006832581 0.0047346707 0.035127327
0.010007639 0.0098408628 0.032831557
-0.063469037 0.015477536 0.034779493
-0.059432846 0.011117474 0.038267352
0.0090842834 0.015245408 0.035796165
0.010112764 0.014047977 0.032904234
-0.07230626 0.027068781 0.034207691
-0.068081662 0.022546567 0.036023453
0.0059129829 0.025374727 0.034930859
-0.081344843 0.038123447 0.03324423
-0.076907068 0.034054 0.035809103
-0.010368641 0.039599955 0.039272163
-0.0045217117 0.035787977 0.035285212
0.0010127561 0.031013716 0.034123488
-0.085460678 0.044959027 0.035101697
-0.079424471 0.040782228 0.03943586
-0.021074269 0.049225755 0.038242433
-0.0149307 0.045099787 0.035091624
-0.0091779493 0.040628616 0.032933742
-0.087137572 0.055210285 0.035036471
-0.031563316 0.058690552 0.037188016
-0.025303917 0.054244809 0.034898248
-0.019594649 0.050358709 0.031740431
-0.085423484 0.065187149 0.035498183
-0.079137094 0.069457397 0.039927028
-0.042273171 0.068085223 0.036315128
-0.036005519 0.063543573 0.034814876
-0.083486997 0.073980235 0.033354551
-0.075706407 0.076369591 0.035980903
-0.066250458 0.078485832 0.036478601
-0.053647175 0.07735011 0.036338054
-0.046623513 0.072947577 0.03430026
-0.08176776 0.080137976 0.030121753
-0.072133243 0.080863878 0.031950224
-0.063815393 0.080906831 0.032793015
-0.057180133 0.081331708 0.033071622
-0.041488837 -0.011114213 0.040313698
-0.034959666 -0.012368587 0.041269526
-0.025616821 -0.011736745 0.042050868
-0.018070638 -0.010462597 0.040877871
-0.050449714 -0.00069658714 0.04050662
-0.044159789 -0.0043967878 0.042766929
-0.035406556 -0.0054692812 0.046266038
-0.025255602 -0.0075378073 0.047074452
-0.014793147 -0.0073457579 0.045476001
-0.0050197002 -0.0036851713 0.044887438
0.00085787772 -0.00091955747 0.041569378
-0.052920528 0.0058843186 0.043383714
-0.046402048 0.0036226886 0.047270317
-0.039188974 0.00052846351 0.0496668
-0.0010979072 0.0016933266 0.048907079
0.0033259827 0.0049729911 0.044712689
-0.061552636 0.017637597 0.042153101
-0.055981494 0.014375842 0.046046454
-0.049588516 0.010689355 0.049700823
0.0046028844 0.015076499 0.045233224
-0.07057216 0.02913543 0.040586412
-0.064353742 0.025500288 0.04459862
-0.058487177 0.023430394 0.048832595
-0.0032373967 0.02720603 0.047309253
0.0028636707 0.024164692 0.043845851
-0.073049225 0.036040451 0.042875081
-0.065225281 0.034759901 0.047448386
-0.058662791 0.035709456 0.04960268
-0.02106542 0.039042935 0.04916067
-0.014047545 0.036646351 0.046527416
-0.0062585585 0.033110898 0.043616138
0.00024934625 0.030124506 0.040194847
-0.082132004 0.047378991 0.041741628
-0.075250484 0.044781078 0.045050364
-0.065087594 0.045045253 0.047933429
-0.057415426 0.045391787 0.049452603
-0.032950938 0.048100162 0.048814084
-0.024530662 0.045531109 0.045881081
-0.0168621 0.042449597 0.042917758
-0.083202988 0.05469913 0.042543203
-0.075124323 0.054943148 0.046139464
-0.065084428 0.054946396 0.048090655
-0.055964608 0.055753473 0.04952167
-0.044429425 0.056815878 0.048275821
-0.035166807 0.05474896 0.045074243
-0.027566394 0.05194167 0.042176545
-0.080946565 0.062367097 0.041422375
-0.075292245 0.065191433 0.044530086
-0.064929761 0.064934164 0.04811462
-0.054818869 0.065314211 0.047190428
-0.045539245 0.064337879 0.04367245
-0.038378764 0.061458275 0.041392639
-0.07236167 0.071831033 0.042596832
-0.064805232 0.074395634 0.044284984
-0.055970095 0.073254891 0.042745277
-0.049384642 0.070738137 0.040711496
-0.032617483 -0.0012781578 0.050999898
-0.024677098 -0.0027288252 0.052163318
-0.015097263 -0.0024548506 0.052376375
-0.008201113 -0.0011386003 0.051071819
-0.043002103 0.0066718962 0.051625282
-0.035008557 0.0048472998 0.054190513
-0.024832012 0.0049782451 0.056311652
-0.014972563 0.004799461 0.056365427
-0.005343874 0.0053000487 0.053357456
0.00031397323 0.0085380711 0.050215513
-0.051854029 0.017350094 0.051085848
-0.045082107 0.014972799 0.053686667
-0.035049506 0.014891203 0.056756739
-0.024842057 0.015090181 0.05801956
-0.014899347 0.014861549 0.057241883
-0.0047626756 0.014934977 0.054108094
0.00054885482 0.014276119 0.050444018
-0.053767234 0.02518047 0.051383324
-0.044941757 0.024964318 0.054158408
-0.03498565 0.025140341 0.056342263
-0.025015939 0.025003577 0.055943236
-0.014890744 0.025107592 0.054008339
-0.0061599035 0.023573246 0.052063279
-0.053563602 0.034774534 0.051001601
-0.04501985 0.035196062 0.05318132
-0.034926716 0.035002008 0.054211535
-0.025163593 0.034843318 0.052701898
-0.016544655 0.032409221 0.051335439
-0.052571319 0.044705544 0.050657112
-0.044987425 0.044941049 0.052075364
-0.035551131 0.043973096 0.051545918
-0.028057545 0.041398529 0.050708998
-0.052505836 0.053164382 0.050288819
-0.046018656 0.052115459 0.050634794
-0.039711297 0.050228138 0.050096568
