# .PCD v0.7 - Point Cloud Data file format
VERSION 0.7
FIELDS x y z normal_x normal_y normal_z curvature
SIZE 4 4 4 4 4 4 4
TYPE F F F F F F F
COUNT 1 1 1 1 1 1 1
WIDTH 641
HEIGHT 1
VIEWPOINT 0 0 0 1 0 0 0
POINTS 641
DATA ascii
-0.062597685 0.062876493 0.0014794799 0.14297535 0.052101277 -0.98835403 0
-0.057323299 0.062345255 0.0021510171 0.1218281 0.054948747 -0.99102908 0
-0.052416917 0.062512755 0.002877563 0.18838821 0.10911497 -0.9760142 0
-0.048187982 0.062476739 0.0040117018 0.34885648 0.26056835 -0.90022403 0
-0.044509433 0.060278676 0.0047627059 0.36428082 0.30968225 -0.87829173 0
-0.071311727 0.066304706 0.0037746611 -0.58853281 0.61342472 -0.52663004 0
-0.067328006 0.067586221 0.0023569248 -0.30007669 0.41911179 -0.85691267 0
-0.062623344 0.067757092 0.0018284775 0.058373883 0.12078256 -0.99096113 0
-0.057538804 0.067483582 0.0024970088 0.19058667 0.12032101 -0.97426873 0
-0.052789893 0.06731578 0.0037757598 0.34134573 0.29614666 -0.89206517 0
-0.049045924 0.065411016 0.004623563 0.44359013 0.3763555 -0.81337833 0
-0.066006474 0.071177147 0.0036982116 -0.47229412 0.54537004 -0.6924665 0
-0.062138885 0.072856493 0.0034327076 -0.16159199 0.52503151 -0.83560157 0
-0.057625376 0.072497673 0.0037688448 0.34187505 0.41326973 -0.84399629 0
-0.053773124 0.070538417 0.0045704334 0.44386625 0.42365763 -0.78961819 0
-0.060896926 0.075249121 0.0047618262 0.044036329 0.67655474 -0.73507446 0
-0.058886614 0.075211614 0.0048797918 0.1232747 0.64369452 -0.75528848 0
-0.081224956 -0.081063919 0.0078453859 -0.5573175 -0.78435391 -0.27237141 0
-0.077331878 -0.082288779 0.0072869402 -0.065347366 -0.80180961 -0.59399587 0
-0.073742263 -0.081724785 0.0084721558 0.7661193 -0.090849794 -0.63624489 0
-0.086497061 -0.076464497 0.0075419727 -0.66583228 -0.73306388 -0.13886963 0
-0.083748639 -0.07885132 0.0072756349 -0.64099413 -0.74398309 -0.18872163 0
-0.075186603 -0.078268819 0.0074045677 0.99849671 -0.053826202 0.010343145 0
-0.072564371 -0.076496415 0.0077619725 0.14405116 -0.91180384 -0.38452962 0
-0.068758599 -0.07686092 0.0088340966 0.60086417 -0.48246977 -0.6373266 0
-0.091871634 -0.071573168 0.0075441226 -0.66659069 -0.73371458 -0.13160509 0
-0.088929258 -0.074205369 0.0073344917 -0.66664875 -0.73126203 -0.14434469 0
-0.070951179 -0.073745325 0.0052027041 0.43279147 -0.25839654 -0.8636682 0
-0.067453787 -0.072506547 0.0070560044 0.57115859 -0.41688296 -0.70709723 0
-0.064088494 -0.071045965 0.009058564 0.63168353 -0.47672534 -0.61131722 0
-0.096971609 -0.066938221 0.0076129008 -0.66549611 -0.73607713 -0.12371536 0
-0.094173811 -0.069489904 0.0076805428 -0.6699453 -0.73067892 -0.13145968 0
-0.066445559 -0.067375936 0.0055961437 0.34070075 -0.19295067 -0.92015928 0
-0.062918946 -0.067409761 0.0077525773 0.55124992 -0.38720354 -0.73905134 0
-0.059774425 -0.065677159 0.0093817031 0.61625552 -0.46659467 -0.63444346 0
-0.10202205 -0.062304694 0.0075145606 -0.67763615 -0.72239733 -0.13766371 0
-0.099576555 -0.064560905 0.0074422522 -0.6712895 -0.73117977 -0.12143537 0
-0.065768741 -0.063142046 0.0051530018 0.2201184 -0.079660408 -0.97221506 0
-0.062433332 -0.062422644 0.0062011913 0.37857345 -0.19973551 -0.90376323 0
-0.058360387 -0.062101059 0.0084455172 0.57536143 -0.40211645 -0.71222299 0
-0.10643666 -0.057363361 0.0076359818 -0.84129071 -0.40164489 -0.36181659 0
-0.10282521 -0.057959359 0.0061414419 -0.82225603 -0.19872692 -0.53329402 0
-0.09925691 -0.055224966 0.0062385714 -0.22699186 0.92762899 -0.29661289 0
-0.06509617 -0.059831083 0.0050265882 0.21268733 -0.10227305 -0.9717533 0
-0.062119827 -0.057734795 0.0056115896 0.24275018 -0.080945022 -0.96670592 0
-0.057269797 -0.05771232 0.0073404699 0.43349388 -0.24867328 -0.86616665 0
-0.053784866 -0.056537587 0.0090927836 0.6130833 -0.40086296 -0.68076271 0
-0.1064686 -0.052882593 0.007926086 -0.74811846 0.45141402 -0.48635805 0
-0.1023954 -0.051945098 0.0060930592 0.059786648 0.3448163 -0.93676424 0
-0.098612607 -0.053027142 0.0065894783 -0.69316041 -0.26329491 -0.67097276 0
-0.062059157 -0.052629542 0.0053373724 0.19730575 -0.02978155 -0.97988951 0
-0.05745814 -0.052626666 0.0064180586 0.27323177 -0.080255464 -0.95859456 0
-0.052714188 -0.052349165 0.0082690818 0.50532675 -0.24465582 -0.82751942 0
-0.049735617 -0.050800361 0.00960101 0.71181905 -0.4432579 -0.54482663 0
-0.10203648 -0.048229516 0.0079003368 -0.60164726 0.63407999 -0.48576045 0
-0.098555095 -0.046504151 0.0062978999 -0.50928986 0.5671373 -0.64728594 0
-0.06179684 -0.047472533 0.0053223516 0.18553481 -0.0001851097 -0.9826377 0
-0.057431281 -0.047338594 0.0062158816 0.23198168 -0.0080356263 -0.97268695 0
-0.052509043 -0.047472898 0.007617821 0.34655902 -0.078686617 -0.93472207 0
-0.04876421 -0.047331728 0.0092697116 0.49516892 -0.17431805 -0.85112929 0
-0.096553817 -0.042886268 0.008149066 -0.5714103 0.62333083 -0.53380603 0
-0.093085214 -0.041611474 0.0064312364 -0.46196803 0.56002849 -0.68771631 0
-0.089673974 -0.040498625 0.0052132374 -0.3784025 0.51524627 -0.7689817 0
-0.065615728 -0.040357605 0.0050470568 0.10920218 0.062440876 -0.99205649 0
-0.062144928 -0.042282648 0.0054061613 0.16116205 0.04639101 -0.9858371 0
-0.057463985 -0.042443767 0.0062554809 0.19538207 0.025244977 -0.98040223 0
-0.052544232 -0.042720899 0.0074129016 0.27554643 -0.0072463662 -0.96126038 0
-0.048020288 -0.042839762 0.0089929774 0.4095917 -0.10484884 -0.90622371 0
-0.091841422 -0.038398825 0.0084375441 -0.53663141 0.62207335 -0.57013291 0
-0.08780814 -0.037123006 0.0067562475 -0.40535134 0.52422619 -0.74891734 0
-0.08254306 -0.036230758 0.005465528 -0.1155448 0.28114477 -0.95268404 0
-0.078470238 -0.035383888 0.0052018175 -0.10505072 0.28518921 -0.95269692 0
-0.071972154 -0.035612777 0.0050777667 0.043975659 0.1659594 -0.98515159 0
-0.067293666 -0.037144087 0.0052069006 0.084790066 0.11307517 -0.98996192 0
-0.062577732 -0.037406672 0.005682101 0.12334462 0.096626393 -0.98764843 0
-0.057426333 -0.037404198 0.0064666364 0.17176528 0.050474074 -0.9838441 0
-0.05261299 -0.037446529 0.0074716085 0.22669691 0.024335742 -0.97366124 0
-0.047415152 -0.037180249 0.0088957688 0.31685746 -0.029746456 -0.94800663 0
-0.044772077 -0.036985289 0.0098212585 0.35359347 -0.070361689 -0.93274909 0
-0.08687 -0.033685874 0.0088855885 -0.52070338 0.61517256 -0.59197187 0
-0.082323439 -0.032429267 0.0071389638 -0.34749466 0.49298459 -0.79763001 0
-0.077703699 -0.03229456 0.0060483292 -0.10526312 0.2922228 -0.95053959 0
-0.072573096 -0.032435842 0.005660899 -0.022912532 0.22060046 -0.97509509 0
-0.067440517 -0.032481436 0.0058378368 0.071496718 0.14804524 -0.98639286 0
-0.062597863 -0.032887392 0.0061780396 0.097441934 0.12510793 -0.98734647 0
-0.057855856 -0.032574769 0.0067795217 0.14592524 0.098231621 -0.98440659 0
-0.052461375 -0.032514215 0.0077257846 0.20954216 0.057554968 -0.9761042 0
-0.047524754 -0.032281961 0.0088936063 0.24963251 0.035329346 -0.96769595 0
-0.044365127 -0.032767009 0.0098068416 0.3229329 -0.001598858 -0.94642055 0
-0.081028797 -0.028827358 0.0089636669 -0.46280822 0.58059222 -0.66986662 0
-0.077692069 -0.027571132 0.0080921846 -0.34301186 0.49347624 -0.79926473 0
-0.07258945 -0.02773058 0.0069189561 -0.083459415 0.28454861 -0.95502186 0
-0.067297578 -0.027697869 0.0066919932 0.017185949 0.20671628 -0.97824991 0
-0.062198211 -0.027567238 0.0069932523 0.079714052 0.15586564 -0.9845565 0
-0.057578765 -0.0276633 0.0074186781 0.11735126 0.13790309 -0.98346901 0
-0.052420899 -0.027642451 0.008162926 0.17570934 0.111187 -0.97814292 0
-0.047256067 -0.027736673 0.0091968914 0.20876718 0.06732744 -0.97564501 0
-0.044558212 -0.027365327 0.0098472685 0.23379475 0.05855209 -0.97052133 0
-0.075950615 -0.024424689 0.0093303528 -0.41771799 0.54942501 -0.7236324 0
-0.072352529 -0.022957226 0.008673436 -0.30089873 0.4798677 -0.82412797 0
-0.067798331 -0.022817865 0.0080188336 -0.06322781 0.28135562 -0.95751834 0
-0.062379953 -0.022505049 0.007953559 0.032593872 0.23112939 -0.972377 0
-0.057540428 -0.022772755 0.0082364175 0.08613506 0.18265204 -0.9793973 0
-0.052715596 -0.022168731 0.0088699795 0.12365569 0.14837109 -0.98117042 0
-0.047514983 -0.022872536 0.009564735 0.18078731 0.10992253 -0.97736019 0
-0.0448872 -0.024231501 0.0099732559 0.20353794 0.048104905 -0.97788453 0
-0.070542149 -0.019896915 0.0098437518 -0.3551521 0.55860919 -0.74954838 0
-0.067205995 -0.018661484 0.0094101541 -0.23216988 0.44835657 -0.86317641 0
-0.062482595 -0.01765948 0.0092925951 -0.041885529 0.29531115 -0.95448261 0
-0.057685431 -0.017698243 0.0092404671 0.041404225 0.22633056 -0.97317016 0
-0.052923881 -0.017664151 0.0096124094 0.083614893 0.19040465 -0.97813839 0
-0.048931945 -0.01897639 0.0098783942 0.13730705 0.15493447 -0.97833639 0
-0.057048567 -0.014899331 0.0099417474 0.028814634 0.27672344 -0.96051753 0
-0.032331325 -0.005294471 0.0096410569 -0.11580776 -0.56445736 -0.81729823 0
-0.027383907 -0.0056103449 0.0094318157 -0.021973772 -0.60089958 -0.79902244 0
-0.022544716 -0.0055813077 0.0095062125 0.074316368 -0.65854096 -0.74886638 0
-0.019158339 -0.0052957335 0.0097803511 0.15906759 -0.68842506 -0.70765001 0
-0.045365289 -0.00038618516 0.0099841058 -0.25979668 -0.38721654 -0.88462931 0
-0.042231169 -0.001466486 0.0095049916 -0.25914228 -0.43437576 -0.86264884 0
-0.037530962 -0.0022038799 0.0085914554 -0.20474146 -0.51369476 -0.83318585 0
-0.032568119 -0.0023738453 0.0076532117 -0.13762906 -0.56417078 -0.81410664 0
-0.027567588 -0.0023250622 0.0069637173 -0.060322497 -0.58488703 -0.80886859 0
-0.022486581 -0.002426283 0.0069263964 0.028287429 -0.60392755 -0.79653704 0
-0.017441243 -0.0023395773 0.0075450963 0.1673972 -0.61919475 -0.76718712 0
-0.012663684 -0.0018173471 0.0083322842 0.23536852 -0.61930907 -0.74903804 0
-0.0082018832 -0.00085531472 0.0091757979 0.33207732 -0.61539972 -0.7148481 0
-0.050144374 0.0046914774 0.0099178245 -0.5358125 -0.38926554 -0.74925119 0
-0.046798848 0.0030982359 0.0087475972 -0.39732268 -0.44787762 -0.80096215 0
-0.042565666 0.0025504939 0.0072884485 -0.30625862 -0.4917939 -0.81507331 0
-0.037867509 0.0019249312 0.006052495 -0.25763837 -0.51694959 -0.81632447 0
-0.032733586 0.00074395759 0.0055180988 -0.15081772 -0.55766237 -0.81625164 0
-0.028638128 0.00025444062 0.0052468413 -0.083922379 -0.53010541 -0.8437686 0
-0.022806313 0.00012767686 0.0050748824 0.015254485 -0.51771426 -0.85541755 0
-0.01708526 0.0006982807 0.005376169 0.15426143 -0.52930099 -0.83429241 0
-0.012180822 0.001699119 0.005980982 0.24486378 -0.49118039 -0.83593279 0
-0.0073159845 0.002372009 0.0074290843 0.3832396 -0.44838122 -0.8075158 0
-0.0034467797 0.0030389293 0.0092538623 0.51314992 -0.42088106 -0.74802154 0
-0.051232927 0.0077523771 0.0091537079 -0.58213145 -0.39743239 -0.70934504 0
-0.047727205 0.0072962288 0.0069130342 -0.46510178 -0.43091986 -0.77329719 0
-0.043350827 0.0059177666 0.005588281 -0.32673231 -0.46877992 -0.82066518 0
-0.0068517234 0.0069719497 0.0057644444 0.40404516 -0.25344241 -0.87892795 0
-0.0024140889 0.0078085074 0.0078905383 0.52970129 -0.25644463 -0.80848789 0
0.00035644186 0.0085360091 0.0097620497 0.632007 -0.14550868 -0.76117963 0
-0.05569068 0.013883965 0.0092896949 -0.61285734 -0.476228 -0.6305654 0
-0.052614328 0.012349308 0.0075856037 -0.57666284 -0.43596157 -0.69093955 0
-0.049010754 0.011158206 0.005530369 -0.49675715 -0.40184784 -0.76925325 0
-0.0057483148 0.013061206 0.005388218 0.51662004 0.17579147 -0.83797443 0
-0.0027450407 0.012338303 0.007582414 0.71240932 0.18122731 -0.6779598 0
0.00030756931 0.010776881 0.0095914798 0.63377279 0.17514928 -0.7534287 0
-0.060427874 0.019380806 0.0095694987 -0.61935347 -0.51737452 -0.59052932 0
-0.057336695 0.017859848 0.0079385489 -0.56812304 -0.47526461 -0.67183322 0
-0.053778432 0.016495559 0.0059515988 -0.5334512 -0.40966073 -0.74000537 0
-0.010529877 0.019428926 0.0054939142 0.53882283 0.4624629 -0.70412922 0
-0.0073885024 0.017779717 0.0065501216 0.45867258 0.39733544 -0.79482317 0
-0.002850455 0.017506095 0.0085393647 0.49385738 0.24861279 -0.83324462 0
-0.065437883 0.024787499 0.0096746646 -0.55796689 -0.54930109 -0.62204611 0
-0.061834026 0.022850292 0.0081103947 -0.55457389 -0.50525999 -0.66118097 0
-0.058504663 0.022071956 0.0060742726 -0.50653124 -0.43901142 -0.74208826 0
-0.015304919 0.02482971 0.0052481052 0.44194886 0.34734514 -0.82706267 0
-0.012365174 0.022947563 0.0061035454 0.45588064 0.36596811 -0.81132007 0
-0.0072514275 0.02226479 0.008231069 0.44903153 0.34274763 -0.82516348 0
-0.0042352309 0.020933704 0.0093635889 0.53069276 0.52370983 -0.66640317 0
-0.070096195 0.029752765 0.0098333526 -0.60090297 -0.56432974 -0.56608093 0
-0.066834293 0.028064417 0.0082512079 -0.55792093 -0.51819372 -0.64822793 0
-0.063043147 0.026841121 0.0062011192 -0.49838984 -0.47010475 -0.72842926 0
-0.016807251 0.027946942 0.005816713 0.3911286 0.29057506 -0.87326086 0
-0.012706872 0.027516095 0.0074672163 0.42802989 0.32759401 -0.84230191 0
-0.0087922979 0.026534293 0.0093799811 0.43552253 0.33968255 -0.83362812 0
-0.071699232 0.033250082 0.0083182836 -0.57233828 -0.52234954 -0.63212323 0
-0.068162985 0.031848967 0.0065237768 -0.5182336 -0.48173532 -0.70665765 0
-0.064791866 0.030420441 0.0050947322 -0.44365826 -0.41952959 -0.7919358 0
-0.021177309 0.032738652 0.0054844357 0.39040706 0.28854296 -0.87425697 0
-0.0175512 0.032464463 0.0070718988 0.42003685 0.32417658 -0.84763122 0
-0.013396145 0.031844042 0.0091026239 0.46760964 0.38616225 -0.79512256 0
-0.076412566 0.038095742 0.0085610058 -0.58289582 -0.53378242 -0.61262453 0
-0.073277101 0.037150007 0.0066557289 -0.52496374 -0.4929595 -0.69383287 0
-0.069461755 0.035411742 0.0051159477 -0.48657075 -0.44725618 -0.75047374 0
-0.025499739 0.039066069 0.0054460815 0.39982894 0.30854455 -0.86309737 0
-0.022215055 0.037429288 0.0066609308 0.43513262 0.34008288 -0.83366859 0
-0.018069545 0.036836602 0.0087944577 0.44997856 0.36891887 -0.81327623 0
-0.081517056 0.04348518 0.0088128299 -0.60266554 -0.53962809 -0.58787394 0
-0.078154095 0.042166956 0.0068432698 -0.54668051 -0.50920075 -0.66472173 0
-0.074756108 0.040410027 0.0054409201 -0.49316904 -0.462017 -0.73710549 0
-0.030249842 0.044667792 0.0052170604 0.42366141 0.33890745 -0.84003139 0
-0.027048554 0.042766538 0.0061642304 0.45725757 0.36291996 -0.81191409 0
-0.022771789 0.042441647 0.0086758044 0.51799029 0.44104367 -0.73291647 0
-0.019625887 0.040337313 0.0095918523 0.54162616 0.46113896 -0.70284563 0
-0.085487962 0.048325561 0.009405612 -0.82468265 -0.21700755 -0.52230859 0
-0.082680024 0.047291908 0.0069888774 -0.58389193 -0.44639039 -0.6780898 0
-0.07726495 0.047861114 0.006728834 -0.093785577 0.49617431 -0.86314273 0
-0.031378664 0.047816601 0.0060077049 0.46656603 0.39374873 -0.79200882 0
-0.0277976 0.04717404 0.0080246245 0.52498227 0.45531517 -0.71908391 0
-0.024625214 0.04559372 0.0093214056 0.53347629 0.48696652 -0.6915682 0
-0.085283346 0.051449839 0.009107938 -0.88439149 0.2260579 -0.40834972 0
-0.083750151 0.052518379 0.0070157219 -0.84444368 0.24768762 -0.47493765 0
-0.077156678 0.050752401 0.0062294751 -0.15556706 -0.94483566 -0.2882438 0
-0.03634388 0.053380564 0.0059256768 0.46547389 0.4169336 -0.78070509 0
-0.032768596 0.052202724 0.0076578367 0.52345163 0.47446254 -0.70773131 0
-0.029262533 0.050734002 0.009322688 0.56471777 0.51996523 -0.64088213 0
-0.085079573 0.059575278 0.0098465504 -0.6635735 -0.241522 -0.70805174 0
-0.082003348 0.057566248 0.0080902847 -0.79363257 0.21771337 -0.56810939 0
-0.079418875 0.059083804 0.0058745793 -0.75069451 0.57520491 -0.32495683 0
-0.04141425 0.058831066 0.0057737804 0.45563835 0.41388699 -0.78809339 0
-0.037565645 0.057553798 0.0076799621 0.53648812 0.48321807 -0.69186759 0
-0.03432098 0.055855818 0.0090765655 0.56826538 0.50950134 -0.64612907 0
-0.085416831 0.062349737 0.0094202003 -0.74527538 0.056334231 -0.66437274 0
-0.08272285 0.0628497 0.00746339 -0.51676434 -0.10579719 -0.84956557 0
-0.077886 0.062488414 0.0058410354 -0.31599796 -0.030061388 -0.94828343 0
-0.074867442 0.063950747 0.0051681506 -0.46548542 0.32173887 -0.82450438 0
-0.046076283 0.064173572 0.0057719122 0.49992138 0.45570791 -0.73648417 0
-0.042505324 0.062335435 0.0072496585 0.53528792 0.48887634 -0.68881547 0
-0.039176039 0.061016973 0.0090003228 0.56449467 0.54828411 -0.61703348 0
-0.081779853 0.067325927 0.0078273043 -0.70373046 0.47916424 -0.52456176 0
-0.077483445 0.067308873 0.0053133923 -0.15516526 0.054890636 -0.98636234 0
-0.072721981 0.068190709 0.0054303491 0.069022797 0.14471391 -0.98706317 0
-0.069456704 0.069403462 0.0054814448 -0.53323692 0.65052277 -0.54081285 0
-0.050724786 0.069265015 0.0057067038 0.5430339 0.48298946 -0.68690264 0
-0.047494266 0.067578278 0.0071550431 0.54427493 0.50883889 -0.66696906 0
-0.044167157 0.066321142 0.0089827012 0.58125257 0.55529493 -0.59480494 0
-0.080332205 0.070088744 0.0090208687 -0.6968627 0.702537 -0.14430605 0
-0.077404939 0.071816824 0.0073503186 -0.55457044 0.6385377 -0.53359288 0
-0.072682425 0.072529614 0.0062570982 0.091048062 0.33624542 -0.93736291 0
-0.067365296 0.073043138 0.0073723821 -0.21561441 0.6585843 -0.72095561 0
-0.064275138 0.074607581 0.0061525418 -0.52673155 0.73265725 -0.4310073 0
-0.056125462 0.073786952 0.0073903818 0.84464169 0.53495109 -0.02019153 0
-0.052330352 0.07222832 0.0076004518 0.24470073 0.82877946 -0.50323564 0
-0.048838373 0.071067773 0.0088930726 0.58670157 0.55411083 -0.59054422 0
-0.075281046 0.075256176 0.0091028661 -0.62896287 0.70229906 -0.33343905 0
-0.072284065 0.076424539 0.0086707752 -0.19608501 0.71872616 -0.66707081 0
-0.068361185 0.076328784 0.0092139095 0.37994668 0.56205934 -0.73466307 0
-0.062422961 0.076234914 0.0073516704 -0.40537858 0.80936158 -0.42497283 0
-0.057470571 0.076954372 0.0079618171 0.4892399 0.64886695 -0.58276582 0
-0.076458909 -0.085354432 0.013286088 -0.18992695 -0.9515816 -0.24170275 0
-0.07411734 -0.085315511 0.013658812 0.32235256 -0.92053932 -0.22067219 0
-0.081933372 -0.081501089 0.012574191 -0.66418517 -0.73640072 -0.12873287 0
-0.078330562 -0.084190659 0.012224524 -0.46219745 -0.85602057 -0.2315218 0
-0.07194785 -0.082956612 0.012074451 0.65039271 -0.66687632 -0.36368287 0
-0.06928245 -0.080733225 0.013215836 0.72980481 -0.64674497 -0.22159842 0
-0.087049738 -0.076781072 0.012527007 -0.67725927 -0.72775859 -0.10810819 0
-0.084232628 -0.079410195 0.012622459 -0.67412734 -0.73000681 -0.11243877 0
-0.075287342 -0.078015432 0.011089291 0.97000182 -0.1250516 -0.20846722 0
-0.07327345 -0.077852719 0.011241546 -0.22345513 -0.1009185 -0.96947575 0
-0.067108236 -0.077593125 0.012176382 0.71927291 -0.59144974 -0.36446363 0
-0.06460876 -0.075393729 0.013439082 0.73350716 -0.61375684 -0.29200998 0
-0.092320062 -0.071949974 0.01278038 -0.67276156 -0.73252702 -0.10390435 0
-0.089329183 -0.074558392 0.011732314 -0.67442602 -0.73120755 -0.10239694 0
-0.065301284 -0.074001014 0.010348749 0.67465705 -0.51991981 -0.52394778 0
-0.062629156 -0.072268583 0.012391635 0.7117781 -0.57779723 -0.3994025 0
-0.059693124 -0.070112698 0.014749896 0.74088115 -0.61534417 -0.26915932 0
-0.097434349 -0.067217864 0.012350102 -0.66908419 -0.73551536 -0.10650653 0
-0.094602488 -0.069664232 0.011405252 -0.66947407 -0.73629785 -0.098336145 0
-0.060795713 -0.068959825 0.011058274 0.68203789 -0.53200746 -0.50178909 0
-0.058348697 -0.067136735 0.012678932 0.71184462 -0.55877614 -0.42549559 0
-0.10529697 -0.060372848 0.013348988 -0.62366223 -0.74105471 -0.24876393 0
-0.10252351 -0.062637791 0.012329632 -0.65818846 -0.74060208 -0.13526435 0
-0.099772923 -0.064882547 0.010847921 -0.66637617 -0.73872793 -0.10111307 0
-0.056163289 -0.063476667 0.011754144 0.68640989 -0.50958478 -0.51881105 0
-0.053814657 -0.061745767 0.013275813 0.71389157 -0.54754293 -0.43652681 0
-0.1075702 -0.057723165 0.012592068 -0.80536056 -0.5509088 -0.21884656 0
-0.051869698 -0.057996929 0.012141159 0.68098372 -0.48427841 -0.54930466 0
-0.049144585 -0.05617195 0.014118453 0.75337708 -0.51025474 -0.41480479 0
-0.10780276 -0.052183628 0.012361411 -0.85573584 0.4762888 -0.20215133 0
-0.050726376 -0.054147575 0.010637343 0.64962816 -0.34309304 -0.67843229 0
-0.047525134 -0.052064441 0.012920058 0.71968633 -0.42269722 -0.55079824 0
-0.10555747 -0.049266648 0.01267032 -0.70152879 0.68579942 -0.19374369 0
-0.10325427 -0.047019359 0.012300447 -0.69656712 0.68528545 -0.21255155 0
-0.046438266 -0.047621477 0.011348099 0.66761404 -0.33824411 -0.66323632 0
-0.043859698 -0.04689198 0.013738543 0.72637212 -0.40133804 -0.55795282 0
-0.10076623 -0.04423229 0.013202102 -0.70445138 0.69763297 -0.13060017 0
-0.098251916 -0.042006202 0.012358099 -0.67643571 0.69193333 -0.25231522 0
-0.045659244 -0.043259826 0.010296014 0.52766877 -0.20720693 -0.82379055 0
-0.042646885 -0.042509846 0.012644771 0.68105417 -0.30795711 -0.66432494 0
-0.039743941 -0.040045451 0.014366958 0.73624384 -0.37002212 -0.56659395 0
-0.09566164 -0.039154213 0.013169974 -0.68288451 0.69429404 -0.22721046 0
-0.09270741 -0.036771484 0.012043777 -0.64802337 0.68848938 -0.32565024 0
-0.042386234 -0.03789375 0.011322285 0.55193907 -0.19427241 -0.81093866 0
-0.038663462 -0.037192099 0.014150946 0.69948709 -0.31615269 -0.64090973 0
-0.090855919 -0.034361314 0.01346849 -0.66803622 0.69478512 -0.26646042 0
-0.087943889 -0.032098658 0.012477413 -0.63932258 0.68320537 -0.35284135 0
-0.084432542 -0.030238131 0.010332323 -0.57827699 0.63509047 -0.51210916 0
-0.042091042 -0.03247571 0.010685588 0.39424437 -0.071090311 -0.91625196 0
-0.037783563 -0.03214426 0.013158457 0.6053915 -0.22438005 -0.76364571 0
-0.085574374 -0.029223997 0.013661503 -0.64404023 0.69581765 -0.31788358 0
-0.082544327 -0.027415182 0.01213227 -0.59501737 0.67773658 -0.43200389 0
-0.079231247 -0.025539435 0.010755618 -0.53668696 0.63495666 -0.55569512 0
-0.041979346 -0.02745633 0.010588647 0.29779404 0.014106372 -0.95452589 0
-0.0374755 -0.027334651 0.012467384 0.46910143 -0.092606075 -0.87827557 0
-0.034379154 -0.027369004 0.014403897 0.64076793 -0.21336804 -0.73748934 0
-0.080512755 -0.024494709 0.013932413 -0.6365577 0.69747287 -0.32912907 0
-0.077378221 -0.022282155 0.012917463 -0.54073381 0.60939169 -0.57986957 0
-0.073582724 -0.021067061 0.010692601 -0.44513384 0.60084164 -0.66396171 0
-0.045812003 -0.020825753 0.010095307 0.18328057 0.1241905 -0.9751845 0
-0.04254311 -0.022214755 0.010731829 0.24438097 0.087767944 -0.96569902 0
-0.037433919 -0.022512686 0.012331803 0.35960221 0.040253788 -0.93223703 0
-0.033612315 -0.0222033 0.014126382 0.52327043 -0.053730443 -0.85047108 0
-0.0807859 -0.017254082 0.014708766 -0.27090424 -0.011194066 -0.96254122 0
-0.078371786 -0.017542329 0.014698202 0.062818132 0.08950644 -0.99400324 0
-0.072136231 -0.018307161 0.01264907 -0.53538001 0.67428005 -0.50863999 0
-0.068220846 -0.016540069 0.011394707 -0.41738707 0.5990293 -0.68333882 0
-0.064261489 -0.0153776 0.010243898 -0.33017141 0.53471631 -0.77785945 0
-0.059608363 -0.015087979 0.010019532 -0.16882387 0.32952881 -0.92892915 0
-0.051118497 -0.015915163 0.010149018 0.11893161 0.19723973 -0.97311443 0
-0.047419403 -0.017324906 0.010396117 0.14501832 0.17000079 -0.97471511 0
-0.042577412 -0.017376969 0.01133885 0.22484934 0.16147877 -0.96092004 0
-0.037590105 -0.017575372 0.012552765 0.26461363 0.04865624 -0.9631263 0
-0.03280481 -0.017274171 0.014148937 0.40571061 -0.11720183 -0.90645605 0
-0.080256015 -0.014020437 0.014795497 -0.22081868 0.12040067 -0.96785474 0
-0.078899242 -0.013318245 0.014860263 0.088488504 0.066292971 -0.99386877 0
-0.066751033 -0.013563017 0.013285481 -0.49060693 0.65376157 -0.57610816 0
-0.062738344 -0.012292788 0.011956606 -0.34104189 0.55661291 -0.75754368 0
-0.057451997 -0.012367999 0.010765039 -0.055252347 0.32191622 -0.94515449 0
-0.05242829 -0.012794365 0.01068598 0.064464398 0.22601748 -0.97198784 0
-0.047224727 -0.012443447 0.0113068 0.13589282 0.18559068 -0.97318512 0
-0.042430419 -0.012419846 0.011965733 0.12523516 0.033696797 -0.99155468 0
-0.037460551 -0.012644487 0.012432412 0.11954296 -0.10203734 -0.98757178 0
-0.032764107 -0.012483102 0.013354562 0.37493551 -0.29921553 -0.87743574 0
-0.027276391 -0.010613572 0.014017119 -0.079867102 -0.92858249 -0.36243033 0
-0.023237573 -0.010678048 0.014158417 0.25047714 -0.67694604 -0.69210207 0
-0.061779637 -0.0091238506 0.014069125 -0.45622525 0.65279973 -0.6047405 0
-0.057411097 -0.0074612568 0.013079371 -0.36293772 0.54645187 -0.75476265 0
-0.052817926 -0.007465905 0.012008593 -0.071295463 0.21988088 -0.97291785 0
-0.047828905 -0.0075621684 0.011805436 -0.031534445 0.01670712 -0.99936306 0
-0.042485181 -0.0073727602 0.011485425 -0.049112234 -0.16356157 -0.98530996 0
-0.037520688 -0.0076320819 0.011337367 -0.046530746 -0.33879983 -0.93970716 0
-0.032534994 -0.0079080258 0.011204322 -0.042069521 -0.47790256 -0.87740493 0
-0.027441237 -0.0085577713 0.011645376 0.036376089 -0.66999245 -0.74147624 0
-0.022334067 -0.0080761351 0.011917488 0.1660469 -0.68837321 -0.70609552 0
-0.017574472 -0.0073245163 0.0124516 0.2087878 -0.74625611 -0.63206762 0
-0.012889008 -0.0063491897 0.013047045 0.27896351 -0.77655023 -0.56493276 0
-0.0084207216 -0.0053475322 0.014225241 0.35775012 -0.79802048 -0.48495165 0
-0.055570148 -0.0038717936 0.014252566 -0.60653794 0.36976582 -0.70383584 0
-0.052520849 -0.0024545025 0.012871088 -0.44606152 0.14679597 -0.88288158 0
-0.047463629 -0.0019815394 0.011158934 -0.24652094 -0.22442819 -0.94279337 0
-0.042738579 -0.0035320399 0.010558316 -0.21643102 -0.35551223 -0.90926826 0
-0.038387388 -0.0045246282 0.01013362 -0.14558259 -0.46593717 -0.87275892 0
-0.011820215 -0.0041900561 0.010853021 0.2645165 -0.70992196 -0.65271884 0
-0.0071100248 -0.002971808 0.011960224 0.37821004 -0.70645046 -0.59823477 0
-0.0033294817 -0.0016498324 0.013273027 0.51131904 -0.66696614 -0.54194921 0
-0.055013891 0.0047142776 0.014835289 -0.80215245 -0.243193 -0.54535192 0
-0.05260032 0.0026196004 0.012796992 -0.65652925 -0.20765492 -0.72515434 0
-0.04878768 0.0012627714 0.010647632 -0.436524 -0.35654873 -0.82602644 0
-0.0018003931 0.0018699061 0.011338401 0.58030456 -0.47765252 -0.65961695 0
0.0014772355 0.0034124642 0.013456713 0.67134887 -0.44654492 -0.59151363 0
-0.055836163 0.008514626 0.013781013 -0.79378772 -0.38953796 -0.46707746 0
-0.05349534 0.0067499457 0.011854274 -0.68936807 -0.35631219 -0.63072437 0
0.0025926845 0.0072805416 0.012724597 0.76584733 -0.22799912 -0.60124409 0
-0.060629603 0.014728296 0.014696167 -0.70940888 -0.56928253 -0.41551936 0
-0.057735771 0.012689553 0.012762587 -0.69933838 -0.51894593 -0.49154964 0
-0.054578766 0.010631925 0.0105487 -0.64533669 -0.43294585 -0.62936366 0
-0.0016630702 0.013099344 0.01303417 0.63313568 0.6403743 -0.43481037 0
0.00271031 0.012385656 0.012838097 0.5170868 0.23398499 -0.82333004 0
-0.065064132 0.019819017 0.014927462 -0.70692992 -0.60753608 -0.3621465 0
-0.061911792 0.017741993 0.013006554 -0.66874874 -0.56309777 -0.48548555 0
-0.058963399 0.016171189 0.010823785 -0.65298516 -0.51080346 -0.55918705 0
-0.00094893982 0.016672326 0.011342754 0.59111142 -0.60284424 -0.5358789 0
0.0022194583 0.017437523 0.012731984 0.68481749 0.085714348 -0.72365606 0
-0.066652149 0.022857655 0.013273655 -0.65410972 -0.59149671 -0.47145748 0
-0.063755497 0.021270964 0.011419179 -0.62440354 -0.56530917 -0.53902292 0
-0.0055876928 0.024308009 0.010160996 0.22730777 0.10060417 -0.96861231 0
-0.0023525099 0.022695644 0.011284033 0.43803877 0.390118 -0.80989504 0
0.0012135783 0.021985695 0.01357808 0.64718115 0.39717269 -0.65069991 0
-0.071265787 0.02801575 0.013226841 -0.65900689 -0.59329236 -0.46229222 0
-0.068697192 0.026440769 0.011688958 -0.63528734 -0.57391256 -0.51675355 0
-0.0067674723 0.027918447 0.011139894 0.51344532 0.43273011 -0.74102539 0
-0.002999255 0.026953284 0.013486136 0.56449473 0.51296663 -0.64669228 0
-0.076230183 0.033543814 0.013233867 -0.67052823 -0.59371746 -0.44485006 0
-0.073768012 0.031921208 0.011862378 -0.64534372 -0.5790664 -0.4982104 0
-0.011507527 0.033547319 0.011240928 0.54407859 0.48769829 -0.68273622 0
-0.0079506245 0.032169871 0.013274441 0.58252442 0.52832258 -0.61768967 0
-0.0048339162 0.030419828 0.014678008 0.5759539 0.53268844 -0.62009686 0
-0.081250831 0.038918771 0.013622577 -0.69027531 -0.59826326 -0.40694112 0
-0.078376681 0.037097182 0.011816632 -0.64987582 -0.58405882 -0.48635051 0
-0.016071578 0.038461104 0.01109306 0.55437475 0.50237972 -0.6635384 0
-0.012953715 0.036997374 0.012774467 0.58803082 0.53996265 -0.60221267 0
-0.0096077584 0.035459392 0.014654666 0.60701299 0.5764271 -0.54705304 0
-0.085650802 0.043732241 0.01403123 -0.72264695 -0.58233386 -0.37238249 0
-0.082931668 0.042086519 0.011990364 -0.66133934 -0.58342838 -0.471425 0
-0.021038152 0.043970853 0.011121142 0.57699776 0.53052199 -0.62098312 0
-0.017703021 0.042123608 0.012772289 0.59609896 0.55563319 -0.57960141 0
-0.014460478 0.040687472 0.014780513 0.61972916 0.6060822 -0.4985981 0
-0.086833104 0.047229726 0.01271068 -0.87355143 -0.25483504 -0.41468897 0
-0.084768757 0.045833692 0.010087877 -0.68741572 -0.49683866 -0.52972728 0
-0.025741948 0.048826072 0.010967414 0.57931978 0.54616451 -0.60505605 0
-0.022859205 0.047341697 0.012503039 0.5993914 0.57551092 -0.5563426 0
-0.019282289 0.045479082 0.014449033 0.62618691 0.60401493 -0.493007 0
-0.086187117 0.052155506 0.012481111 -0.88523424 0.36914521 -0.28300571 0
-0.084513582 0.054290511 0.010960301 -0.79945034 0.5652104 -0.20351017 0
-0.030990103 0.054265093 0.010803413 0.59576601 0.55455124 -0.58097827 0
-0.027596833 0.052353337 0.012565899 0.60921907 0.58053535 -0.5402137 0
-0.024683081 0.050630786 0.013990936 0.62308449 0.60859364 -0.49130389 0
-0.086675748 0.057842128 0.012724652 -0.65993607 -0.49254328 -0.56734949 0
-0.08420369 0.056530818 0.011306156 -0.64220923 -0.42192784 -0.63995647 0
-0.035703436 0.059297185 0.010848314 0.60559767 0.57947892 -0.5453949 0
-0.032729954 0.057766307 0.012603792 0.61821377 0.59503883 -0.51355684 0
-0.029215476 0.05546248 0.014148641 0.63394713 0.60730648 -0.47884229 0
-0.086863078 0.062792808 0.012428167 -0.8498134 0.38309538 -0.36201522 0
-0.040562451 0.064249583 0.010706822 0.60397518 0.57127041 -0.55575544 0
-0.037674684 0.062677339 0.01235636 0.62112993 0.60127109 -0.50266361 0
-0.034114186 0.060584042 0.014274323 0.63649869 0.63002098 -0.44490781 0
-0.090192087 0.069443382 0.014836602 -0.82376891 -0.26083666 -0.50335789 0
-0.08715497 0.067873552 0.013275101 -0.52815413 -0.37521303 -0.76175344 0
-0.083265498 0.067889154 0.011163082 -0.71593964 0.36303952 -0.59634948 0
-0.045591649 0.069306642 0.010614786 0.60070968 0.59805316 -0.53054726 0
-0.042420723 0.067632295 0.012471323 0.62559283 0.6140312 -0.48124763 0
-0.0391635 0.065720104 0.014259226 0.64296544 0.63321024 -0.43085998 0
-0.091883428 0.073121026 0.013946686 -0.49001351 -0.55662334 -0.67086309 0
-0.087742843 0.072379582 0.012536221 -0.41837695 0.058914237 -0.90636081 0
-0.082486965 0.072376944 0.010873456 -0.039934509 -0.018965628 -0.99902231 0
-0.078093484 0.0735052 0.011046209 -0.31612095 0.56097293 -0.76509929 0
-0.056272101 0.073705718 0.012102794 0.46393469 0.6795966 -0.56825435 0
-0.052857507 0.073751189 0.011062321 -0.26336917 0.75198156 -0.60428512 0
-0.047421932 0.072600372 0.012364299 0.62317348 0.624421 -0.47090688 0
-0.044333749 0.070769981 0.014025837 0.64205444 0.63292426 -0.43263495 0
-0.10012797 0.079872362 0.01392477 -0.64799112 -0.7616474 -0.00089608837 0
-0.097256266 0.077928767 0.013359819 -0.51500547 -0.65766501 -0.54976916 0
-0.092554428 0.077414356 0.012800978 0.094049901 -0.085979894 -0.99184787 0
-0.087294757 0.077180266 0.013229508 -0.039542031 0.07723175 -0.99622869 0
-0.083015829 0.07746575 0.012289676 -0.23260474 0.47828606 -0.84683979 0
-0.07762251 0.077163458 0.012566185 0.2967889 0.42497683 -0.85516733 0
-0.072864115 0.078278199 0.012572187 -0.51637894 0.79300368 -0.32326132 0
-0.066911928 0.077959627 0.011779217 0.48739782 0.59451675 -0.63952577 0
-0.063193135 0.077827707 0.012623239 -0.34857595 0.87329674 -0.34036395 0
-0.05697573 0.078146338 0.011169804 0.28412569 0.64142394 -0.71263444 0
-0.052537985 0.077195764 0.012480456 0.5578528 0.55353492 -0.61838442 0
-0.049333259 0.075489454 0.013772761 0.62650716 0.65519297 -0.42215049 0
-0.10218809 0.082729325 0.01287044 -0.69615304 -0.48770511 -0.52679664 0
-0.097493388 0.08250609 0.011936025 0.12722473 -0.056342948 -0.99027234 0
-0.092885107 0.082451746 0.012525867 0.13382381 -0.026887242 -0.99064028 0
-0.087470546 0.082575403 0.013274695 0.14404064 -0.01955503 -0.98937857 0
-0.08284203 0.08238396 0.014085412 0.26131013 0.20950393 -0.94224471 0
-0.07872422 0.080682084 0.014314529 0.22882013 0.64442861 -0.72962534 0
-0.070845343 0.080410726 0.014266307 -0.42202529 0.85355633 -0.30550969 0
-0.067984983 0.080735072 0.014159122 0.13164149 0.86150533 -0.49038669 0
-0.060360007 0.080117598 0.014490228 -0.3908599 0.88791072 -0.24257615 0
-0.057693858 0.080546319 0.013852351 -0.11950399 0.9285441 -0.35146061 0
-0.054396249 0.080187 0.014211001 0.47878322 0.7953257 -0.37178442 0
-0.10183755 0.086896867 0.013079503 -0.64008862 0.57127339 -0.51374429 0
-0.097703487 0.087728642 0.012057387 -0.062223308 0.14791718 -0.98704046 0
-0.092521966 0.087185562 0.012441344 0.14968883 -0.021156814 -0.98850673 0
-0.088089183 0.087541983 0.013390449 0.37637147 0.3071228 -0.87408245 0
-0.084382802 0.085731752 0.014196122 0.55989808 0.49313596 -0.66583109 0
-0.097050749 0.091984496 0.013300982 -0.53795737 0.63326132 -0.55640095 0
-0.09263292 0.092262 0.013130112 0.3780888 0.54524219 -0.74817091 0
-0.089340605 0.090307094 0.013779397 0.69095945 0.63963056 -0.33682036 0
-0.076854907 -0.085853592 0.017666228 -0.22674507 -0.96584243 -0.12543929 0
-0.073918492 -0.085600801 0.017444739 0.39180288 -0.91992819 -0.014914073 0
-0.082164861 -0.082273223 0.01778668 -0.66115105 -0.73518825 -0.14959112 0
-0.079329953 -0.08455646 0.016781759 -0.63382035 -0.76329893 -0.1250864 0
-0.071283184 -0.083487615 0.017531447 0.72814763 -0.68529195 0.013264679 0
-0.069003932 -0.081002183 0.017080572 0.73173088 -0.68151242 -0.01052207 0
-0.090283759 -0.075132482 0.018835675 -0.66406733 -0.7377882 -0.12117429 0
-0.087162249 -0.077604502 0.017305247 -0.6620332 -0.72861141 -0.17560622 0
-0.084595963 -0.079611696 0.016188083 -0.66926557 -0.72409904 -0.16662611 0
-0.066621006 -0.078394294 0.017574035 0.73815888 -0.67404008 0.028132504 0
-0.064235143 -0.075728692 0.017240824 0.74268693 -0.66963184 -0.00306457 0
-0.095517889 -0.070302762 0.018357731 -0.66637528 -0.73391068 -0.13160217 0
-0.092741475 -0.072648674 0.017735153 -0.65386277 -0.73145431 -0.19348939 0
-0.089547865 -0.074835353 0.015209267 -0.67345738 -0.73177332 -0.10470403 0
-0.061559282 -0.072707392 0.017415635 0.74956644 -0.66182518 -0.011729321 0
-0.059473436 -0.070400514 0.017830696 0.75570357 -0.6546815 -0.017443966 0
-0.10071442 -0.065652832 0.01854416 -0.66003358 -0.73490477 -0.15579036 0
-0.09753716 -0.06825918 0.017307345 -0.65354013 -0.73428762 -0.18359497 0
-0.057150938 -0.067628585 0.017319594 0.76031268 -0.64230573 -0.096788265 0
-0.054986127 -0.065285504 0.018359914 0.75812143 -0.64956754 -0.0575669 0
-0.10599735 -0.060836174 0.017972138 -0.65913874 -0.74235684 -0.12017686 0
-0.10299011 -0.063404679 0.017287929 -0.65732574 -0.7369566 -0.15753689 0
-0.055048764 -0.064835481 0.015706636 0.75435549 -0.6110633 -0.2398947 0
-0.053140167 -0.062850796 0.017552735 0.77260196 -0.62567753 -0.10776767 0
-0.10861591 -0.057651002 0.017605223 -0.87523651 -0.47988817 -0.060566489 0
-0.05046881 -0.059300147 0.016756471 0.78527498 -0.59532315 -0.17009871 0
-0.048513081 -0.056963418 0.017753823 0.79569823 -0.59171993 -0.12935127 0
-0.10836957 -0.052177828 0.017778588 -0.84265321 0.53466409 0.063795663 0
-0.046179842 -0.053452943 0.017116098 0.8064366 -0.54004306 -0.24085987 0
-0.044151038 -0.050866637 0.018080441 0.81745154 -0.53899944 -0.20310748 0
-0.10595148 -0.04920923 0.018050831 -0.73887914 0.66885495 0.081796758 0
-0.10350507 -0.046482753 0.017340468 -0.73213458 0.68113524 0.0058073765 0
-0.042049523 -0.047342777 0.017705169 0.81437087 -0.50398725 -0.28774473 0
-0.039954182 -0.045053441 0.019947376 0.84159786 -0.50791925 -0.18366037 0
-0.10114318 -0.043962076 0.017648239 -0.73292154 0.68008542 -0.017605489 0
-0.098807305 -0.041560668 0.017225822 -0.70557916 0.70429724 -0.078252062 0
-0.040476557 -0.043871347 0.016415726 0.79013485 -0.45509678 -0.41057745 0
-0.038705591 -0.041930228 0.01794182 0.82062256 -0.47429937 -0.31877708 0
-0.096130736 -0.038787164 0.017358037 -0.72373182 0.68806195 -0.05275476 0
-0.09375181 -0.036385968 0.017120041 -0.70558512 0.70146495 -0.1004813 0
-0.036743272 -0.037667781 0.017118195 0.79015684 -0.41802704 -0.44822484 0
-0.034631331 -0.035776421 0.019249506 0.84217256 -0.43948659 -0.31240484 0
-0.09112113 -0.033624906 0.017801689 -0.70146269 0.7007674 -0.12990457 0
-0.088709213 -0.031310938 0.017438913 -0.69057971 0.7148236 -0.11012231 0
-0.035388436 -0.033476613 0.015971677 0.7440412 -0.3446328 -0.5723905 0
-0.033726059 -0.032389864 0.017719841 0.79290551 -0.38433418 -0.47285095 0
-0.086507134 -0.029067792 0.017857112 -0.69780755 0.71019799 -0.093184449 0
-0.083802477 -0.026543051 0.017508682 -0.6866188 0.71628112 -0.12448254 0
-0.031792607 -0.027444182 0.017295396 0.75849438 -0.31346157 -0.57133883 0
-0.029713476 -0.025842492 0.019291582 0.8200832 -0.36402753 -0.44152865 0
-0.081076138 -0.022897447 0.01737172 -0.93347478 0.26938194 -0.23676613 0
-0.079728529 -0.022818288 0.015448241 -0.65409678 -0.060778882 -0.75396514 0
-0.031062577 -0.022823367 0.016111724 0.64704669 -0.19934283 -0.73593003 0
-0.028795946 -0.022201899 0.018325331 0.75409108 -0.33401212 -0.56549323 0
-0.082247496 -0.017656365 0.017521812 -0.95808041 -0.14913742 -0.24462219 0
-0.076019429 -0.016920084 0.015141433 0.14923705 0.043007866 -0.98786575 0
-0.073171802 -0.016708156 0.015475536 -0.097608037 0.30835667 -0.94624984 0
-0.030679692 -0.018195292 0.015380356 0.48584929 -0.16864139 -0.85761911 0
-0.027590111 -0.017200112 0.017184014 0.59951085 -0.24027905 -0.76344794 0
-0.024180632 -0.016011819 0.019087814 0.61216295 -0.60296911 -0.51155138 0
-0.081496157 -0.01230469 0.017466286 -0.86156487 0.39842132 -0.31458938 0
-0.076917753 -0.012321713 0.015215539 0.075427733 0.094265059 -0.99268568 0
-0.072530665 -0.012260022 0.015871609 0.16278619 0.030142885 -0.98620081 0
-0.067696683 -0.011816636 0.016079208 -0.39702669 0.57924825 -0.71192789 0
-0.064822719 -0.010116771 0.015968345 -0.586842 0.72319889 -0.36414266 0
-0.030780757 -0.012579987 0.01736984 0.98353922 0.049097318 -0.17389673 0
-0.027841574 -0.0122964 0.017531022 -0.54147196 -0.34206983 -0.76798207 0
-0.022277348 -0.012893842 0.017054224 0.39664146 -0.71530038 -0.57534415 0
-0.017664229 -0.011161596 0.017961415 0.37540963 -0.82224506 -0.42776254 0
-0.014492687 -0.010118928 0.018592268 0.38842914 -0.86656249 -0.31335646 0
-0.080326572 -0.0097328732 0.018376516 -0.73744398 0.66456431 -0.12054259 0
-0.077547461 -0.0079373419 0.017301399 -0.53022701 0.72211158 -0.44431317 0
-0.072406694 -0.0072758906 0.01625433 0.03784842 0.18680461 -0.98166776 0
-0.067571647 -0.007378032 0.01682587 0.15439382 0.034733135 -0.98739868 0
-0.062495559 -0.0073274174 0.016786711 -0.39084542 0.57550955 -0.7183513 0
-0.059074841 -0.0055875625 0.015894305 -0.56098247 0.65953779 -0.50030857 0
-0.01617394 -0.0094724596 0.015923996 0.31612664 -0.81237441 -0.49001211 0
-0.012349364 -0.0087158084 0.017588777 0.37084073 -0.85415524 -0.36454901 0
-0.0076221479 -0.0063993474 0.017170895 0.40116367 -0.84808367 -0.34615287 0
-0.0042218696 -0.0053399303 0.018814256 0.45020831 -0.84935623 -0.27551129 0
-0.071936734 -0.0035636593 0.018148785 -0.50922877 0.76593256 -0.39247087 0
-0.067876317 -0.0024397967 0.017461542 -0.10635006 0.36080441 -0.92655802 0
-0.062659167 -0.0026286419 0.01776875 0.15148932 0.045856547 -0.98739463 0
-0.057509035 -0.002383112 0.017197005 -0.6128009 0.41886982 -0.67009187 0
-0.054992754 -0.0010934453 0.015078896 -0.71590573 0.31089491 -0.62515867 0
-0.0057065133 -0.0047821607 0.015500291 0.44688445 -0.78821439 -0.42309847 0
-0.0019549753 -0.0031295137 0.017068762 0.54232842 -0.74705136 -0.38443995 0
0.0013409265 -0.001012419 0.018196533 0.64818543 -0.66000944 -0.37979373 0
-0.065951139 0.00083940581 0.018600091 -0.43416542 0.70509893 -0.56065661 0
-0.06242729 0.0023646976 0.01857546 -0.18976463 0.4741675 -0.85974097 0
-0.056965854 0.0027423196 0.017764263 -0.53634208 -0.01594696 -0.84384996 0
-0.054768894 0.0011977372 0.01534929 -0.78548819 0.054609425 -0.61646259 0
0.0032718256 0.0021255468 0.017185088 0.75341576 -0.49108171 -0.43726829 0
0.0053583821 0.004165689 0.018953318 0.87709552 -0.33993629 -0.33933294 0
-0.06035224 0.0054502431 0.019936718 -0.40654525 0.72004247 -0.56236982 0
-0.057102051 0.007283553 0.017482296 -0.8849113 -0.26941344 -0.3799319 0
0.0046593486 0.0075468379 0.015547213 0.8440904 -0.16305065 -0.51080906 0
0.0060431696 0.0078268768 0.018284397 0.89623845 -0.18860319 -0.40147898 0
-0.061101276 0.013678602 0.017687125 -0.74041969 -0.61046523 -0.28126648 0
-0.058907323 0.011266612 0.017008552 -0.76857519 -0.5713954 -0.28774893 0
-0.0020150985 0.01319488 0.015089593 -0.10860633 0.11755215 -0.98711002 0
0.0049347784 0.011471063 0.015148722 0.84872001 -0.048977304 -0.5265696 0
0.0064033228 0.012539209 0.017801911 0.89495593 -0.036829732 -0.44463176 0
-0.066023543 0.019220002 0.018007528 -0.7133069 -0.63409328 -0.29852819 0
-0.063488923 0.016817147 0.017054966 -0.71421844 -0.61714822 -0.33018196 0
0.0045865523 0.018174805 0.015561769 0.79318875 0.22814129 -0.56462657 0
0.0062411646 0.016884038 0.017903732 0.87513232 0.13651316 -0.46422783 0
-0.070515968 0.024200356 0.018159587 -0.72896504 -0.62389117 -0.28172633 0
-0.068340026 0.022166189 0.01719703 -0.69312537 -0.63131994 -0.34786806 0
0.0036012952 0.02275571 0.016966632 0.74131 0.42209977 -0.5218153 0
0.005620575 0.02127227 0.018916983 0.83145571 0.33353576 -0.44433686 0
-0.081331044 0.02921303 0.019075118 -0.59917372 -0.48060453 -0.64032036 0
-0.07719738 0.028506171 0.018872023 0.079097003 -0.67220342 -0.73612928 0
-0.072742254 0.027087269 0.017371571 -0.71028537 -0.63246107 -0.30901083 0
-0.0013476028 0.028593572 0.016792057 0.6271944 0.59401768 -0.50375611 0
0.0015225188 0.026606362 0.018074146 0.64910853 0.58636832 -0.48459288 0
-0.081369549 0.032553706 0.018623397 -0.6432727 0.12334357 -0.75563657 0
-0.077891767 0.0322451 0.016943835 -0.52370703 -0.46904066 -0.71114826 0
-0.074688211 0.030236306 0.015595858 -0.70167595 -0.61633462 -0.35746694 0
-0.0061147027 0.033599563 0.016853262 0.63275641 0.61249149 -0.47378632 0
-0.003474996 0.031757478 0.017995249 0.63790774 0.6221441 -0.45388359 0
-0.082050852 0.037652776 0.017481573 -0.72965837 -0.61451924 -0.29994109 0
-0.079546608 0.035428908 0.016158156 -0.71999741 -0.60226375 -0.34479293 0
-0.011251533 0.038641892 0.016475698 0.6391021 0.61628681 -0.46015126 0
-0.0083043845 0.036800351 0.018164916 0.64405161 0.63805902 -0.42199311 0
-0.086376593 0.042694222 0.017834181 -0.77382952 -0.57033926 -0.27550128 0
-0.084344551 0.040811751 0.016465552 -0.73402452 -0.59248161 -0.33192393 0
-0.015885992 0.043674901 0.016868664 0.64223647 0.63390028 -0.43093234 0
-0.013299416 0.041857626 0.01812675 0.65786457 0.64629358 -0.38667652 0
-0.088526085 0.047477525 0.017314091 -0.96134847 -0.12850679 -0.24350582 0
-0.020990353 0.048820104 0.016756633 0.64921743 0.64296788 -0.40633601 0
-0.018147027 0.046569332 0.017805731 0.66284019 0.65041882 -0.37094232 0
-0.087472737 0.052205577 0.01747855 -0.92243773 0.3246797 -0.20902583 0
-0.026071899 0.054045226 0.016757634 0.65626132 0.6359551 -0.40605694 0
-0.023136502 0.051783286 0.018107545 0.67164403 0.6561107 -0.34411183 0
-0.090160199 0.058613691 0.019098373 -0.9805811 -0.10868075 -0.1632456 0
-0.088783048 0.057036757 0.017154057 -0.81551152 -0.48511407 -0.3156032 0
-0.030956423 0.05903862 0.016903726 0.65455091 0.65703553 -0.37398863 0
-0.028076135 0.056624237 0.01777857 0.66257077 0.66076827 -0.35268292 0
-0.090246409 0.060155619 0.019826008 -0.98049736 0.15486431 -0.12100405 0
-0.088575982 0.062803775 0.017656542 -0.93642259 0.2503396 -0.24585114 0
-0.035746455 0.064093001 0.017429927 0.66650373 0.67328829 -0.32008702 0
-0.033279125 0.061838206 0.017880248 0.66834265 0.67235714 -0.31820446 0
-0.091137454 0.068099372 0.017723585 -0.88695377 -0.26976299 -0.37488797 0
-0.088811494 0.065869756 0.016700262 -0.59681088 -0.65656006 -0.46124366 0
-0.040837873 0.068912022 0.016955577 0.66418588 0.67403507 -0.32331702 0
-0.038330663 0.066844143 0.017890502 0.67149317 0.6819275 -0.28995141 0
-0.095117271 0.074810006 0.018965537 -0.6697349 -0.74156189 -0.039256651 0
-0.092455141 0.072415911 0.017424045 -0.80553949 -0.57976705 -0.12237754 0
-0.045761935 0.073924549 0.017506443 0.66059327 0.70311153 -0.2631554 0
-0.043342166 0.071602255 0.017512914 0.6683597 0.68669397 -0.28591374 0
-0.100358 0.079721838 0.018143039 -0.64912242 -0.75532305 -0.090150714 0
-0.097674415 0.077323988 0.017592045 -0.67851394 -0.73118627 -0.070606947 0
-0.075360663 0.079415567 0.015503932 0.66563934 0.59417164 -0.45153546 0
-0.073741533 0.079383254 0.016776564 0.015879765 0.89847803 -0.43873119 0
-0.063046843 0.07949625 0.017422922 -0.015618912 0.94558769 -0.32499206 0
-0.05121905 0.07876204 0.017054884 0.63897574 0.72104049 -0.26797503 0
-0.048426818 0.076502666 0.01780845 0.65476531 0.71687216 -0.23953436 0
-0.10293616 0.082322359 0.017418597 -0.7953459 -0.60083759 -0.080119483 0
-0.081789166 0.083572723 0.017302871 0.61614662 0.7866506 -0.039295413 0
-0.077779971 0.08245562 0.017608901 0.23518257 0.88989615 -0.39086318 0
-0.07225097 0.080966428 0.018000159 -0.1303283 0.94780773 -0.29098967 0
-0.067285456 0.081945576 0.017486634 0.21955213 0.92189318 -0.31923336 0
-0.062021866 0.080548204 0.018297065 -0.19876692 0.95594627 -0.2160058 0
-0.057767194 0.081637226 0.017251072 -0.17861435 0.94907856 -0.25951293 0
-0.053702798 0.08094088 0.017543575 0.51897591 0.81877059 -0.24551742 0
-0.10261246 0.087583177 0.017568065 -0.76398963 0.63252145 -0.12742256 0
-0.08731214 0.088486038 0.017801413 0.65462154 0.75011939 0.093763031 0
-0.084198929 0.085776441 0.017357541 0.66282481 0.74428916 0.081834912 0
-0.10034558 0.090156622 0.017958894 -0.72223228 0.68145132 -0.11834099 0
-0.097578667 0.092958443 0.017545419 -0.68012309 0.72201103 -0.12701419 0
-0.092422538 0.092990197 0.017816713 0.63998473 0.76412237 0.080848172 0
-0.089605629 0.090589523 0.016906172 0.68238032 0.72374493 0.10271472 0
-0.077418134 -0.085729837 0.022490533 -0.15905476 -0.98057759 0.11475717 0
-0.074133828 -0.085444957 0.021784948 0.49874303 -0.84647298 0.18638329 0
-0.085435964 -0.080237113 0.02274031 -0.66608232 -0.73505688 -0.12659281 0
-0.082339711 -0.082939543 0.022571094 -0.6376074 -0.7647717 -0.092633329 0
-0.079849437 -0.084854916 0.022061417 -0.55316317 -0.83254337 -0.029699253 0
-0.071958475 -0.083280295 0.022661166 0.67346245 -0.7004028 0.23639835 0
-0.069334365 -0.080803819 0.021880226 0.72426265 -0.66725993 0.17380387 0
-0.090690985 -0.07551907 0.023019096 -0.66521758 -0.73380095 -0.13791889 0
-0.087575421 -0.078232825 0.02238699 -0.66691017 -0.73345107 -0.13145493 0
-0.067030661 -0.078095876 0.022757441 0.71631575 -0.6717695 0.18872562 0
-0.064503238 -0.075510472 0.022123311 0.73551273 -0.66702735 0.11872436 0
-0.095870413 -0.070715584 0.022402743 -0.66597229 -0.73341602 -0.13631514 0
-0.093064189 -0.073211044 0.022167711 -0.66492283 -0.73467511 -0.13464756 0
-0.062112998 -0.072716579 0.022886481 0.73454201 -0.66385418 0.14051954 0
-0.059631824 -0.070174314 0.021521484 0.75852239 -0.64473224 0.094679616 0
-0.10118022 -0.066001505 0.022763072 -0.67048776 -0.72810286 -0.14252149 0
-0.09835922 -0.068425462 0.022192247 -0.66416878 -0.73550516 -0.13383582 0
-0.057570286 -0.067647353 0.022803139 0.7468549 -0.6545105 0.11757474 0
-0.10603321 -0.061363231 0.022709392 -0.72602254 -0.68748134 -0.016147239 0
-0.10367282 -0.063594319 0.022255257 -0.67411995 -0.73168844 -0.10096707 0
-0.055114429 -0.064657375 0.023782086 0.74219233 -0.65923578 0.12065939 0
-0.053008232 -0.062415317 0.022600234 0.76103765 -0.637743 0.11876654 0
-0.10837193 -0.057683602 0.022454204 -0.92191863 -0.3176519 0.22172816 0
-0.05064505 -0.059454456 0.023028843 0.78547794 -0.61316264 0.084000185 0
