# .PCD v0.7 - Point Cloud Data file format
VERSION 0.7
FIELDS x y z
SIZE 4 4 4
TYPE F F F
COUNT 1 1 1
WIDTH 805
HEIGHT 1
VIEWPOINT 0 0 0 1 0 0 0
POINTS 805
DATA ascii
-0.06217698 -0.14594677 -0.00016335979
-0.059116933 -0.14554799 -0.00025131498
0.036831673 -0.13574775 -0.00017311037
0.044754822 -0.13740207 -0.00016230032
-0.065003887 -0.051674061 -4.0875315e-05
0.0091930944 0.08600726 -0.00014814858
0.010454325 0.088164575 -0.00021995712
-0.01649531 0.096920446 -0.00021276847
0.014670124 0.095169209 -0.00016804575
0.017756971 0.10572883 -0.00018072623
0.020207355 0.10445777 -0.00012690508
-0.0022275855 0.11704361 -0.00011294844
0.0048483685 0.11743502 -0.00029816449
0.012696772 0.11161475 -0.00021787341
-0.010573308 -0.18115714 0.0099888025
-0.0082807504 -0.18041368 0.0099315252
-0.014339618 -0.17383611 0.009718365
-0.0068608299 -0.17936544 0.0099610351
-0.072277293 -0.1602897 0.0096072964
-0.066494398 -0.16028641 0.0096164029
-0.072480291 -0.15445627 0.005974364
-0.065209977 -0.15509687 0.0051622093
-0.058204889 -0.15368037 0.0069017056
0.036183458 -0.15210661 0.007467242
0.044287611 -0.15189604 0.0085661691
0.050088383 -0.15063173 0.009432191
-0.073107183 -0.1448357 0.0043423725
-0.06541793 -0.14492181 0.0004513259
-0.058325939 -0.14487475 0.0048606656
0.035373919 -0.14482173 0.0048533585
0.046189718 -0.14463533 0.0048333583
0.050041087 -0.14990947 0.0085873362
-0.073662691 -0.13524486 0.0047061676
-0.064882144 -0.13485073 0.0022360762
-0.058908917 -0.13508844 0.0054676579
0.034293212 -0.13492258 0.0036711483
0.046707589 -0.13483027 0.0034720276
-0.073303111 -0.12774608 0.0081464062
-0.064984173 -0.12754522 0.0073987893
-0.059260845 -0.12832351 0.007797332
0.034598429 -0.12518543 0.0055372738
0.045387652 -0.12499297 0.0050408849
0.034510326 -0.11876684 0.008803891
0.044040896 -0.11916046 0.0089870272
-0.075469106 -0.062756516 0.0070212875
-0.066029668 -0.062843673 0.0078321137
-0.080130644 -0.05181808 0.0040985732
-0.076579705 -0.055189397 0.0038207558
-0.065558463 -0.054818895 0.0041933535
0.027859697 -0.054236628 0.0068674251
0.034906957 -0.054794673 0.0059358506
0.042641018 -0.053318337 0.0068074684
-0.080458716 -0.044896103 0.0043520145
-0.076354973 -0.045060463 0.0033514758
-0.065785043 -0.045087695 0.0037309511
0.027409542 -0.044880126 0.0050309617
0.035241891 -0.045103434 0.0017751734
0.042061139 -0.044938587 0.0047425544
-0.08096458 -0.036329318 0.0064212941
-0.07510452 -0.034761667 0.0054372773
-0.066710599 -0.035411492 0.006104561
0.026872898 -0.034950305 0.0043205102
0.035074193 -0.03506105 0.0011685183
0.041489877 -0.035104427 0.0051293219
-0.071809247 -0.029828377 0.009637936
-0.068021044 -0.029512312 0.0095965685
0.02728549 -0.027308304 0.0071585556
0.035090778 -0.0262585 0.0061648288
0.041324828 -0.026943639 0.0065234574
-0.0038390649 0.087578952 0.00552013
0.0055034403 0.085790098 0.0058446606
0.011306519 0.088069059 0.0048755594
-0.013053109 0.095920213 0.0043619815
-0.0074761766 0.092718892 0.0068505611
0.0052845012 0.090548255 0.0088865161
0.015204954 0.09506692 0.0054924572
0.020424595 0.099232867 0.0073371916
-0.012915966 0.10458194 0.0053463452
-0.0055054994 0.10593326 0.0062460881
0.0037035642 0.10553586 0.0076901428
0.015931115 0.1051849 0.0052457964
0.020796791 0.10343546 0.0056769769
-0.010366988 0.11022241 0.0039021834
-0.0044665472 0.11417106 0.0045473366
0.0046861279 0.11581576 0.005711982
0.012581863 0.11205247 0.005185979
0.0024761257 0.12034135 0.0078018093
-0.011315024 -0.18138894 0.013914363
-0.0084647266 -0.18108346 0.015021968
-0.05166693 -0.17042005 0.01955778
-0.044794265 -0.17134871 0.019475412
-0.034199499 -0.17155713 0.018309744
-0.025036588 -0.17169911 0.016656091
-0.014042155 -0.1745028 0.014237612
-0.005913781 -0.1736519 0.014179165
0.0016727212 -0.17011401 0.016453678
-0.072207965 -0.16234942 0.015338707
-0.064769842 -0.16297461 0.014731553
-0.055690702 -0.16463435 0.016667547
-0.049041886 -0.16914105 0.018784551
-0.023503484 -0.16962759 0.017071813
-0.014721318 -0.16779673 0.015174158
-0.0052449056 -0.16586457 0.015145481
0.0051190937 -0.16764602 0.016686196
0.013781171 -0.1684043 0.018405784
0.025242511 -0.16550255 0.019641018
0.031100864 -0.16057073 0.019670755
-0.072656512 -0.15538159 0.014730677
-0.060725763 -0.15983941 0.010101144
-0.057367977 -0.15517323 0.014876556
0.035426863 -0.15487978 0.015435722
0.046065301 -0.15487015 0.014985158
0.050265338 -0.15400305 0.01452248
-0.073217489 -0.14485797 0.014811462
-0.055919845 -0.14345437 0.016081406
-0.045212474 -0.14125279 0.017529501
-0.035401978 -0.14077128 0.017857462
-0.025587076 -0.14032225 0.01833169
0.033413623 -0.14513239 0.015103908
0.048880395 -0.14489836 0.015023398
-0.074104607 -0.13493821 0.015133284
-0.058693998 -0.13487542 0.015020609
-0.044933811 -0.13979822 0.019427435
-0.034724783 -0.13940656 0.019232731
-0.026383506 -0.13644436 0.019108621
-0.015489708 -0.13940048 0.019032177
-0.0049675289 -0.13885094 0.019316681
0.0050309692 -0.1369649 0.018646395
0.015331991 -0.13696225 0.017505679
0.025204813 -0.13615035 0.016063899
0.032323875 -0.13548136 0.01491101
0.048102368 -0.13491069 0.015100798
-0.074107714 -0.12567243 0.014923689
-0.064912103 -0.12275826 0.014699518
-0.059172429 -0.12555666 0.015548508
-0.030036783 -0.12025712 0.019580621
-0.028510403 -0.12514861 0.01923836
0.0022447216 -0.12473952 0.019419413
0.032073438 -0.12493002 0.014987053
0.047779821 -0.1250363 0.015007961
-0.060832553 -0.11476925 0.018643709
-0.059631579 -0.11573394 0.01853832
-0.030340966 -0.11510961 0.019446895
-0.02893036 -0.11554608 0.019141302
0.0013750819 -0.11534521 0.019314032
0.032995123 -0.11523084 0.015266331
0.045263648 -0.11625554 0.015370901
-0.061117616 -0.10457201 0.018864458
-0.059902083 -0.1078385 0.018863523
-0.03085028 -0.10422949 0.019341609
-0.029586157 -0.10779394 0.019300902
-0.00048234174 -0.10433225 0.019403964
0.00090210937 -0.10532073 0.019232823
0.029912848 -0.10110198 0.019384271
0.030638097 -0.10597809 0.018353852
-0.061489217 -0.094806217 0.019243129
-0.031628691 -0.095065765 0.019448018
-0.0010634431 -0.094403781 0.019212676
0.00043465439 -0.095022649 0.019297175
0.029400179 -0.094512992 0.019227615
0.030841146 -0.094931714 0.019229662
-0.061912794 -0.084364161 0.018299932
-0.0316277 -0.084744081 0.019281082
-0.0011709085 -0.084462546 0.019173602
7.9508667e-05 -0.088379666 0.019484531
0.028948953 -0.084698379 0.019199906
0.030504288 -0.085483834 0.019370247
-0.062843859 -0.074733891 0.016745849
-0.032162528 -0.075125784 0.019259268
-0.0018709509 -0.074955076 0.019187884
0.028832287 -0.075043291 0.019288925
0.030022254 -0.079654239 0.019778283
-0.076389886 -0.066072911 0.014951006
-0.064523548 -0.066349819 0.014999934
-0.032947958 -0.064915992 0.01922421
-0.0025829417 -0.064532883 0.019265914
0.028245579 -0.063332088 0.01799221
0.034408946 -0.060876563 0.017440431
0.042125732 -0.060465556 0.018882466
-0.081314839 -0.050500061 0.019192003
-0.079203188 -0.054903299 0.015075414
-0.06396921 -0.055117436 0.014892248
-0.033502731 -0.055219419 0.019147791
-0.0037397612 -0.0556667 0.019427191
0.027405201 -0.055304911 0.014775515
0.035538752 -0.058959141 0.012561927
0.043214407 -0.054885067 0.015192572
-0.080433428 -0.045366291 0.017227175
-0.079743415 -0.045655176 0.014979986
-0.063867204 -0.045758404 0.015570179
-0.055093054 -0.046914481 0.017187199
-0.045245424 -0.046300866 0.018078726
-0.035539631 -0.045930021 0.018924076
-0.025417356 -0.044234298 0.019465754
-0.015009169 -0.043546252 0.019500267
-0.0045204768 -0.044272415 0.019420443
0.0054998295 -0.042364139 0.018277109
0.015455056 -0.041944973 0.017021492
0.024808856 -0.042974435 0.015619496
0.042181984 -0.044627849 0.01513997
-0.081031725 -0.034945566 0.014923165
-0.078454241 -0.030329974 0.010416746
-0.065467387 -0.035269614 0.0150124
0.02600641 -0.035361588 0.015129817
0.041754343 -0.035598829 0.014998966
-0.081655189 -0.028321922 0.015773769
-0.07497184 -0.027753448 0.014849205
-0.065839536 -0.025836749 0.015898369
0.025683217 -0.024293164 0.014782768
0.035107199 -0.021518312 0.012403045
0.041173272 -0.024971569 0.015070339
-0.062292803 -0.018814126 0.019109365
-0.054694083 -0.016242448 0.019202529
-0.045404535 -0.015272327 0.01920123
-0.035061579 -0.01483338 0.019334139
-0.024226172 -0.013932458 0.019437352
-0.014648826 -0.013591178 0.019306887
-0.0049751941 -0.012640998 0.019290667
0.0051086126 -0.011704388 0.019184843
0.015049786 -0.01157918 0.01910501
0.024822589 -0.017795941 0.017970096
0.035119336 -0.019358389 0.01732232
0.04108727 -0.019298613 0.017311884
0.013608662 -0.0098941652 0.019405719
-0.0032349939 0.089592487 0.012266072
0.0043722508 0.089499913 0.01261324
-0.010409664 0.098939322 0.011977169
-0.0050899028 0.094574593 0.015149059
0.0051040268 0.093668185 0.015670089
0.012596525 0.096297763 0.014242578
-0.010347007 0.10163353 0.011573176
-0.0072556757 0.1041063 0.01421309
0.0069782804 0.10528264 0.012862397
0.012832096 0.10427926 0.014347328
-0.0035438526 0.11081675 0.014388611
0.0052492474 0.11175646 0.014332366
0.010215516 0.11032179 0.011998778
-0.010270078 -0.1811696 0.020940889
-0.0087071825 -0.18142997 0.024059692
-0.051771097 -0.17073132 0.025054876
-0.044668894 -0.17193817 0.024693109
-0.034798559 -0.1716896 0.024861716
-0.025827693 -0.17167769 0.024939377
-0.013651302 -0.17272229 0.024417022
-0.006565806 -0.17302015 0.024460349
0.0029267166 -0.17023651 0.024958814
-0.072433896 -0.16254562 0.024840167
-0.065028481 -0.1632853 0.025230745
-0.055266093 -0.16534349 0.025028462
-0.044996537 -0.16864419 0.026317537
-0.038047235 -0.16743287 0.028125498
-0.02359009 -0.16977595 0.024985231
-0.014967492 -0.16917148 0.024844762
-0.0048341118 -0.16722997 0.024488606
0.0056300024 -0.16490686 0.025125999
0.015136953 -0.16604772 0.024532225
0.025122121 -0.16605358 0.024596008
0.031620655 -0.16196202 0.025195716
-0.073294006 -0.15484847 0.024991818
-0.057221401 -0.15499181 0.02520128
0.034792375 -0.15627542 0.024875376
0.04586703 -0.15477015 0.024739929
0.050288767 -0.15350425 0.025798609
-0.07415241 -0.14511442 0.02514562
-0.056088604 -0.14317583 0.025027782
-0.045031294 -0.14167017 0.025026068
-0.034951583 -0.14100027 0.024904858
-0.024932431 -0.14034592 0.025215689
-0.019729616 -0.14001799 0.026933949
0.033194166 -0.14519681 0.025040988
0.048912678 -0.14514855 0.02505332
-0.074269295 -0.13514213 0.024858464
-0.056575265 -0.13626312 0.025256507
-0.044872358 -0.13931201 0.025279941
-0.034896072 -0.1389219 0.024820972
-0.026754143 -0.1352575 0.024826065
-0.01485855 -0.13830775 0.025178188
-0.0048745354 -0.1371011 0.025170244
0.0043540904 -0.13573483 0.02474652
0.014953951 -0.13662162 0.025224989
0.02492482 -0.13586229 0.025082342
0.032172967 -0.13504702 0.024801886
0.048244789 -0.13493811 0.024717027
-0.07413172 -0.12507741 0.025214413
-0.064965717 -0.12248984 0.025257409
-0.059131645 -0.12522234 0.025149634
-0.030028107 -0.12058355 0.026101664
-0.027594151 -0.12494011 0.025528068
-0.015670516 -0.12680486 0.027011173
-0.0066365078 -0.12391239 0.027190905
0.0016559814 -0.12494618 0.024848744
0.032034621 -0.12501805 0.024949117
0.048038892 -0.12488282 0.02508859
-0.061867863 -0.1147732 0.025166068
-0.059716418 -0.11513168 0.024698295
-0.030407345 -0.11508638 0.025016692
-0.027112396 -0.1149952 0.026070576
-0.014124512 -0.11590344 0.02659828
-0.0038079529 -0.11513135 0.027604215
0.0014803873 -0.11537714 0.024200706
0.03333731 -0.1144577 0.025112724
0.045577489 -0.1164218 0.02497736
-0.061244138 -0.10473276 0.025218207
-0.059956092 -0.10854939 0.022124141
-0.031086838 -0.10462216 0.02473752
-0.026373968 -0.10544049 0.025957439
-0.014828589 -0.10401831 0.027903439
-0.0033597888 -0.10458711 0.026365444
0.001278041 -0.1049862 0.024977634
0.029967925 -0.10048887 0.024951516
0.031321183 -0.10500515 0.02442337
-0.061691262 -0.094836541 0.025027167
-0.03152534 -0.095219389 0.024181394
-0.025977682 -0.094747178 0.026923781
-0.014282661 -0.094605222 0.027262734
-0.0043909675 -0.09500692 0.026903855
0.00059069949 -0.094876103 0.025095323
0.029587211 -0.095496915 0.024422821
0.031764839 -0.095245585 0.024888674
-0.062550634 -0.085130796 0.025092715
-0.031504516 -0.084831275 0.024725121
-0.023065414 -0.08647003 0.027510779
-0.015174613 -0.085235946 0.026041118
-0.001814488 -0.084673978 0.025257565
0.00013282937 -0.088127598 0.025373654
0.0288899 -0.085025571 0.025185395
0.031001663 -0.084908836 0.024968378
-0.063453771 -0.075139962 0.025038758
-0.032074329 -0.075063586 0.024985362
-0.021228595 -0.073957033 0.027405204
-0.015405573 -0.074729346 0.026764464
-0.0030466984 -0.07470879 0.025649223
0.028724313 -0.074400544 0.024249267
0.030463118 -0.07596764 0.026143139
-0.08004494 -0.064953707 0.029976444
-0.076448843 -0.065568574 0.024876621
-0.064695865 -0.066251054 0.025160939
-0.032674253 -0.065015055 0.024964185
-0.024234993 -0.063866682 0.027569095
-0.014819884 -0.065306239 0.024528379
-0.0037661055 -0.0647422 0.02517003
0.028500948 -0.064883448 0.024894256
0.033935193 -0.061471257 0.024432266
0.041980833 -0.060365155 0.021539366
-0.081736065 -0.051105328 0.021925593
-0.079273075 -0.054957256 0.025228746
-0.063820481 -0.054931592 0.025057735
-0.033408731 -0.055114657 0.024964945
-0.023875147 -0.055989187 0.027168905
-0.014752321 -0.055277951 0.027388513
-0.0040932302 -0.055124085 0.025116466
0.027180964 -0.054845724 0.025091615
0.036820546 -0.059461951 0.028268632
0.042999305 -0.05498505 0.024999682
-0.080731504 -0.044076711 0.023113985
-0.079737969 -0.046196446 0.024711285
-0.063426189 -0.046164181 0.024863685
-0.055147696 -0.047255848 0.025003774
-0.044939298 -0.046553873 0.025039291
-0.034799531 -0.04655318 0.024804847
-0.024821362 -0.045126807 0.025363851
-0.015026839 -0.044582251 0.025451133
-0.0046891347 -0.044818275 0.024798678
0.0050071678 -0.042803358 0.025050968
0.01487979 -0.042417534 0.024997581
0.024569428 -0.043096919 0.024925735
0.042428002 -0.045604344 0.025182156
-0.080947742 -0.035531893 0.025166221
-0.065380894 -0.035062429 0.024988204
0.025948253 -0.035268564 0.025204323
0.041704904 -0.035221186 0.024855178
-0.081658676 -0.028997723 0.024428248
-0.075110503 -0.027823478 0.025029887
-0.065276325 -0.024507267 0.024987752
0.025228037 -0.024434911 0.025357004
0.033654395 -0.020249782 0.029114855
0.041441239 -0.025043761 0.025004108
-0.062031746 -0.018486103 0.024840133
-0.055092681 -0.016231995 0.025081813
-0.045023527 -0.014952444 0.024718
-0.034637384 -0.014101622 0.025045682
-0.025075655 -0.013694946 0.023863116
-0.015195414 -0.013234292 0.02490609
-0.0049970425 -0.012443895 0.024901006
0.0049901637 -0.011535612 0.025130047
0.015594522 -0.01198327 0.024796046
0.023531014 -0.016465476 0.024720961
0.035332173 -0.019466259 0.024386326
0.041170336 -0.019616252 0.025210382
-0.030056313 -0.009751481 0.029374152
-0.025000632 -0.0050872727 0.02471658
-0.018022859 -0.0049559535 0.026260886
0.013287002 -0.0098512191 0.025251929
-0.020656209 0.00033166929 0.027215665
-0.019061247 0.0006093884 0.02692885
-0.0048905788 0.094483972 0.024687493
0.0052885674 0.092180878 0.024852276
0.012008897 0.097278982 0.024363084
-0.0055186679 0.10635154 0.024906738
0.0066299452 0.10901565 0.027048305
0.01203398 0.103895 0.024736958
-0.0012216959 0.1102372 0.021488763
0.0047491617 0.11067369 0.023717754
-0.05161709 -0.1709525 0.03496106
-0.044994321 -0.17286777 0.034710281
-0.034498774 -0.17248866 0.034437194
-0.025560286 -0.1719712 0.034571428
-0.014961235 -0.17152295 0.035042662
-0.0048337351 -0.17081989 0.034995802
0.0033217035 -0.17023674 0.035135902
-0.072077446 -0.16120473 0.031498797
-0.0649084 -0.16104817 0.032206431
-0.055256952 -0.16511846 0.035021689
-0.045293778 -0.16595064 0.035048477
-0.034537695 -0.16408449 0.033572786
-0.025498053 -0.1682637 0.036089644
-0.015024744 -0.16918246 0.035112381
-0.0050464249 -0.16851959 0.034971938
0.0054249237 -0.16571835 0.03487223
0.014451949 -0.16638391 0.034030195
0.025246177 -0.16533163 0.034757357
0.032040969 -0.16251625 0.035010941
-0.072971731 -0.15474506 0.035206906
-0.064793378 -0.15560311 0.037257012
-0.057833109 -0.15493388 0.035853278
-0.04185624 -0.15906 0.039150756
-0.034470368 -0.1577681 0.037834994
-0.029229 -0.15889561 0.039479729
0.0061393725 -0.15729563 0.038200296
0.015656075 -0.15586865 0.036664046
0.022128675 -0.15637819 0.038286455
0.034924421 -0.15504462 0.034927372
0.044656117 -0.1527347 0.033228964
0.050400764 -0.15175214 0.032138836
-0.073927455 -0.14493693 0.034884222
-0.063301101 -0.14495353 0.038527869
-0.056266174 -0.14326981 0.034987312
-0.044966098 -0.14171916 0.035193719
-0.035090886 -0.14113715 0.035090361
-0.025034891 -0.14045739 0.034772549
-0.019038789 -0.14006627 0.035685107
0.018495109 -0.149821 0.039917763
0.024519376 -0.141316 0.038643114
0.034653164 -0.14516859 0.036236197
0.046624325 -0.14519055 0.036516115
0.050227765 -0.14732963 0.035386093
-0.074041627 -0.13473032 0.036074594
-0.063936628 -0.13498235 0.038595486
-0.055975575 -0.13614847 0.035226829
-0.045644637 -0.1370115 0.035745915
-0.035055742 -0.13874106 0.034948185
-0.027437672 -0.1337686 0.03351726
-0.014551379 -0.1366113 0.033181448
-0.0053395275 -0.1379478 0.034286663
0.0050434936 -0.13634302 0.035107654
0.015051804 -0.13662989 0.034918297
0.025070323 -0.13628939 0.034834784
0.031879772 -0.13537973 0.035086129
0.048501369 -0.13492623 0.034711748
-0.073706605 -0.12744284 0.033300456
-0.063763104 -0.12546888 0.035163667
-0.059155427 -0.12479521 0.03505167
-0.046766691 -0.12949952 0.039615326
-0.030090582 -0.12116258 0.035433806
-0.02774528 -0.12600076 0.032886703
-0.014544153 -0.12414315 0.031274587
-0.0040864702 -0.12526546 0.030878792
0.0026751149 -0.12514451 0.03473793
0.033891752 -0.12433939 0.036187395
0.046574723 -0.12459487 0.035689738
-0.061767302 -0.11444725 0.035155259
-0.059738576 -0.11588792 0.034911413
-0.030502956 -0.11478885 0.035021126
-0.024708698 -0.11504173 0.030284695
-0.013283446 -0.11639608 0.031564202
-0.0058673751 -0.11440392 0.030936033
0.0020333375 -0.11512165 0.03519965
0.033046618 -0.11536985 0.034716301
0.044683728 -0.11861327 0.032600243
-0.061508801 -0.10491017 0.035080489
-0.031161167 -0.10483886 0.034781326
-0.015822604 -0.10571373 0.031452239
-0.0043031368 -0.10670739 0.030659502
0.0013284591 -0.10504611 0.034944858
0.029977553 -0.1002582 0.031528242
0.031641155 -0.10511287 0.034892015
-0.062005211 -0.095150337 0.035131097
-0.031835411 -0.095011406 0.034882691
-0.026116941 -0.092168756 0.030515876
-0.013883256 -0.091361098 0.031050645
-0.0024678675 -0.095745087 0.030120704
0.00066950679 -0.095074072 0.034846067
0.029674029 -0.094923697 0.034859214
0.032099392 -0.095492847 0.035121135
-0.062778547 -0.08481127 0.035035387
-0.032360271 -0.084736742 0.034685761
-0.026760148 -0.084732331 0.031203173
-0.01250369 -0.086408004 0.031356905
-0.0036213866 -0.083435282 0.032505468
0.00016682599 -0.087405264 0.035097007
0.02906614 -0.084769838 0.03487964
0.031466607 -0.084950961 0.035052069
-0.063581832 -0.075077459 0.035011996
-0.032795478 -0.075009622 0.034397803
-0.025000175 -0.075169571 0.031234579
-0.016578963 -0.073938735 0.031003451
-0.0021649445 -0.075419202 0.033502854
0.028515542 -0.075011805 0.035387382
0.030746806 -0.075154185 0.035280608
-0.080196977 -0.062608287 0.034612443
-0.07549198 -0.063268557 0.034032002
-0.064810403 -0.065276861 0.03494186
-0.033373423 -0.065147907 0.034361608
-0.024517545 -0.065213971 0.030811761
-0.016720664 -0.062537 0.031476717
-0.0022468157 -0.06493336 0.033721238
0.028099634 -0.064529009 0.034745976
0.03023828 -0.065513685 0.035196699
-0.080776423 -0.054113973 0.036445919
-0.077688679 -0.055663638 0.03633713
-0.064352229 -0.055561811 0.035686269
-0.033902094 -0.05472428 0.033828843
-0.024510732 -0.057607751 0.030827018
-0.01563821 -0.057030223 0.031572729
-0.0034007723 -0.054615974 0.033551902
0.015024194 -0.050926216 0.03969188
0.027971165 -0.055230692 0.035685483
0.034872714 -0.055551194 0.034902807
0.042717047 -0.05389303 0.034266062
-0.081241764 -0.044594023 0.035689283
-0.079736486 -0.047442887 0.032668389
-0.063273288 -0.046152811 0.03494956
-0.055171032 -0.047193453 0.034982394
-0.045116324 -0.046514288 0.035035681
-0.035599072 -0.046181217 0.034838438
-0.025080761 -0.04466689 0.034084514
-0.014759265 -0.044125374 0.033929974
-0.0040968885 -0.044797637 0.034492899
0.0050759618 -0.043352067 0.035335403
0.014783414 -0.043203123 0.035439722
0.024965195 -0.04353115 0.035406396
0.034042932 -0.046198603 0.038850844
0.042299759 -0.045473907 0.035171706
-0.081678383 -0.035682287 0.03412921
-0.075191818 -0.033742104 0.036471538
-0.06621141 -0.034050193 0.035595775
0.025991673 -0.035246875 0.035120513
0.032212336 -0.03182365 0.039843936
0.041798092 -0.034892846 0.03495127
-0.081318095 -0.029779207 0.030922066
-0.074651502 -0.029090103 0.031219605
-0.065192237 -0.025045335 0.03489114
-0.05994736 -0.020020554 0.039745517
0.026017323 -0.024407111 0.035213482
0.035074286 -0.025006413 0.03478121
0.041390661 -0.025988944 0.033848822
-0.062273633 -0.017978972 0.034952171
-0.05513151 -0.016263107 0.034956917
-0.044903226 -0.014827841 0.034974113
-0.034727558 -0.013843839 0.034990504
-0.024823707 -0.01383854 0.035874654
-0.014354152 -0.012780824 0.035033431
-0.0049653938 -0.012061522 0.034974452
0.004926173 -0.011440096 0.035078954
0.01588634 -0.012486421 0.035037562
0.022998167 -0.016596541 0.034859575
-0.030165097 -0.0096024852 0.035486259
-0.025836473 -0.004447679 0.036867678
-0.015961891 -0.0053388295 0.036221825
0.013409209 -0.0098197674 0.035237655
-0.020951193 0.00034467049 0.034922127
-0.018858751 0.00066509814 0.035423595
-0.0034330052 0.096299753 0.035193533
0.0053728949 0.094949871 0.035521876
0.010991439 0.098442592 0.033860724
-0.0032583026 0.10514415 0.034869529
0.0054957704 0.10645095 0.035929371
0.010960381 0.10193598 0.033398382
-0.051453877 -0.17098753 0.044218495
-0.044470329 -0.17254175 0.045198794
-0.035376541 -0.17209566 0.045678236
-0.025226237 -0.1719023 0.044550337
-0.01477904 -0.17130145 0.044573326
-0.0053084479 -0.1707073 0.04409432
0.0029283664 -0.17018002 0.043951303
-0.054694682 -0.16440964 0.044499639
-0.04599525 -0.16466606 0.04594655
-0.034501128 -0.1657166 0.048272025
-0.024334567 -0.16554211 0.046187729
-0.015722862 -0.16527414 0.046132922
-0.0050750081 -0.16507551 0.045145433
0.0052585937 -0.16571891 0.046249736
0.014635352 -0.16614102 0.046527151
0.025320904 -0.1650645 0.045215908
0.031955726 -0.16274837 0.044164147
-0.071774423 -0.15051179 0.040220343
-0.068907641 -0.15038602 0.040212981
-0.05616913 -0.15492737 0.045411706
-0.045254935 -0.15496777 0.045901522
-0.035054445 -0.1543292 0.045627046
-0.025085386 -0.15494329 0.045813128
-0.015094899 -0.15513074 0.046823617
-0.0049593458 -0.15520115 0.045699801
0.0046521388 -0.15406235 0.045213521
0.014747093 -0.15468532 0.046907734
0.025954589 -0.15462704 0.045151364
0.033331055 -0.1549179 0.044329684
-0.072755277 -0.14492798 0.041192207
-0.062640265 -0.14411707 0.043127365
-0.05565476 -0.14470568 0.045344155
-0.044951417 -0.14449263 0.046109986
-0.034844466 -0.14440982 0.046161406
-0.025157329 -0.14409341 0.046014026
-0.015250446 -0.14470954 0.046854541
-0.0048784362 -0.14534572 0.047014724
0.0052934815 -0.14499579 0.046512593
0.014645936 -0.14503217 0.045635831
0.024906872 -0.14487654 0.045294352
0.033792514 -0.14494632 0.044711616
0.04601226 -0.14161259 0.040554207
0.050129797 -0.14349572 0.040061384
-0.072332859 -0.13872971 0.040457003
-0.061437566 -0.13523605 0.043793373
-0.055278119 -0.13511202 0.045324039
-0.044451635 -0.13467252 0.045318391
-0.034270588 -0.13523342 0.045224644
-0.025040338 -0.13493772 0.047402091
-0.015129123 -0.13600086 0.046604201
-0.0051139253 -0.13660294 0.045964774
0.0054232655 -0.13536523 0.045185063
0.014386352 -0.13491534 0.045337062
0.025117813 -0.13413078 0.046260022
0.033928942 -0.13485734 0.044195324
0.044859879 -0.13510443 0.041658975
-0.061406218 -0.12491005 0.044534754
-0.055702221 -0.12473779 0.045928095
-0.045122929 -0.12496036 0.045444068
-0.034253817 -0.12483118 0.045969028
-0.025840646 -0.12520863 0.046713885
-0.014988438 -0.12520541 0.047764953
-0.0049063498 -0.12519674 0.047761369
0.0051050037 -0.12502186 0.045803018
0.014929445 -0.12529932 0.045770232
0.025296949 -0.12524642 0.046418756
0.03310746 -0.12540765 0.044408746
0.043978862 -0.12853415 0.040870264
-0.061900005 -0.11472728 0.044681314
-0.055941697 -0.11520887 0.04628057
-0.044829685 -0.11509105 0.047072142
-0.034666523 -0.11529679 0.046379227
-0.024763901 -0.1149425 0.047813639
-0.015175518 -0.11487815 0.047766421
-0.0050856587 -0.1150836 0.04771043
0.0047796275 -0.11504232 0.045883734
0.014988729 -0.11522684 0.04619268
0.025519606 -0.11501819 0.04671542
0.032315429 -0.11501978 0.04452021
-0.06167163 -0.104876 0.044184901
-0.055118918 -0.10514773 0.04697619
-0.044972867 -0.10497758 0.047010373
-0.034281779 -0.10499218 0.046153508
-0.025054969 -0.10495333 0.048085358
-0.01509449 -0.10501637 0.047713224
-0.0049441974 -0.10488524 0.047682215
0.0043138522 -0.10497622 0.045927718
0.015146832 -0.10512299 0.046890695
0.025147308 -0.1051191 0.047052357
0.031733029 -0.10508283 0.044230036
-0.062246002 -0.094883472 0.044621587
-0.055109166 -0.094448276 0.047270402
-0.044921912 -0.095202707 0.046958826
-0.034563743 -0.094964504 0.045996275
-0.025000349 -0.094954699 0.047733936
-0.015009296 -0.095185764 0.047808744
-0.005086279 -0.094822653 0.047807533
0.0041572214 -0.095006905 0.045940626
0.014932909 -0.095084816 0.046922136
0.026067069 -0.094844259 0.046279866
0.031776629 -0.09544313 0.044533115
-0.06254416 -0.084788382 0.045254234
-0.055275053 -0.085000634 0.04752722
-0.044624325 -0.085057117 0.047151525
-0.034890085 -0.08494693 0.046006117
-0.024696825 -0.085120104 0.047729556
-0.015123948 -0.084977217 0.047680568
-0.003904948 -0.084467068 0.046501603
0.0047383341 -0.084802784 0.046699088
0.01472812 -0.084894016 0.047102042
0.02582789 -0.085269645 0.046353467
0.031530425 -0.085254014 0.044450358
-0.062802941 -0.07502044 0.045385066
-0.055246886 -0.075099632 0.04702685
-0.045010697 -0.074824482 0.046789244
-0.034983758 -0.075096443 0.046011616
-0.024971217 -0.074913725 0.047710966
-0.014989162 -0.075084552 0.047671296
-0.0032720394 -0.075089373 0.04590584
0.005094327 -0.075145409 0.046999782
0.014976563 -0.074940942 0.046750635
0.025585739 -0.075044654 0.046067968
0.030963842 -0.075221568 0.04414567
-0.063605011 -0.065020837 0.044956468
-0.055178549 -0.064911179 0.046840828
-0.04486974 -0.065043397 0.046640642
-0.035348475 -0.065018401 0.045967788
-0.024955649 -0.065066412 0.047675401
-0.014845639 -0.064712159 0.047676057
-0.0034268459 -0.064960659 0.045749225
0.005089689 -0.065613098 0.047042567
0.014965953 -0.064893514 0.045874417
0.025565859 -0.064917073 0.045759708
0.030374609 -0.065641917 0.044051453
-0.073058657 -0.05280764 0.040780563
-0.064291872 -0.054790586 0.045168962
-0.055075679 -0.054731313 0.046803202
-0.044941798 -0.055009395 0.046341341
-0.035635095 -0.055033315 0.045731161
-0.024827614 -0.05504005 0.047633674
-0.01487776 -0.054993875 0.047660038
-0.0035756463 -0.055040337 0.045909073
0.0049393149 -0.054428872 0.04636446
0.015051271 -0.055104129 0.044479921
0.025891887 -0.05506178 0.045230445
-0.081205726 -0.043716252 0.040746056
-0.075051688 -0.044954952 0.041458104
-0.064469442 -0.045033496 0.044656709
-0.054951079 -0.045556501 0.045060769
-0.044897564 -0.045381464 0.044986065
-0.035465438 -0.044815987 0.045386035
-0.024912182 -0.044091206 0.04594988
-0.014934276 -0.043783706 0.045894384
-0.0043679369 -0.044448517 0.045332085
0.0045724832 -0.044716224 0.045888424
0.015370634 -0.043848548 0.045164045
0.025162118 -0.044873033 0.044631604
0.037229504 -0.04245533 0.040827312
0.041937336 -0.044027094 0.041090317
-0.081021063 -0.039760485 0.040118221
-0.07417544 -0.03865106 0.04071331
-0.065027371 -0.03504438 0.044910032
-0.055209 -0.035024919 0.045279253
-0.044647742 -0.035217527 0.046007801
-0.035004575 -0.035072114 0.046480335
-0.025182907 -0.034951106 0.046770204
-0.015038298 -0.035067469 0.046699796
-0.0049867844 -0.034844544 0.046556972
0.0050900979 -0.034992591 0.046380166
0.015650194 -0.034670345 0.046722192
0.02499398 -0.034902707 0.045303088
0.03505446 -0.035134323 0.041055024
0.041416883 -0.03567344 0.040620927
-0.063820086 -0.025366846 0.04468517
-0.054865927 -0.02484142 0.045921247
-0.044961985 -0.025054373 0.046151418
-0.035084948 -0.024952324 0.046441492
-0.025115589 -0.024968021 0.046720605
-0.015024466 -0.024878304 0.046473972
-0.0050306213 -0.024978982 0.045941703
0.0050321007 -0.024967024 0.045587279
0.015090502 -0.025061972 0.045673631
0.024406143 -0.025332533 0.045437213
0.038497791 -0.029990649 0.040021557
-0.062368039 -0.017934913 0.044511348
-0.054753065 -0.016723497 0.0445081
-0.044904593 -0.015855568 0.044956651
-0.034824733 -0.015310964 0.044979066
-0.024811048 -0.015014186 0.0452209
-0.014999427 -0.014643655 0.045193382
-0.0049464824 -0.014170638 0.045000564
0.0049952045 -0.014171734 0.045670848
0.015013025 -0.014462638 0.045196839
0.022971071 -0.016847435 0.044127271
-0.024781588 -0.0010354985 0.04178898
0.013776357 -0.0097889518 0.043970186
-0.022869444 0.0044823559 0.044786852
-0.019535521 0.0020697645 0.041450609
-0.023542453 0.012229504 0.049016371
-0.0012286721 0.097587347 0.043264478
0.0024875167 0.097340718 0.042849518
-8.918604e-05 0.1000981 0.041234046
0.0029702797 0.10240766 0.042070914
-0.03112587 -0.16362219 0.050139792
-0.029899556 -0.16353647 0.050147336
0.0092454059 -0.16350248 0.05115357
0.011588615 -0.16401961 0.050751895
0.025543028 -0.13260454 0.050151523
-0.0581307 -0.090261266 0.050138563
-0.060221829 -0.087634139 0.05111168
-0.058967333 -0.087155685 0.05045443
0.018772339 -0.082339376 0.050875232
0.021042351 -0.083090477 0.050496966
-0.061635077 -0.073490873 0.050081253
0.020624742 -0.079724364 0.050206114
-0.060039334 -0.060253426 0.050243735
-0.059845716 -0.060539071 0.050035227
-0.061094344 -0.057859819 0.050542098
-0.0592537 -0.057547092 0.050242662
-5.1038358e-05 -0.051211271 0.051796909
0.0037096378 -0.052141543 0.050777365
0.0016658483 -0.048497342 0.050581843
-0.024664288 0.016960153 0.050648715
-0.025847327 0.025149148 0.053295225
-0.026417529 0.035131585 0.055947445
-0.025440872 0.043869451 0.056824129
-0.024387168 0.051442746 0.057280585
