# .PCD v0.7 - Point Cloud Data file format
VERSION 0.7
FIELDS x y z
SIZE 4 4 4
TYPE F F F
COUNT 1 1 1
WIDTH 133
HEIGHT 1
VIEWPOINT 0 0 0 1 0 0 0
POINTS 133
DATA ascii
-0.021377577 -0.051201332 -3.7534792e-05
-0.016344799 -0.050992634 -6.2499025e-06
-0.030539747 -0.040734954 -3.2397958e-05
-0.026565608 -0.045485217 -4.8515441e-05
-0.011164417 -0.048298068 -4.8680544e-05
-0.0062080482 -0.044053208 -8.6448817e-05
-0.040040359 -0.030177856 -2.8390292e-05
-0.038134333 -0.032071341 -5.7676676e-05
-0.0007732723 -0.034500338 -9.3371396e-05
0.0018290649 -0.032848775 -0.00010579557
-0.04267668 -0.026696069 -5.0485603e-05
-0.039830774 -0.029835181 -9.7560849e-05
-0.0048948941 -0.024993613 -0.00013013207
-0.04062308 -0.013621951 -3.7550588e-05
-0.038030736 -0.011353468 -0.00010860272
-0.013726717 -0.01475439 -0.00011362004
-0.009350582 -0.019410124 -0.00011119699
-0.033556413 -0.0074982364 -9.5990952e-05
-0.029639587 -0.0043548457 -2.3059029e-05
-0.018169055 -0.0098521663 -1.0665298e-05
-0.021604871 -0.05194607 0.0048856968
-0.016355155 -0.052746508 0.0046715587
-0.031274859 -0.041410144 0.0048251837
-0.026094073 -0.045815453 0.0048590866
-0.013290235 -0.046426442 0.0053108097
-0.0056638843 -0.043884087 0.004818168
3.3266286e-05 -0.040033791 0.0062540551
-0.040629957 -0.03073418 0.0049296855
-0.035278976 -0.035252828 0.0048040529
-0.022078935 -0.034614593 0.0059309285
-0.013716242 -0.036088984 0.0060503567
-0.001719001 -0.035246469 0.0052978569
0.0022106967 -0.035131682 0.0048041483
-0.044429004 -0.024692399 0.0047212499
-0.033191063 -0.02460251 0.0059329504
-0.024001176 -0.025810346 0.0060888384
-0.015480469 -0.027795119 0.0062606605
-0.0049665095 -0.024897711 0.0048456672
0.00038449396 -0.029586392 0.0054250867
-0.043884546 -0.016516672 0.0046726349
-0.035128947 -0.014514554 0.0056875106
-0.025420005 -0.016923781 0.0060032466
-0.01418181 -0.014534078 0.0049009966
-0.008996224 -0.018801704 0.0050310842
-0.033291847 -0.0072317682 0.0046528694
-0.024858378 -0.0040110112 0.0049339593
-0.018487284 -0.0083141718 0.0046307375
-0.025688441 2.4072295e-05 0.0023676043
-0.02199956 -0.052201282 0.014894586
-0.016010342 -0.052975185 0.014395978
-0.031313092 -0.041496068 0.014975777
-0.025625505 -0.045156874 0.013737394
-0.014643244 -0.045321189 0.012873863
-0.0054918882 -0.043961991 0.01431883
1.2032083e-05 -0.040015955 0.014736599
-0.040551879 -0.030666078 0.014705896
-0.03512444 -0.034810036 0.013852463
-0.024139874 -0.03445439 0.013604527
-0.014702636 -0.035412189 0.013609231
-0.0051530204 -0.034721747 0.011929297
0.0025778178 -0.03520197 0.014713237
-0.044399209 -0.024607286 0.014194263
-0.034258254 -0.02493942 0.012450478
-0.024384782 -0.025493111 0.013309237
-0.01530391 -0.025747553 0.013032806
-0.0051803226 -0.024985846 0.014038804
0.00040832386 -0.029550746 0.015171791
-0.04304751 -0.017276475 0.013891456
-0.035786659 -0.014270007 0.013312913
-0.0244723 -0.015741618 0.012229438
-0.014921578 -0.014491935 0.014088199
-0.0090693552 -0.018894916 0.014733623
-0.032498963 -0.0078181745 0.014032875
-0.025171282 -0.0046660127 0.013932269
-0.018249944 -0.0079868278 0.015027172
-0.022039481 -0.052237697 0.024836885
-0.015745005 -0.053329248 0.025008855
-0.031267941 -0.041536108 0.025027923
-0.026994769 -0.046540655 0.025002625
-0.010789097 -0.049309175 0.025082784
-0.0050044199 -0.044304844 0.025088871
2.0587527e-06 -0.040004279 0.022759086
-0.040580578 -0.03064397 0.025019145
-0.036213435 -0.035674624 0.025019813
-4.0261039e-06 -0.03998968 0.029541351
0.0027436307 -0.035098039 0.024968492
-0.043291021 -0.025003096 0.024785243
-0.038707115 -0.021146396 0.028699053
-0.0038668276 -0.024565905 0.025026232
0.00040559625 -0.029495748 0.025255704
-0.041434091 -0.018800944 0.022027038
-0.034871489 -0.015180374 0.024972396
-0.028172065 -0.011558953 0.027952421
-0.013314409 -0.013807149 0.024927249
-0.0089304475 -0.018831687 0.02512788
-0.030861344 -0.0092713069 0.021181528
-0.024378465 -0.0064790384 0.024451561
-0.018226327 -0.0079771858 0.024906145
-0.021875169 -0.05199565 0.03453467
-0.016146399 -0.052945822 0.034888376
-0.031227421 -0.041415274 0.034166701
-0.025386732 -0.045395151 0.036385212
-0.01462979 -0.045731641 0.038246661
-0.005557782 -0.043885857 0.035158653
-0.040431544 -0.030571824 0.032761935
-0.035088707 -0.034798834 0.035820529
-0.024909651 -0.035064176 0.038712569
-0.014845803 -0.035013571 0.038346838
-0.0046136505 -0.035402048 0.038837731
0.0024124954 -0.03501505 0.034562215
-0.041346494 -0.027678337 0.031932332
-0.034896731 -0.02508354 0.035072658
-0.024844017 -0.024812376 0.03824554
-0.014853992 -0.025088573 0.03879375
-0.0049759033 -0.025293592 0.035717651
0.0003827117 -0.029505119 0.033683516
-0.032059137 -0.018280864 0.031747818
-0.024777504 -0.015297601 0.034502368
-0.014753229 -0.014870549 0.035749502
-0.0089286277 -0.018798025 0.034066934
-0.021541536 -0.0088097053 0.031256676
-0.018145189 -0.0089425454 0.03233362
-0.020903654 -0.045177802 0.041116055
-0.016316622 -0.044748828 0.041044999
-0.0313426 -0.0333644 0.04104016
-0.026094364 -0.033842299 0.040814273
-0.010185781 -0.034527972 0.040246889
-0.0058294591 -0.034196761 0.041047741
-0.030682383 -0.029605186 0.04072389
-0.02654486 -0.028190726 0.040974241
-0.015825909 -0.023812015 0.040932328
-0.0054515684 -0.029875208 0.040632464
-0.01640787 -0.019069919 0.040854447
