# .PCD v0.7 - Point Cloud Data file format
VERSION 0.7
FIELDS x y z
SIZE 4 4 4
TYPE F F F
COUNT 1 1 1
WIDTH 88
HEIGHT 1
VIEWPOINT 0 0 0 1 0 0 0
POINTS 88
DATA ascii
-0.040926185 -0.024539845 -2.2136119e-05
-0.035141952 -0.024344545 -7.3495597e-05
-0.023829019 -0.024445863 -9.7370706e-05
-0.0149543 -0.024624843 -0.00012701459
-0.0050738305 -0.02458513 -0.00011889075
0.0048935893 -0.024346365 -0.0001142996
0.011571864 -0.022415215 -0.00010896892
-0.047256246 -0.014926118 -7.8062869e-05
0.014158955 -0.015148954 -0.00013616557
-0.047490887 -0.0048013385 -9.446199e-05
0.014397783 -0.0048898505 -0.00013061357
-0.04640292 0.0029040605 -7.6316464e-05
-0.034202896 0.005450889 -8.0802733e-05
-0.025198175 0.0053294292 -0.00011124979
-0.014444504 0.0054596295 -0.00014855598
-0.0049030064 0.0053126165 -0.0001377766
0.0040180548 0.005340782 -0.00011640716
0.014214783 0.0023814603 -6.4361971e-05
-0.044553429 -0.02330217 0.0044223485
-0.035033789 -0.024388876 0.0049055885
-0.025002971 -0.024384288 0.0048716641
-0.015235018 -0.024050921 0.0051715821
-0.0050708428 -0.024470944 0.0049901051
0.0050060265 -0.024538772 0.0049334443
0.012626584 -0.02319154 0.0045077242
-0.046535004 -0.015103825 0.0049562799
-0.034884419 -0.013923569 0.0059761545
-0.025052382 -0.01258236 0.006087475
-0.015134511 -0.014869963 0.0058170971
-0.0044791121 -0.013566186 0.0058932016
0.0033720348 -0.013590961 0.0058759153
0.013292268 -0.015038031 0.0050093541
-0.046488196 -0.0050029545 0.0050800503
-0.035251953 -0.005343969 0.0060229916
-0.02489646 -0.0067563709 0.0059134127
-0.014750644 -0.004887295 0.0058305841
-0.0045710299 -0.0059191375 0.0059702424
0.0034486405 -0.0060785199 0.0059246272
0.01336318 -0.0050407038 0.0050142487
-0.044737391 0.0040933215 0.0046148235
-0.035082523 0.0053482098 0.0049372404
-0.024974992 0.0052260524 0.0050428435
-0.015274437 0.004708454 0.0052992152
-0.0050482363 0.0051124012 0.0049323775
0.0050949627 0.0049735345 0.0049294224
0.012761175 0.0034797324 0.0046410873
-0.042451762 -0.022883322 0.012488202
-0.034803249 -0.023472328 0.014411321
-0.024838697 -0.023993017 0.01461442
-0.015130704 -0.023695737 0.015025114
-0.0046990304 -0.023938924 0.014832426
0.0048091183 -0.023467327 0.013887022
0.011193127 -0.023165504 0.011482909
-0.042589441 -0.015008724 0.012591257
-0.035333846 -0.014917876 0.014774609
-0.024935896 -0.014934764 0.015190572
-0.015427042 -0.014783366 0.015486456
-0.0047563673 -0.014901537 0.014837285
0.005347556 -0.015081753 0.014133321
0.011164939 -0.015012722 0.011507216
-0.04259586 -0.0049829199 0.012526917
-0.035454232 -0.0051795929 0.014778982
-0.024976838 -0.0048711263 0.015087517
-0.015440349 -0.0050234287 0.015330477
-0.0049773841 -0.0048850207 0.01554498
0.0054063029 -0.0050252955 0.014091999
0.011218882 -0.0048567313 0.011477347
-0.042445328 0.0032203421 0.012363921
-0.034826864 0.0040399334 0.014341518
-0.024999512 0.0045257416 0.014805758
-0.015237468 0.0042807627 0.014885719
-0.0046842168 0.004298483 0.015038549
0.0047452729 0.0037157487 0.014002656
0.011025704 0.0029107681 0.01126899
-0.030211909 -0.020623853 0.020159692
-0.025211683 -0.020967303 0.021297768
-0.011142024 -0.021025211 0.021166692
-0.0076373131 -0.021137413 0.021438278
-0.030121507 -0.019581916 0.020291971
-0.024772227 -0.016522054 0.021380415
-0.011698615 -0.016552903 0.021230463
-0.0069629578 -0.016297186 0.021220516
-0.02468653 -0.003051027 0.021329716
-0.011806168 -0.0028214678 0.021157965
-0.006549581 -0.0033737528 0.021242015
-0.024437996 0.0014174252 0.021359393
-0.011350275 0.0012636681 0.021343958
-0.0074530332 0.0014280683 0.021306384
