# .PCD v0.7 - Point Cloud Data file format
VERSION 0.7
FIELDS x y z
SIZE 4 4 4
TYPE F F F
COUNT 1 1 1
WIDTH 94
HEIGHT 1
VIEWPOINT 0 0 0 1 0 0 0
POINTS 94
DATA ascii
-0.0030765773 -0.05323806 -7.2134389e-06
0.0010664405 -0.05303612 -1.350394e-05
-0.02770854 -0.041110218 -4.121969e-05
0.0020211677 -0.041566435 -2.8456579e-05
-0.027872685 -0.035287555 -4.7525544e-05
0.0019296153 -0.034568243 -6.93002e-05
-0.02870236 -0.023565225 -4.0750947e-05
0.0019441537 -0.026169812 -6.151104e-05
-0.02871961 -0.0151922 -0.00010065641
0.0016819387 -0.015327604 -5.7035923e-05
-0.028924003 -0.0051473924 -0.00011449281
0.0014743438 -0.0084263189 -4.8566391e-05
-0.027907858 0.0041491673 -8.585371e-05
-0.010814039 0.0080442838 -2.7892056e-05
-0.0079752654 0.0080863992 -2.813947e-05
-0.024867112 -0.053052604 0.0048075845
-0.015114279 -0.053392157 0.0050396174
-0.0049891053 -0.052969061 0.0047870455
0.0023291898 -0.052725166 0.0045019598
-0.027141728 -0.044914667 0.0049891942
-0.015007083 -0.043524578 0.0063413419
-0.0057553011 -0.044758931 0.00745823
0.0022055767 -0.044692799 0.0044371421
-0.026846502 -0.035127226 0.0054412303
-0.015536785 -0.034277577 0.005775955
-0.0066961343 -0.035865586 0.0068798205
0.0019199684 -0.035154764 0.0047600437
-0.02649533 -0.024476036 0.0056138127
-0.015848631 -0.02616781 0.0059504583
-0.0063320389 -0.023634117 0.0067263227
0.0017064225 -0.025237458 0.004667101
-0.027809311 -0.015013556 0.005252657
-0.014769512 -0.014605207 0.0059604584
-0.0050174948 -0.015401263 0.0072040344
0.0016942896 -0.015008694 0.0042285025
-0.026837341 -0.0051694396 0.0055112066
-0.015720418 -0.0037342038 0.0056627952
-0.0067673875 -0.0049324282 0.0066890446
0.0012779168 -0.0052419542 0.0045568342
-0.030000601 0.0059926696 0.0011883063
-0.026451271 0.0058859214 0.0047916598
-0.015030163 0.0068474053 0.0056099799
-0.0042868182 0.0065320907 0.0056061228
0.0013827609 0.0049517481 0.0045343456
-0.024553899 -0.053001393 0.014624576
-0.014679444 -0.053416327 0.01525484
-0.0050823661 -0.05334587 0.015523884
0.0024907235 -0.052870661 0.014974281
-0.025558347 -0.044897243 0.014720612
-0.014834746 -0.044982202 0.015988849
-0.0049172258 -0.044762388 0.01554479
0.0027024052 -0.044898652 0.015200412
-0.02609973 -0.035104014 0.014946925
-0.014440108 -0.035572164 0.015883643
-0.0050855023 -0.035142753 0.015468442
0.0024830489 -0.035058424 0.015168912
-0.026001528 -0.024942961 0.014983287
-0.014531906 -0.024529815 0.015702182
-0.0042655878 -0.025300831 0.015496328
0.0021639594 -0.025109725 0.014920201
-0.026419971 -0.014998247 0.014594655
-0.014574583 -0.015429937 0.017189365
-0.0048543261 -0.014747335 0.014574816
0.0021099315 -0.015035153 0.015111223
-0.026705747 -0.0052227001 0.015068769
-0.014595447 -0.0053519942 0.015416099
-0.0042261737 -0.0059596649 0.016280307
0.0019148018 -0.0050830008 0.014921325
-0.025964258 0.0055380724 0.014678637
-0.014771363 0.0063098683 0.015339749
-0.0047052857 0.0068363436 0.01517133
0.0014427347 0.005002148 0.014663951
-0.021599175 -0.050538287 0.02132396
-0.018884664 -0.050421942 0.020843055
-0.0049588564 -0.050564382 0.021013459
-0.02272398 -0.046203058 0.021156836
-0.018075313 -0.046384275 0.021370828
-0.0049428125 -0.045845728 0.021125065
1.067367e-05 -0.044267111 0.020015623
-0.023007253 -0.03321017 0.020951148
-0.018037258 -0.032105427 0.021212809
-0.0047959839 -0.032529365 0.020926576
-0.022432415 -0.027879944 0.02117048
-0.018429577 -0.028452333 0.021275131
-0.0050552087 -0.027797552 0.020971633
-0.023158364 -0.014531166 0.021024505
-0.017940747 -0.014821392 0.020815305
-0.005680861 -0.014729619 0.021276798
-0.023276798 -0.0019396514 0.021184979
-0.018809075 -0.0014848511 0.020914719
-0.0062162285 -0.0015231833 0.021125045
-0.023591483 0.0031977352 0.021179439
-0.017602541 0.0024807598 0.021023834
-0.0056129023 0.0034158502 0.021167859
