# .PCD v0.7 - Point Cloud Data file format
VERSION 0.7
FIELDS x y z normal_x normal_y normal_z curvature
SIZE 4 4 4 4 4 4 4
TYPE F F F F F F F
COUNT 1 1 1 1 1 1 1
WIDTH 634
HEIGHT 1
VIEWPOINT 0 0 0 1 0 0 0
POINTS 634
DATA ascii
0.00060590875 -0.06376373 0.0026595888 0.90816486 0.41686094 -0.038255498 0
-0.0056823804 -0.059680786 0.0021677692 -0.4226827 0.90278065 -0.079538792 0
-0.0028215991 -0.058945443 0.0026890887 0.15678856 0.98370343 -0.088005804 0
-0.045331679 -0.040746316 0.0027572038 -0.88600981 -0.45881119 -0.066923231 0
-0.04278994 -0.041072983 0.0022650652 0.2414857 -0.95941037 -0.14565873 0
-0.046492752 -0.037062801 0.0023193564 -0.83439666 -0.48123133 -0.26869825 0
-0.042787638 -0.038701955 0.0023971649 0.24337447 0.96282005 -0.11724509 0
-0.037698612 -0.037641175 0.0025253077 -0.56946081 0.0060187741 -0.82199645 0
-0.033068132 -0.036258526 0.0023340986 0.41779673 -0.89736563 -0.14205891 0
-0.029631196 -0.035116702 0.0017972074 0.43177018 -0.90087628 -0.044681396 0
-0.050164405 -0.030374324 0.0026219245 -0.90899974 -0.41612571 -0.023638431 0
-0.047595013 -0.032800369 0.0024159865 0.37718329 0.34436154 -0.8597371 0
-0.031582009 -0.034235209 0.0023873497 -0.42431891 0.90297157 -0.067792863 0
-0.027482731 -0.03312818 0.0024452647 -0.45410264 0.76038635 -0.46433115 0
-0.022863487 -0.031468447 0.0021820671 0.29068929 -0.93788576 -0.18939371 0
-0.019442173 -0.030327873 0.0024407876 0.42585531 -0.90320396 -0.053571075 0
-0.051262904 -0.026982024 0.0022796693 -0.8807981 -0.40518293 -0.24499281 0
-0.049181171 -0.028063472 0.0025913555 0.90781456 0.41417629 -0.065808095 0
-0.041108642 -0.026006546 0.0033379295 -0.65579349 -0.67001832 -0.34786555 0
-0.037233707 -0.026866537 0.0033321157 0.09558139 0.46230057 -0.88155681 0
-0.033384927 -0.026256287 0.0034061391 0.52780879 -0.70366961 -0.47567528 0
-0.022193287 -0.029515134 0.002421889 -0.25843364 0.96126288 -0.095842659 0
-0.017829269 -0.027409296 0.0025151006 0.63047814 -0.51985127 -0.57641304 0
-0.055003814 -0.020021506 0.0040135207 -0.90517437 -0.42494854 0.0088425456 0
-0.052775607 -0.022463892 0.0023517271 -0.13595217 -0.53558749 -0.83346444 0
-0.042347759 -0.022756441 0.0033295085 0.092507392 0.23384649 -0.96786273 0
-0.031254712 -0.022536512 0.0030918426 -0.082565241 0.1404473 -0.98663956 0
-0.021354269 -0.022185599 0.00250883 -0.83963156 -0.52661508 -0.13302453 0
-0.018876286 -0.022732815 0.0023439047 0.90207595 0.41291663 -0.12553418 0
-0.056101516 -0.017186211 0.0024815979 -0.89062726 -0.42474428 -0.16240482 0
-0.053526785 -0.018003628 0.0026327099 0.82896334 0.5399732 -0.14576937 0
-0.041790307 -0.017766463 0.0032259796 -0.60129678 0.48256227 -0.63684833 0
-0.037726518 -0.015962113 0.0032661417 -0.01737942 -0.92841941 -0.37112701 0
-0.032312922 -0.017459024 0.0030292498 0.43379799 0.21008174 -0.8761763 0
-0.021992665 -0.017461253 0.0025473607 0.62203801 0.29882661 -0.72372043 0
-0.019872611 -0.019856142 0.003391085 0.90334076 0.42856607 -0.017508557 0
-0.056655623 -0.013397092 0.002195176 -0.71324462 0.64961636 -0.26321229 0
-0.052611355 -0.012099359 0.0023046089 -0.50278771 -0.16830622 -0.84786642 0
-0.048249103 -0.011278577 0.0026664699 0.62360293 -0.77026123 -0.13348091 0
-0.037222352 -0.01461343 0.0034504521 -0.073668368 0.98558962 -0.15226968 0
-0.034582883 -0.014792129 0.0038022853 0.35440516 0.93272573 -0.066479862 0
-0.025768535 -0.011668506 0.0023860384 -0.90331727 -0.42632467 -0.047593843 0
-0.02366103 -0.012983923 0.0023329507 0.8981126 0.421821 -0.12434207 0
-0.050223969 -0.0098657887 0.0026455515 -0.42132831 0.90660459 -0.023464192 0
-0.047230043 -0.0088413311 0.002219995 -0.41292286 0.89460033 -0.17083639 0
-0.04250117 -0.0073339678 0.0024001417 0.28891355 -0.6566112 -0.69669986 0
-0.037690643 -0.0061296811 0.002206533 0.19439295 -0.96778196 -0.16002965 0
-0.034666985 -0.0055852295 0.0025619706 0.93089986 -0.35461205 -0.087611489 0
-0.027198665 -0.0074185468 0.0024794377 -0.60395074 -0.11956261 -0.78800273 0
-0.024771368 -0.0093611833 0.0024717324 0.90909958 0.41655335 -0.0046213157 0
-0.037509661 -0.0039847731 0.0023221315 -0.42476225 0.90193647 -0.078023903 0
-0.032575637 -0.0025682212 0.0022563189 -0.27040777 0.71020997 -0.64998573 0
-0.028464107 -0.0028372773 0.0024340535 0.81135809 0.55218601 -0.19180371 0
-0.020005392 -0.095036618 0.0081341453 -0.91229284 -0.40935433 0.012280798 0
-0.01766224 -0.097357139 0.0075093065 -0.79374892 -0.60310364 0.078921594 0
-0.012998488 -0.096694089 0.0074826907 0.44512683 -0.886859 0.12386794 0
-0.0090256184 -0.095630504 0.0076166252 0.41872311 -0.89875096 0.13006848 0
-0.021108672 -0.092267729 0.0074104504 -0.90867704 -0.41744787 0.0065688426 0
-0.018487098 -0.0924422 0.0072868671 0.92142773 0.38442329 -0.05647755 0
-0.011380723 -0.094166487 0.0076459926 -0.31516603 0.94548178 -0.08206486 0
-0.0070230183 -0.093407758 0.0077618207 -0.38530177 0.91625082 -0.10966831 0
-0.0028627405 -0.091755889 0.0075360578 -0.3906219 0.91761827 -0.07342504 0
0.0013800518 -0.090808608 0.0073003001 0.41802901 -0.89990914 0.12415791 0
-0.022385016 -0.087364845 0.0075449962 0.60396081 0.11995045 -0.78793609 0
-0.011452646 -0.085549243 0.0075323698 -0.23977856 -0.97077459 -0.010146902 0
-0.0083819907 -0.085535005 0.0076800445 0.24396396 -0.96944696 -0.025577016 0
-0.0005502174 -0.089678153 0.0082718851 -0.44360405 0.87543601 -0.19190449 0
0.0027579551 -0.088530533 0.0075290762 -0.45489475 0.88072288 -0.13190174 0
0.0072687077 -0.087207258 0.0074701579 -0.058158107 -0.99422169 0.090226613 0
0.010657636 -0.085998669 0.0071648262 0.96636313 -0.24868029 0.065577455 0
-0.02588279 -0.082422443 0.0073764208 -0.90532809 -0.42465901 0.0067629325 0
-0.023740359 -0.083099626 0.0073736375 0.88135344 0.46773094 -0.066662416 0
-0.015955538 -0.081853345 0.0074752062 -0.91793042 -0.3917959 -0.062447611 0
-0.013241096 -0.083170503 0.0076611866 0.69615573 0.71730351 0.029034544 0
-0.0068813819 -0.0833809 0.0076113483 -0.5584079 0.82715857 0.063160598 0
-0.0039346535 -0.081659026 0.0074791973 0.89970493 -0.43450224 -0.041697815 0
0.0049657668 -0.080581084 0.0075411908 -0.99866116 -0.051726881 0.00037430596 0
0.0079341494 -0.082202822 0.0074891476 0.77633756 -0.56773084 -0.27382788 0
0.010275484 -0.084383674 0.0078849951 0.89025068 0.45522395 -0.014995326 0
-0.027211649 -0.077334419 0.0076792287 -0.92892283 -0.36712655 -0.048170269 0
-0.024793211 -0.078040764 0.0077900514 0.99117315 0.12193229 -0.05204102 0
-0.016081087 -0.077593513 0.0074419244 -0.94799644 0.31459039 -0.048328463 0
-0.014356259 -0.076874137 0.007527946 0.90413201 -0.42724651 -0.0023917155 0
-0.0057304348 -0.07593298 0.0074328254 -0.78227997 -0.62282449 0.011302396 0
-0.0035613016 -0.077748902 0.0074748765 0.86178553 0.12722427 -0.49105978 0
0.0043020346 -0.076275885 0.006984591 -0.90202516 -0.42940563 -0.044289093 0
0.0064047482 -0.077988185 0.0076023857 0.71976477 0.69413126 -0.010974543 0
-0.030410644 -0.072349258 0.007201137 -0.99565417 -0.091360137 0.018059263 0
-0.027891982 -0.072349861 0.0073504183 0.75298983 -0.64497316 -0.1304453 0
-0.02314325 -0.070661165 0.0074263429 0.23103851 -0.97116429 -0.058831289 0
-0.015209943 -0.074373648 0.0082821567 -0.87909174 0.43461016 -0.19573362 0
-0.012363892 -0.073363706 0.0073611178 -0.47912836 0.57406354 -0.6639933 0
-0.0078281034 -0.073260278 0.0075162784 0.36936933 0.70462841 -0.60585898 0
-0.0038643344 -0.074462771 0.0080507211 0.58048368 0.72570366 -0.36931416 0
0.0032756964 -0.072160318 0.0075256643 -0.90208739 -0.39290911 -0.17849624 0
0.0054120761 -0.074125759 0.007521437 0.90678751 0.42152849 -0.0070825801 0
-0.026564579 -0.069335714 0.0073654214 -0.41760391 0.90854073 -0.012673344 0
-0.022050638 -0.068006359 0.0073164417 -0.070028655 0.9972946 -0.022349481 0
-0.017900195 -0.06647981 0.0076762741 0.42127457 -0.90321189 -0.082073458 0
-0.014112486 -0.065436445 0.0075855497 0.42785993 -0.90371871 -0.015115198 0
-0.0011753816 -0.066400506 0.0075903605 -0.81913716 -0.57263803 -0.033168457 0
0.0017349694 -0.067882195 0.0076568867 0.93035489 0.36540842 -0.030274052 0
-0.015918862 -0.064382143 0.0073204637 -0.4276731 0.90388703 -0.0091638081 0
-0.012133649 -0.063339688 0.0074090981 -0.45767432 0.88753599 -0.053048242 0
-0.0078283725 -0.062156022 0.0075631132 0.54649502 -0.75016695 -0.37228045 0
-0.0020230636 -0.061994281 0.0073511102 -0.51112336 -0.851524 -0.1168753 0
0.00071567256 -0.063954964 0.0075067659 0.9084636 0.41793966 -0.0045049023 0
-0.0057664327 -0.059659034 0.007585688 -0.4304831 0.90250373 -0.013089353 0
-0.0025739688 -0.058819417 0.0074307616 0.27618816 0.96086675 -0.021337997 0
-0.045346178 -0.040745974 0.0075738309 -0.90040118 -0.43500546 0.0069209035 0
-0.042713523 -0.041154951 0.0076294271 0.2590661 -0.96579462 -0.011206376 0
-0.039965801 -0.040023685 0.0089958478 0.38533515 -0.92222106 -0.032018263 0
-0.046522506 -0.037009031 0.0076540275 -0.84517264 -0.5343684 -0.011559119 0
-0.042908695 -0.038463004 0.0076533938 0.26118484 0.96408486 -0.048196714 0
-0.037615322 -0.037609719 0.0075513651 0.86418915 -0.14440578 -0.48200008 0
-0.032951549 -0.03615313 0.0073655718 0.4243789 -0.90477288 -0.035898291 0
-0.029549973 -0.035152268 0.008058493 0.42123723 -0.90692133 -0.0072790449 0
-0.050199699 -0.030243352 0.0075597167 -0.90793878 -0.41905075 0.0066098985 0
-0.047835525 -0.032625508 0.0074005984 -0.82533264 0.54482645 -0.14829074 0
-0.044913568 -0.034252554 0.0087238513 0.98718834 0.12041578 -0.10468595 0
-0.031701379 -0.034167841 0.0076021641 -0.40637505 0.90571463 -0.12058305 0
-0.027487669 -0.033226095 0.0073004914 -0.48343283 -0.33533362 -0.80860627 0
-0.022862425 -0.031656664 0.0076489695 0.30766866 -0.95139062 -0.013997028 0
-0.01930817 -0.030301984 0.0072066747 0.43247643 -0.90163553 -0.0041848253 0
-0.05130706 -0.026944757 0.0074839504 -0.90027946 -0.43530986 0.0014988425 0
-0.049152665 -0.027909117 0.0075301751 0.89946455 0.43601236 -0.029271131 0
-0.041168842 -0.026336923 0.0074622789 -0.66578847 -0.74321735 -0.065982737 0
-0.037864193 -0.026893007 0.0075220661 0.52348715 -0.77826315 -0.34679621 0
-0.033145379 -0.026469743 0.0076503409 0.6389395 -0.67628324 -0.36660236 0
-0.022533348 -0.029376503 0.0075366022 -0.28003195 0.95860922 -0.051482581 0
-0.017674463 -0.027550813 0.0075231907 0.91813833 -0.3803834 -0.11104266 0
-0.05261644 -0.022418614 0.0076407553 0.50116593 -0.85847354 -0.10888469 0
-0.042391788 -0.022543626 0.0076720077 0.68639743 0.71702421 -0.12138753 0
-0.03130817 -0.022537064 0.0071590785 -0.94607091 0.27139664 -0.17690025 0
-0.029884953 -0.021714369 0.0090485243 0.97040212 -0.023542337 -0.24034446 0
-0.021471467 -0.022494102 0.0076318854 -0.93807298 -0.34197393 -0.055433713 0
-0.018762849 -0.022790184 0.0073180078 0.91783512 0.39679855 -0.011381969 0
-0.056205817 -0.017411249 0.0075401599 -0.90186036 -0.43198746 0.0058992924 0
-0.053173728 -0.017898967 0.0075640725 0.85457277 0.51068872 -0.094352245 0
-0.041755188 -0.017702529 0.007460257 -0.79001868 0.60074449 -0.12237902 0
-0.037673559 -0.016203072 0.007432993 0.10587364 -0.99420702 0.01852514 0
-0.032412063 -0.017347826 0.0075496696 0.28377682 0.31216314 -0.90665597 0
-0.029796479 -0.019162837 0.0095694168 0.92477608 0.070233129 -0.373974 0
-0.022200139 -0.017404743 0.0074561909 -0.84672987 -0.4738709 -0.2418571 0
-0.019894654 -0.019756859 0.0074309977 0.9047721 0.42586607 -0.0050553633 0
-0.056646846 -0.013363906 0.0075582676 -0.66835135 0.73260069 0.12885112 0
-0.052517142 -0.012448154 0.007438425 -0.77697736 -0.62695646 -0.056848031 0
-0.047905769 -0.011340583 0.0075677764 0.56228656 -0.82142353 -0.09537942 0
-0.040902846 -0.014237383 0.0091659063 -0.41998619 0.86489064 -0.27491045 0
-0.037424605 -0.01443348 0.0078065037 -0.08849249 0.98468453 -0.15021798 0
-0.034399692 -0.014720326 0.0076341415 0.41009042 0.89978129 -0.14906155 0
-0.025766242 -0.011736014 0.0075474554 -0.90926862 -0.41609621 -0.009714745 0
-0.023580551 -0.012903511 0.0075892839 0.90561461 0.42378327 -0.016428996 0
-0.046945404 -0.0089539671 0.007437232 -0.41491476 0.90094638 0.12704857 0
-0.042619158 -0.0077349897 0.0074491464 0.37539375 -0.88175952 -0.28562164 0
-0.037855007 -0.0062732133 0.0076920409 0.16038173 -0.98188919 -0.10085303 0
-0.034623805 -0.0058118571 0.0074152164 0.83130598 -0.55378175 -0.047499664 0
-0.027213432 -0.0075011537 0.0074256253 -0.67220467 -0.64778286 -0.35849446 0
-0.024749963 -0.0093915705 0.0070004421 0.90771526 0.41955656 -0.0050294059 0
-0.036863472 -0.0040592342 0.0074435561 -0.41957867 0.89977509 0.11982711 0
-0.032196898 -0.0027789944 0.0076174941 -0.58539802 0.80925959 0.049072612 0
-0.0284435 -0.0027179066 0.007474347 0.75879151 0.65133148 -0.0016523742 0
-0.017683707 -0.097123921 0.012243037 -0.45562339 -0.88831818 -0.057430044 0
-0.012748013 -0.096170932 0.012418623 0.40844363 -0.89531404 0.17772616 0
-0.0096191773 -0.095235161 0.011417548 0.42126405 -0.88538599 0.19654064 0
-0.021022424 -0.092740223 0.012533102 -0.90773541 -0.419462 0.0082407258 0
-0.017469052 -0.091879144 0.01191813 0.44028765 0.54330939 -0.7148158 0
-0.012278373 -0.092705242 0.012637115 0.095773622 0.52379239 -0.8464449 0
-0.0075030616 -0.092804186 0.012371972 0.42864358 -0.40168336 -0.8092683 0
-0.0028166936 -0.091352813 0.012398251 0.42503399 -0.8825146 0.20128107 0
0.00078062143 -0.090290315 0.01176037 0.41636509 -0.88666856 0.20114431 0
-0.022713507 -0.087349825 0.012210582 -0.90312713 -0.38718528 -0.18560435 0
-0.017702337 -0.087421246 0.012730866 0.36098966 -0.075522222 -0.92950672 0
-0.012165876 -0.087058865 0.012997769 0.0044424781 -0.25796619 -0.96614373 0
-0.0076576187 -0.087313652 0.013239577 0.13645856 -0.21895491 -0.96614581 0
-0.0026894964 -0.087854452 0.012773043 -0.45881435 0.14290014 -0.87696582 0
0.0025747933 -0.087928772 0.012172833 0.40699631 -0.78407425 -0.46859527 0
0.007150807 -0.086720288 0.012339433 0.40126106 -0.90446401 0.14468728 0
0.010296133 -0.085680299 0.011709417 0.79133445 -0.58279324 0.18477498 0
-0.025930565 -0.082236238 0.012574256 -0.90537971 -0.42453629 0.0075113988 0
-0.022613924 -0.082523085 0.012242574 0.56711596 0.4272801 -0.70413864 0
-0.017489595 -0.082367964 0.012051647 -0.4768489 -0.26615003 -0.83772266 0
-0.012743373 -0.082711481 0.012401594 0.58195329 0.40016344 -0.70795459 0
-0.0072732144 -0.082721405 0.012780169 -0.46012962 0.2968106 -0.83677006 0
-0.0027967179 -0.082490712 0.011924269 0.17988287 -0.28537241 -0.94138449 0
0.0028933191 -0.082248643 0.012796693 -0.052507244 0.13914041 -0.98887962 0
0.0077719507 -0.082346186 0.011997651 0.57970029 0.383174 -0.71911412 0
0.010321354 -0.084525555 0.012510516 0.96398002 0.26271576 0.041508678 0
-0.027539667 -0.077380612 0.012208547 -0.9365201 -0.3366923 -0.097818024 0
-0.022722373 -0.077682443 0.011952497 0.30732983 -0.1494372 -0.93979627 0
-0.017147403 -0.077749483 0.011558098 -0.26548338 0.0056613022 -0.96409887 0
-0.012907571 -0.077272296 0.013182029 0.54582137 -0.32660693 -0.77162617 0
-0.0070586777 -0.077316158 0.013164427 -0.51731122 -0.32914656 -0.78996938 0
-0.0026475568 -0.078193747 0.011190671 0.15917049 -0.34615585 -0.92457604 0
0.0025030111 -0.077800356 0.01144515 -0.22854018 -0.4383595 -0.86925846 0
0.0068824561 -0.077605799 0.012358715 0.89809585 0.43812847 -0.038305134 0
-0.030338664 -0.072182402 0.012419079 -0.99996656 -0.0035455031 -0.0073685022 0
-0.027912404 -0.072474658 0.012094848 -0.31046283 0.55607551 -0.77096879 0
-0.022337509 -0.072505765 0.012020227 0.16661561 -0.065760344 -0.98382658 0
-0.017389067 -0.072499819 0.011788987 -0.40851846 0.14025559 -0.90190965 0
-0.011919475 -0.072869763 0.011327026 0.30598041 -0.48411322 -0.81976241 0
-0.0079391375 -0.072555788 0.011272673 -0.16171022 -0.22398548 -0.96108282 0
-0.0023183655 -0.072142966 0.011396767 0.28711912 0.35589623 -0.88932586 0
0.0024736444 -0.071887203 0.011835992 0.15555394 0.44419852 -0.88232118 0
0.0053745536 -0.073952593 0.012598512 0.90695339 0.42115825 -0.0078303851 0
-0.026571598 -0.069278903 0.012226957 -0.41743395 0.90867037 -0.0081845298 0
-0.022029934 -0.067795105 0.012518135 -0.31784993 0.94063145 -0.11909653 0
-0.018136201 -0.067192838 0.011877335 -0.51481551 0.22614323 -0.82693666 0
-0.012468187 -0.067156911 0.012064238 0.37121305 0.17048889 -0.91276193 0
-0.0076949564 -0.067233764 0.012179662 -0.20678164 0.21228765 -0.95507866 0
-0.0025997211 -0.067259446 0.011689743 -0.18063127 -0.023194736 -0.98327738 0
0.0020089392 -0.067822702 0.012159561 0.9109121 0.40362462 -0.085594021 0
-0.016170658 -0.064450681 0.012180786 -0.412599 0.91086054 -0.009752728 0
-0.012203246 -0.063476987 0.01243962 -0.39131111 0.87064123 -0.29809293 0
-0.007622513 -0.062287204 0.011987883 -0.13171697 0.3880491 -0.91217792 0
-0.002451851 -0.062431976 0.012203868 -0.063699305 -0.3220847 -0.94456542 0
0.00062648411 -0.063678846 0.012830778 0.90860927 0.41757104 -0.0079686791 0
-0.0058196331 -0.05960035 0.012623907 -0.42831722 0.9035455 -0.012240765 0
-0.0026520661 -0.058733478 0.012714811 0.23088865 0.97291607 -0.011168766 0
-0.045297336 -0.040869154 0.013031279 -0.9085502 -0.41777119 0.0019249651 0
-0.042678766 -0.04123129 0.012466232 0.23693921 -0.971448 -0.012188357 0
-0.039932441 -0.040056337 0.012387173 0.40949434 -0.91223246 -0.012092805 0
-0.046694726 -0.037714012 0.012474625 -0.90734655 -0.42035714 0.0046926341 0
-0.042650599 -0.037180539 0.011355328 0.19615206 0.41576299 -0.88806844 0
-0.037473254 -0.037310377 0.012242177 0.67603219 -0.40642479 -0.61465394 0
-0.032482047 -0.036526129 0.012530903 0.4225454 -0.90608561 -0.02154674 0
-0.029629296 -0.035231836 0.012808986 0.41930997 -0.90774477 -0.013364424 0
-0.050105058 -0.030385673 0.012682137 -0.90847307 -0.41789788 0.0061654528 0
-0.047932841 -0.032379687 0.012458029 -0.89721102 -0.086829633 -0.4329817 0
-0.042781997 -0.032746665 0.012396319 0.19198833 0.31716341 -0.9287346 0
-0.037479382 -0.032989044 0.013113566 -0.22041298 -0.096641108 -0.97060734 0
-0.032726292 -0.032098815 0.011167612 -0.19670722 0.32391781 -0.92540991 0
-0.027459338 -0.032706983 0.012124336 0.30751181 -0.40000981 -0.8633821 0
-0.022622004 -0.031942293 0.012435256 0.41822276 -0.90830749 -0.0082045607 0
-0.019276744 -0.030388495 0.012411841 0.43610743 -0.89971507 -0.017976303 0
-0.051441703 -0.027309379 0.012295825 -0.90492064 -0.42554963 -0.0051095341 0
-0.047633983 -0.027536253 0.012341511 0.57933223 0.041062228 -0.81405652 0
-0.04219795 -0.027125718 0.012214342 -0.37966353 -0.39723116 -0.83550161 0
-0.037669584 -0.027306788 0.011872483 -0.15875684 0.26757705 -0.95036781 0
-0.032738961 -0.027584629 0.011093608 0.069583297 -0.22629 -0.97157139 0
-0.027556537 -0.027622918 0.011654722 -0.0012153347 -0.14911875 -0.98881853 0
-0.02237354 -0.027589647 0.011486113 0.016595164 0.31345209 -0.94945896 0
-0.017580235 -0.027514599 0.012327984 0.93686932 -0.28592101 -0.20130821 0
-0.052716501 -0.022315908 0.012361715 -0.83279043 -0.45404065 -0.31671298 0
-0.047826447 -0.022599367 0.012370235 0.079347707 0.11290108 -0.99043286 0
-0.042516872 -0.022733003 0.012035128 0.54516929 0.30621997 -0.78039718 0
-0.037403561 -0.022557499 0.014296587 0.018311098 0.16803643 -0.98561072 0
-0.032747474 -0.022552565 0.012361602 -0.82269555 0.26746115 -0.50163388 0
-0.027605304 -0.022647742 0.011403209 0.39792451 -0.013454319 -0.91731948 0
-0.022509558 -0.022257674 0.012004973 -0.52796561 0.02178156 -0.84898639 0
-0.018599601 -0.022486206 0.012558825 0.90515333 0.4250167 -0.0076304474 0
-0.056112844 -0.017497102 0.012480049 -0.91997141 -0.39164698 0.016287278 0
-0.052299064 -0.017194001 0.011564701 0.41541976 0.13048358 -0.90022236 0
-0.047389589 -0.017178128 0.012799357 0.17368931 0.10938542 -0.97870672 0
-0.042293832 -0.017818823 0.012056526 -0.10040783 0.062035359 -0.99301052 0
-0.037602756 -0.017192077 0.012916937 0.096748844 -0.76402718 -0.63788879 0
-0.033131819 -0.017616481 0.011913788 -0.64883178 -0.4842025 -0.58699691 0
-0.027767802 -0.017387778 0.011146703 0.20162548 0.070960529 -0.97688878 0
-0.022022231 -0.017676005 0.012083275 0.87910956 0.15927419 -0.4492195 0
-0.019870272 -0.019746143 0.012302909 0.90551448 0.42427674 -0.0057225456 0
-0.05609373 -0.013932722 0.012344529 -0.53256607 0.81439698 0.23050161 0
-0.052450649 -0.01277623 0.012182517 -0.47141123 0.87661892 0.09649238 0
-0.047693402 -0.012158617 0.012726376 0.53396761 -0.18580355 -0.82483673 0
-0.042591218 -0.012318676 0.01326763 0.01049593 -0.090326428 -0.99585694 0
-0.037742976 -0.012502555 0.012438775 -0.30320692 0.70570374 -0.64034969 0
-0.032693073 -0.012744773 0.011785691 0.17488419 0.38598832 -0.90577507 0
-0.027397033 -0.01240076 0.012430361 -0.36838052 0.25415444 -0.89426017 0
-0.023419781 -0.01244412 0.012306181 0.89851177 0.43717489 -0.03943048 0
-0.046395846 -0.0093448823 0.012060408 -0.4119443 0.88631892 0.21151988 0
-0.042216614 -0.0082958704 0.012378734 -0.34621468 0.93294346 0.098751672 0
-0.037684277 -0.0072784144 0.012546004 -0.6283021 -0.34287894 -0.6983341 0
-0.032670647 -0.0073586735 0.011767115 0.12696487 -0.24392636 -0.96144676 0
-0.027143791 -0.0075233914 0.012164148 0.8948698 0.077847078 -0.43948591 0
-0.024704941 -0.0094177648 0.01243785 0.9069469 0.42120165 -0.0060443538 0
-0.035924044 -0.0044667553 0.011965252 -0.41283494 0.88660765 0.20855267 0
-0.032254491 -0.003350232 0.01224028 -0.44815174 0.87650222 0.17579456 0
-0.028153712 -0.0029177209 0.012337213 0.72838581 0.68309945 0.053190928 0
-0.017815452 -0.096491769 0.01767469 -0.17379986 -0.94480383 0.2777395 0
-0.013716114 -0.095588908 0.016780164 0.40640131 -0.86092949 0.30600393 0
-0.021045128 -0.092610955 0.017536042 -0.90927613 -0.41616136 0.0051577515 0
-0.019995388 -0.094893113 0.018788204 -0.91916084 -0.39383036 -0.006403483 0
-0.011542887 -0.0941834 0.017843347 0.39883485 -0.85726202 0.32562643 0
-0.0074544582 -0.092439696 0.017408082 0.40040797 -0.85935378 0.31809527 0
-0.0035207609 -0.09075211 0.017009458 0.40463132 -0.86180186 0.30589372 0
-0.023438152 -0.087465316 0.017392784 -0.90507036 -0.42524141 0.0041612214 0
-0.0020194079 -0.089289702 0.017925996 0.43200105 -0.87325996 0.22537099 0
0.0026136083 -0.087669827 0.017518215 0.4042998 -0.85741895 0.3183935 0
0.006825659 -0.085872598 0.017075296 0.38868943 -0.86564511 0.31556144 0
0.010002597 -0.08500731 0.015165889 0.54969662 -0.79735893 0.24910319 0
-0.026002157 -0.081998065 0.017597253 -0.9058342 -0.42358047 0.0066277324 0
-0.024783546 -0.084595516 0.018116599 -0.90545106 -0.42441526 0.0054861233 0
0.008919158 -0.0826566 0.017900512 0.98918772 0.042866718 0.14025022 0
0.010099441 -0.084356025 0.015699971 0.98028278 -0.10546383 0.16710204 0
-0.028058603 -0.077615097 0.017579788 -0.90407753 -0.42731732 0.0066077048 0
0.0070873424 -0.077528834 0.017549725 0.90557504 0.4241223 -0.0073541366 0
-0.03041558 -0.071960002 0.017691784 -0.99562329 -0.053352244 -0.076732002 0
-0.029348165 -0.071870208 0.017387653 -0.7931329 0.60780931 -0.038833909 0
0.0043353909 -0.071611471 0.017417133 0.90751553 0.4199231 -0.0089551965 0
0.0054524271 -0.07401859 0.017854346 0.90733474 0.42033803 -0.0077146445 0
-0.031936929 -0.067298181 0.019421356 -0.094365686 -0.055766962 -0.99397451 0
-0.026540894 -0.069185019 0.017494585 -0.38640252 0.92200202 -0.024605719 0
-0.022826811 -0.067354396 0.017603761 -0.4118005 0.90405238 -0.11449774 0
-0.018757463 -0.065576978 0.017675562 -0.42140457 0.90679944 -0.01152579 0
0.0024938958 -0.067638159 0.01759701 0.90713561 0.42073226 -0.0094534047 0
-0.035463847 -0.060980514 0.019478215 -0.66407675 -0.31824067 -0.67655373 0
-0.033466384 -0.062928714 0.019456821 0.27408546 0.086332738 -0.9578225 0
-0.016241532 -0.06441427 0.017313084 -0.42085621 0.90704983 -0.011861842 0
-0.012265691 -0.06254945 0.017417332 -0.45452884 0.89017618 -0.031464446 0
-0.0084198359 -0.060708392 0.017309377 -0.37689096 0.92185754 -0.090177789 0
-0.00052414945 -0.061086051 0.017600942 0.91193503 0.41027936 -0.0067289611 0
0.00055927591 -0.063458674 0.017633526 0.90774387 0.41947681 -0.0063404567 0
-0.036418933 -0.057425268 0.019389009 -0.11429525 -0.052044928 -0.9920826 0
-0.034712549 -0.059426323 0.019367699 0.75834149 0.31808364 -0.56898242 0
-0.010170548 -0.059757926 0.019855907 -0.25931901 0.28085709 -0.92405248 0
-0.00607504 -0.059429418 0.017706789 -0.46758392 0.8821466 -0.056415714 0
-0.0030981386 -0.058008179 0.018060144 0.19660486 0.91010135 -0.36477661 0
-0.0403626 -0.050802488 0.01961967 -0.80315548 -0.37170893 -0.4655897 0
-0.038477454 -0.052660454 0.019455185 0.20425795 0.10530341 -0.9732368 0
-0.0060788598 -0.052247766 0.019275693 -0.25350061 -0.17290899 -0.95175624 0
-0.0043966752 -0.053515892 0.01927918 0.64069355 0.29915598 -0.70711917 0
-0.041223932 -0.047180641 0.019443948 -0.12415756 -0.029133119 -0.99183476 0
-0.039163347 -0.049004413 0.019560717 0.61060119 0.22701003 -0.75870454 0
-0.0077334307 -0.047703952 0.019308725 0.11522394 0.073292278 -0.99063194 0
-0.045333132 -0.040656216 0.017471071 -0.89675093 -0.44216606 0.018084595 0
-0.042635255 -0.041787833 0.017741242 0.31204292 -0.91684097 -0.24906176 0
-0.038382199 -0.040254239 0.018881327 0.15128976 -0.86509645 -0.4782463 0
-0.010916007 -0.041923631 0.019265274 -0.50092989 -0.22894302 -0.83465827 0
-0.009129528 -0.043538481 0.019356292 0.71721232 0.33349723 -0.61187094 0
-0.046742816 -0.037580673 0.017365035 -0.90883738 -0.41708145 0.0076009766 0
-0.037209116 -0.038799059 0.017443584 0.42504603 -0.9007439 -0.089422278 0
-0.032697022 -0.036737204 0.017424913 0.4225162 -0.9062525 -0.013649791 0
-0.02965905 -0.035322782 0.017671676 0.42412409 -0.90550947 -0.013087586 0
-0.01271582 -0.037439551 0.019327255 0.032726027 0.0038234203 -0.99945712 0
-0.050131883 -0.030252729 0.01701027 -0.90796053 -0.41898993 0.0074265408 0
-0.048988879 -0.032720745 0.017351041 -0.9074803 -0.42001322 0.008268076 0
-0.037419021 -0.034692891 0.01511662 -0.12699321 -0.77752137 -0.61590034 0
-0.026928369 -0.03404139 0.017637696 0.42450488 -0.90534347 -0.012197116 0
-0.022632858 -0.032225393 0.017749488 0.41067979 -0.89968616 -0.14800985 0
-0.017761758 -0.030939512 0.018349791 0.11579296 -0.93822879 -0.32606554 0
-0.014197307 -0.033118334 0.019268822 0.50643128 0.23461862 -0.8297478 0
-0.051315524 -0.027690712 0.017792 -0.90701437 -0.42107484 0.0045645591 0
-0.016679553 -0.027806649 0.017623661 0.99335182 -0.06279324 -0.096483871 0
-0.053719305 -0.022524154 0.017597754 -0.90658009 -0.42201766 0.003696302 0
-0.018641517 -0.022294929 0.017561415 0.90517598 0.42498577 -0.006597226 0
-0.055888575 -0.017524347 0.017545821 -0.97187907 -0.2199146 0.084194072 0
-0.05440753 -0.017184939 0.018468205 -0.83798862 0.46457285 0.28626394 0
-0.021115167 -0.017003907 0.017444596 0.90629011 0.42256945 -0.0085631814 0
-0.019879077 -0.019659229 0.017317189 0.90580148 0.42366365 -0.0057232589 0
-0.055597212 -0.014685326 0.015946876 -0.42923018 0.85528302 0.29026297 0
-0.052182358 -0.013726036 0.017631516 -0.39552733 0.85951227 0.32372329 0
-0.047530595 -0.011563155 0.017598592 -0.39935827 0.85849661 0.32170892 0
-0.044001002 -0.010413617 0.018887464 -0.39384061 0.85369366 0.34072959 0
-0.03905835 -0.010215973 0.015389408 0.018002035 0.84164393 -0.53973275 0
-0.02771271 -0.010314099 0.015054401 0.46900788 0.56703562 -0.67712796 0
-0.023243774 -0.012454177 0.017514588 0.90559995 0.42404109 -0.0088284127 0
-0.045485444 -0.0099037727 0.015656019 -0.39953867 0.86928225 0.29106227 0
-0.041977059 -0.0089086136 0.017389283 -0.40087572 0.85855728 0.31965306 0
-0.037609585 -0.0074216914 0.01700598 -0.46483657 0.85786104 0.21909209 0
-0.033786267 -0.0055608815 0.018531343 -0.39201072 0.8526783 0.34535086 0
-0.025932398 -0.0067970329 0.017643768 0.91692191 0.39887789 -0.012272439 0
-0.024684541 -0.0093722781 0.017491505 0.90662253 0.42185593 -0.0085515101 0
-0.035069279 -0.0049009682 0.015050085 -0.41386858 0.86496997 0.2837953 0
-0.031807899 -0.0041472083 0.017214214 -0.40214142 0.85914832 0.3164593 0
-0.027968954 -0.0035085354 0.017244235 0.52826041 0.82939863 0.18176612 0
-0.01824558 -0.095577098 0.021384144 0.070665009 -0.92337823 0.37733138 0
-0.021174414 -0.092301205 0.02238315 -0.90864152 -0.41757435 0.001493634 0
-0.016544532 -0.094100766 0.023162706 0.36075637 -0.82530141 0.4344334 0
-0.012350922 -0.092501871 0.022480121 0.38299736 -0.82435089 0.41684368 0
-0.0080303391 -0.090863965 0.021748796 0.38852057 -0.83029336 0.39958066 0
-0.004627198 -0.090030044 0.02013872 0.38497698 -0.83838272 0.38588494 0
-0.023399154 -0.087508298 0.022471219 -0.90630674 -0.42259353 0.0047700056 0
-0.0064295097 -0.089298017 0.023365382 0.38359311 -0.81464821 0.43497664 0
-0.0028786757 -0.088181809 0.022266386 0.38711995 -0.82309806 0.4155091 0
0.0019480692 -0.086021811 0.022034502 0.39123523 -0.82395118 0.40992621 0
0.0053816349 -0.085189305 0.020428175 0.39127013 -0.84130716 0.37297449 0
-0.025995942 -0.081933707 0.02262854 -0.90621608 -0.42276365 0.0065795109 0
-0.024811152 -0.084479824 0.022310754 -0.90657336 -0.42200559 0.006003357 0
0.0034396111 -0.084278755 0.024012001 0.3801595 -0.80792677 0.450259 0
0.0077521079 -0.082673281 0.022253487 0.76736093 -0.52643818 0.36608779 0
-0.028176915 -0.077277385 0.022532906 -0.90478468 -0.4257763 0.0089035193 0
0.0071885646 -0.077677928 0.022405963 0.90463573 0.42614678 -0.0057424852 0
-0.030849492 -0.071571745 0.022578098 -0.90695524 -0.4211235 0.0093380995 0
-0.029490117 -0.073213756 0.022215486 -0.98515642 -0.17157495 -0.0053725848 0
0.0043263817 -0.071515583 0.022466263 0.90741438 0.42021203 -0.0045872941 0
0.005496019 -0.074038386 0.022688389 0.90743148 0.42016619 -0.0053348397 0
-0.031909134 -0.067300782 0.022491043 -0.82079035 -0.5626176 -0.098816298 0
-0.026779892 -0.068396494 0.022587912 -0.52966106 0.8442899 -0.081447907 0
-0.022877239 -0.06644053 0.022573315 0.12285019 0.99050927 -0.061637968 0
-0.018876469 -0.065580256 0.022283997 -0.4233962 0.90587163 -0.011499519 0
0.0025032901 -0.067579687 0.022442739 0.90730476 0.42046085 -0.0032665327 0
-0.035576131 -0.061372176 0.02243067 -0.90652639 -0.42211232 0.0055837366 0
-0.033078767 -0.062680058 0.02272095 0.79477596 0.5961504 -0.11373576 0
-0.024647564 -0.064994298 0.022813091 0.36654574 0.92855346 -0.058589477 0
-0.016265599 -0.064359069 0.022563457 -0.42199433 0.90651673 -0.012178735 0
-0.012198359 -0.062251914 0.02244851 -0.65336633 0.75687867 -0.015722586 0
-0.0077932035 -0.060237274 0.02195696 -0.10748905 0.99024928 -0.0886143 0
-0.00051597587 -0.061043326 0.022715513 0.90840495 0.41809103 -0.00060196372 0
0.0006641263 -0.063609049 0.022611793 0.90721661 0.42063919 -0.0045443033 0
-0.036743436 -0.057212315 0.022445127 -0.90432543 -0.42596668 -0.027346626 0
-0.034575976 -0.058940079 0.022548975 0.90775251 0.41699511 -0.045830209 0
-0.026388073 -0.055915821 0.022828367 -0.48023307 -0.86448783 -0.14844902 0
-0.022685168 -0.056132562 0.022927038 0.088637672 -0.62386143 -0.7764923 0
-0.01906446 -0.055751611 0.023220457 0.62830925 -0.75092572 -0.20331781 0
-0.010572397 -0.058964279 0.022764806 -0.89134258 0.42356548 -0.1615568 0
-0.0072754715 -0.058542762 0.022879412 -0.087697633 0.97792375 -0.18966879 0
-0.0029471049 -0.057521354 0.022504959 0.73357415 0.67950594 -0.011858504 0
-0.040439017 -0.050955467 0.022322118 -0.90498281 -0.42544273 -0.0021342768 0
-0.038259566 -0.052948393 0.022499138 0.91522878 0.39792714 -0.06332732 0
-0.030007487 -0.050155114 0.023147738 -0.995408 -0.094587989 0.014696298 0
-0.028069237 -0.052828901 0.022783415 0.2933079 0.63468385 -0.71494532 0
-0.021254437 -0.054701529 0.023043517 -0.36798561 0.91053194 -0.1884627 0
-0.017949326 -0.052382868 0.022844676 0.22696877 -0.021639097 -0.97366166 0
-0.0067837057 -0.052174143 0.022543162 -0.84201211 -0.53589469 -0.06190737 0
-0.0041919039 -0.05316693 0.0223943 0.90523738 0.42488489 -0.0042595523 0
-0.041657776 -0.047077913 0.022530949 -0.92864966 -0.37092796 -0.0047103371 0
-0.038763504 -0.048318263 0.022412812 0.93212026 0.3530874 -0.080504902 0
-0.030038195 -0.049667645 0.022568785 -0.99990237 -0.013594258 0.0032182198 0
-0.028144717 -0.047376271 0.022664521 0.54564643 -0.54631418 -0.63546109 0
-0.021543629 -0.045389615 0.023066897 -0.35821989 -0.92874962 -0.095407963 0
-0.01785896 -0.04757183 0.022668052 0.70484179 0.18822654 -0.68393624 0
-0.010064096 -0.045120258 0.024014084 -0.89385444 -0.44654536 -0.040268131 0
-0.0078773182 -0.047455676 0.022482358 0.73829895 0.66410577 -0.11780593 0
-0.045289021 -0.04059856 0.022486245 -0.90676367 -0.42143562 0.013106911 0
-0.042764835 -0.042575765 0.022499122 0.011492401 -0.99844319 -0.054581102 0
-0.036790684 -0.040975146 0.022684203 -0.3402001 -0.92925227 -0.14406294 0
-0.026585521 -0.044254221 0.022796553 -0.40167966 0.90829718 -0.11683208 0
-0.022876704 -0.043945134 0.022624537 0.098388024 0.77073914 -0.62950855 0
-0.019353874 -0.044523872 0.022964658 0.57554835 0.81240654 -0.093486689 0
-0.011009402 -0.042456679 0.022499053 -0.90244251 -0.43050152 -0.01630423 0
-0.0091542751 -0.042596959 0.022570141 0.90669501 0.42175916 -0.0048398254 0
-0.04678607 -0.037373576 0.022366595 -0.90716755 -0.42064101 0.010400589 0
-0.03679125 -0.039152622 0.022439685 0.64140654 -0.76500833 -0.057963964 0
-0.032609727 -0.036760207 0.022610877 0.42337066 -0.90591782 -0.0083831167 0
-0.02947708 -0.035304684 0.022816921 0.42440933 -0.9054116 -0.010326175 0
-0.021828139 -0.035120465 0.023118151 0.044837438 -0.99733317 -0.057585899 0
-0.015109326 -0.036858346 0.022851089 -0.99895036 0.033402972 -0.031343263 0
-0.012838962 -0.037507385 0.022408731 0.73181289 -0.5436734 -0.4109368 0
-0.050043661 -0.030363571 0.022223238 -0.90665931 -0.42179751 0.0074725188 0
-0.04898183 -0.032640688 0.022504792 -0.90672636 -0.42164463 0.0079385126 0
-0.026885841 -0.034080751 0.02235168 0.41351101 -0.91042095 -0.011929874 0
-0.022229442 -0.033186235 0.022189001 0.39830649 -0.90549451 -0.14639542 0
-0.016922325 -0.031629991 0.02268059 -0.68051714 -0.73271239 0.0053897174 0
-0.013747561 -0.032980822 0.022473807 0.90299577 0.42962176 -0.0048784036 0
-0.051372398 -0.027498661 0.02263156 -0.90680778 -0.4214808 0.0073136911 0
-0.016359871 -0.027717697 0.022373848 0.94734514 0.32018474 -0.0043485486 0
-0.053770486 -0.022356248 0.022606583 -0.90500891 -0.42535704 0.005490426 0
-0.018539321 -0.022451244 0.022494711 0.90504992 0.42529374 -0.0031546601 0
-0.055482939 -0.018121691 0.021741003 -0.98285204 -0.034761861 0.18108961 0
-0.052887224 -0.016339879 0.022673212 -0.40512359 0.8106814 0.42269427 0
-0.049214572 -0.015423339 0.024298087 -0.37444779 0.81140131 0.44879478 0
-0.021077337 -0.017009424 0.022659674 0.90671021 0.42173839 -0.0036341907 0
-0.019817391 -0.019721605 0.022730339 0.9068864 0.42135248 -0.0043770475 0
-0.051206198 -0.014567617 0.020785971 -0.3878085 0.83932972 0.38095957 0
-0.047332108 -0.013582517 0.02242564 -0.38308913 0.82500023 0.41547245 0
-0.042856727 -0.01160529 0.022621676 -0.38325077 0.82302588 0.41922235 0
-0.038985707 -0.010551165 0.024073839 -0.37524879 0.81318063 0.44488823 0
-0.023125965 -0.012627559 0.022418782 0.90540093 0.42453772 -0.004107967 0
-0.04066623 -0.0095836353 0.020626441 -0.38996419 0.83999872 0.37726656 0
-0.036984161 -0.0087180967 0.022269281 -0.3766323 0.83007449 0.41124731 0
-0.032589074 -0.0068029431 0.022449864 -0.380418 0.82439959 0.41910324 0
-0.026663251 -0.0065123904 0.022964217 0.66705358 0.72221267 0.18288887 0
-0.024634289 -0.0094071198 0.022592789 0.90651655 0.42214853 -0.0042972416 0
-0.03000579 -0.004486748 0.020168681 -0.3908723 0.8406859 0.37478802 0
-0.028180137 -0.0043703937 0.021189854 -0.01634394 0.93065429 0.36553445 0
-0.021317611 -0.091768928 0.027392941 -0.81686455 -0.56626707 0.10988057 0
-0.017550325 -0.092053182 0.02738701 0.34181449 -0.78187031 0.52138424 0
-0.012995481 -0.090713412 0.026216004 0.3646563 -0.79087037 0.49147728 0
-0.023415038 -0.087407 0.027559359 -0.90730178 -0.42043805 0.005951013 0
-0.015717551 -0.089756213 0.029472239 0.34616259 -0.75941277 0.55087531 0
-0.011917573 -0.088830441 0.028299093 0.3546336 -0.76560205 0.53673881 0
-0.0074466229 -0.087362103 0.02736905 0.3664597 -0.77298033 0.51788861 0
-0.0032515037 -0.085800827 0.026741143 0.36902726 -0.78022599 0.50504088 0
0.00023626492 -0.085183404 0.025103409 0.37970352 -0.79864579 0.46689421 0
-0.025944311 -0.081968553 0.027541758 -0.90649778 -0.42215815 0.0066550062 0
-0.024789354 -0.084457487 0.027097214 -0.906699 -0.42172211 0.0068750349 0
-0.005662973 -0.084869325 0.02971207 0.34723392 -0.74125952 0.57442403 0
-0.0018406303 -0.083976097 0.028459933 0.35954395 -0.76204562 0.53853005 0
0.0025979648 -0.082475387 0.027558306 0.36681905 -0.77082777 0.52083427 0
0.0066435472 -0.081176348 0.026577594 0.460062 -0.73270911 0.5014782 0
-0.027898507 -0.077775873 0.027641499 -0.90620428 -0.4227871 0.0067005437 0
0.0069504022 -0.077677205 0.027535817 0.96572256 0.22795902 0.12415561 0
-0.030880522 -0.071392924 0.027445108 -0.90636665 -0.42239031 0.0092662694 0
-0.02952553 -0.074290283 0.027690992 -0.90597403 -0.42324793 0.0084975641 0
0.0043013925 -0.071402311 0.027550563 0.90676367 0.42160523 -0.0053525358 0
0.0054984773 -0.073980764 0.02747174 0.90699995 0.42108196 -0.0064051598 0
-0.0319819 -0.067192592 0.02750751 -0.89820123 -0.42742297 -0.10268453 0
-0.027478375 -0.067409612 0.027037589 -0.50121999 0.56561536 -0.65487236 0
-0.022321334 -0.066294 0.027522782 0.14343575 0.98160994 -0.12596841 0
-0.019015331 -0.065500781 0.026778461 -0.43400437 0.8901481 -0.13883972 0
0.0024404665 -0.067404121 0.02750878 0.90678 0.42157629 -0.004845168 0
-0.035616897 -0.061191212 0.027433032 -0.90672743 -0.42165476 0.007249983 0
-0.032667667 -0.062763222 0.027563373 0.50097799 0.11027866 -0.85840535 0
-0.027520409 -0.06270998 0.029151073 0.087282009 0.13986152 -0.98631668 0
-0.022672001 -0.063433059 0.029148988 0.1435428 0.54600918 -0.82539052 0
-0.017364858 -0.062871404 0.028336683 -0.30358115 0.49860594 -0.81193024 0
-0.012363461 -0.061823826 0.027593782 -0.53635454 0.78147411 -0.31878194 0
-0.00041935526 -0.061243672 0.027640309 0.90705371 0.42100704 -0.0025921706 0
0.00066822325 -0.063585848 0.027744088 0.9070639 0.42098302 -0.0028711972 0
-0.036804508 -0.057309274 0.027218867 -0.90593541 -0.39941496 -0.14052995 0
-0.032783013 -0.057852332 0.027917869 0.45678449 0.080898441 -0.88589132 0
-0.027357772 -0.056871638 0.028094651 -0.12423558 -0.65509409 -0.74526322 0
-0.022406749 -0.057043593 0.027769467 -0.1143057 -0.95232296 -0.28286949 0
-0.017750807 -0.057323597 0.02861399 0.23116744 -0.27368829 -0.93362534 0
-0.012133141 -0.057581834 0.028469503 -0.41893929 -0.031510472 -0.90746731 0
-0.0073456564 -0.057507217 0.027447576 0.071408786 0.78390592 -0.61675954 0
-0.0028457257 -0.057245288 0.027235612 0.82312375 0.56057173 -0.090700448 0
-0.040427968 -0.050872639 0.027612694 -0.90591288 -0.42337906 0.0084839659 0
-0.037733387 -0.052634366 0.027416037 0.45014733 0.38447121 -0.80594611 0
-0.032182552 -0.052314483 0.028348383 -0.23725316 0.098152898 -0.96647656 0
-0.027854204 -0.052944291 0.027217774 0.67392528 0.69300115 -0.25607446 0
-0.022411603 -0.054139048 0.027717765 -0.14600267 0.93188101 -0.33208594 0
-0.017647576 -0.052465979 0.027312076 0.040516991 -0.21523796 -0.97572082 0
-0.012395211 -0.052728176 0.028769271 0.14588703 -0.066006474 -0.98709679 0
-0.0073487689 -0.052415624 0.027807718 -0.71347946 -0.50541002 -0.48529142 0
-0.00409644 -0.053342 0.02740219 0.906569 0.42203578 -0.0042816442 0
-0.041602828 -0.047046535 0.027213594 -0.9288137 -0.3705247 -0.0040708468 0
-0.037781537 -0.048001073 0.028270125 0.63367957 0.4393408 -0.63673377 0
-0.032393686 -0.047863621 0.029193744 -0.19683725 0.21096636 -0.95746976 0
-0.028041715 -0.047041979 0.027521264 0.55680227 0.17183782 -0.81267637 0
-0.022563091 -0.045373585 0.027598841 -0.13121782 -0.98321766 -0.12674756 0
-0.017864181 -0.047620323 0.027081672 -0.65005094 -0.2930243 -0.70112091 0
-0.012566008 -0.047274224 0.028342266 0.1684556 0.013272355 -0.9856199 0
-0.0078756744 -0.047618847 0.02741476 0.7381373 0.29483983 -0.60681361 0
-0.045207076 -0.040641151 0.027500948 -0.90647238 -0.42214587 0.010036081 0
-0.042509053 -0.042533267 0.027405143 0.090627082 -0.9824658 -0.16293466 0
-0.037240289 -0.041358165 0.027652953 0.068383552 -0.8668893 -0.49378815 0
-0.030258711 -0.044479668 0.029929485 -0.096778214 0.34491515 -0.93363136 0
-0.026380217 -0.044263069 0.028283101 -0.57498193 0.57866383 -0.57839781 0
-0.022348575 -0.043227367 0.027402276 -0.12974422 0.9408896 -0.31287906 0
-0.017724058 -0.042650364 0.028268384 0.17053062 0.53722125 -0.82602215 0
-0.012119791 -0.042556893 0.027781732 -0.71195799 -0.17399661 -0.68032414 0
-0.0089567779 -0.042934071 0.027642101 0.90649647 0.42216122 -0.0066406676 0
-0.046657991 -0.037531309 0.027395595 -0.90642107 -0.42226851 0.0094998144 0
-0.036162533 -0.039029345 0.027115688 0.91424483 -0.40372804 -0.034060076 0
-0.032576431 -0.03679153 0.027446805 0.42374977 -0.90571123 -0.011107924 0
-0.029387994 -0.035334151 0.02810587 0.42410851 -0.90549773 -0.014346637 0
-0.021537809 -0.035427563 0.02791016 -0.19551225 -0.9470464 -0.25471178 0
-0.016372889 -0.037589401 0.028706096 -0.62151545 0.068951719 -0.78036165 0
-0.01244024 -0.037942752 0.027461469 0.96446908 -0.12926215 -0.23041423 0
-0.050097704 -0.030143524 0.027378643 -0.90642315 -0.42227671 0.0089103123 0
-0.048884265 -0.032749142 0.027366215 -0.90654671 -0.42200732 0.0091067655 0
-0.026963303 -0.034178257 0.027575308 0.4158797 -0.90932369 -0.013216168 0
-0.022273209 -0.033328343 0.02721878 0.2983914 -0.92636973 -0.2297862 0
-0.017139306 -0.031928081 0.027538126 -0.60545033 -0.7844463 -0.13443932 0
-0.013847086 -0.032654721 0.027175736 0.90303284 0.42953068 -0.0059217601 0
-0.0513805 -0.02739409 0.027542889 -0.90566009 -0.42394787 0.0069284653 0
-0.01613282 -0.02756523 0.027375 0.90637225 0.42247272 -0.0024959117 0
-0.053361315 -0.022694128 0.027616408 -0.95228738 -0.28877556 0.098780215 0
-0.018441165 -0.022624508 0.027400263 0.90589905 0.42347732 -0.0037290801 0
-0.055026434 -0.019409679 0.025064416 -0.97500157 -0.189558 0.1159301 0
-0.052261792 -0.018657286 0.027200947 -0.42072994 0.75258595 0.50655764 0
-0.047780894 -0.016976705 0.027849855 -0.35841787 0.77196145 0.52498776 0
-0.043571565 -0.015938746 0.029181529 -0.34756562 0.7568875 0.55346137 0
-0.020976594 -0.017181693 0.027448867 0.90665346 0.42185465 -0.0042635733 0
-0.019815033 -0.019674379 0.028242445 0.90659159 0.42199621 -0.0032952765 0
-0.046040498 -0.014730194 0.02564561 -0.37422368 0.79229802 0.48189265 0
-0.041763484 -0.013691938 0.027114233 -0.35733375 0.78019357 0.51343006 0
-0.03756969 -0.01208734 0.027592121 -0.35600287 0.77486789 0.5223425 0
-0.033251438 -0.010804229 0.028607184 -0.34696841 0.76824981 0.53796399 0
-0.029824723 -0.010060811 0.029769011 -0.3512283 0.75299942 0.55644464 0
-0.023088166 -0.012659166 0.027680356 0.90714175 0.42078424 -0.0058726696 0
-0.035426851 -0.0097142681 0.025438821 -0.36430979 0.79288238 0.48848322 0
-0.032079905 -0.0089101754 0.026584318 -0.36183867 0.78518051 0.50255781 0
-0.027010433 -0.007667901 0.027312571 0.13136703 0.88251591 0.45156223 0
-0.02471316 -0.0091352249 0.027425302 0.8925932 0.45079949 0.0075641349 0
-0.021034159 -0.090667874 0.031172823 -0.087393031 -0.84111464 0.53374958 0
-0.018854836 -0.090388581 0.030591564 0.37407443 -0.74031359 0.55857319 0
-0.022757201 -0.087722942 0.032621533 -0.71919346 -0.65015984 0.24505703 0
-0.017428808 -0.087852992 0.032797698 0.3318885 -0.70971352 0.62141508 0
-0.012852795 -0.086516216 0.03188061 0.33851632 -0.72056717 0.6051361 0
-0.0086175185 -0.085548893 0.030634789 0.34806696 -0.73423344 0.58288133 0
-0.025810968 -0.082182653 0.032385189 -0.90635914 -0.42247146 0.0055702925 0
-0.024722425 -0.08451312 0.032569971 -0.90604383 -0.42315251 0.005142265 0
-0.011795216 -0.084108144 0.034051616 0.32531118 -0.68763191 0.64910328 0
-0.007194858 -0.083004564 0.032828383 0.3339445 -0.70649815 0.6239723 0
-0.00276535 -0.08179763 0.031812124 0.33880073 -0.72114861 0.60428363 0
0.0013784358 -0.080641121 0.030875372 0.34508991 -0.73117709 0.58846664 0
-0.027976071 -0.077538453 0.032492992 -0.90637088 -0.42245346 0.0049803918 0
-0.002033795 -0.079299353 0.034256812 0.32490632 -0.68640244 0.6506055 0
0.0026561883 -0.078216501 0.032986574 0.32897621 -0.70323235 0.63026887 0
0.0061150161 -0.076884672 0.031774469 0.82376748 -0.299739 0.48121047 0
-0.030725524 -0.071621813 0.03231997 -0.905635 -0.42399845 0.0071184421 0
-0.029649923 -0.073938109 0.032153703 -0.90787941 -0.41918486 0.0062358556 0
0.0043210802 -0.071394168 0.032392852 0.90661359 0.42193988 -0.0042866413 0
0.0054865675 -0.073886581 0.032306701 0.912054 0.41001952 0.0064353785 0
-0.032431383 -0.067537718 0.032293573 -0.90691197 -0.41957802 -0.038274091 0
-0.029513516 -0.066571027 0.030320883 -0.62710184 0.27966964 -0.7269994 0
-0.022635452 -0.066056825 0.032397117 -0.04029464 0.96417689 -0.26218149 0
0.0024744917 -0.067413792 0.032608423 0.90632445 0.42254883 -0.0053459806 0
-0.035592675 -0.061162252 0.032763742 -0.906537 -0.4220838 0.0059986138 0
-0.034430552 -0.063662648 0.032391045 -0.90617269 -0.42284477 0.0073062275 0
-0.0250358 -0.06042745 0.030022312 0.16745977 0.20266519 -0.96482337 0
-0.022750612 -0.063195631 0.03123828 0.023780484 -0.50000113 -0.86569816 0
-0.011289588 -0.060917463 0.030868823 -0.17212683 0.4203099 -0.89090508 0
-0.00048636593 -0.061059132 0.032500945 0.90708768 0.4209173 -0.0045337952 0
0.00063706044 -0.063476592 0.032680701 0.90665674 0.42183432 -0.0054023918 0
-0.037380449 -0.057325512 0.03254677 -0.90654135 -0.42209035 0.0047599426 0
-0.025396239 -0.058234043 0.030234009 0.40228271 -0.074710831 -0.912462 0
-0.023440469 -0.058601439 0.030361284 -0.084064424 -0.070007317 -0.99399805 0
-0.012118764 -0.059515189 0.030340588 0.038220197 -0.67664313 -0.73531854 0
-0.0059638866 -0.056008887 0.031060833 0.22641176 0.41161191 -0.88278723 0
-0.0022471102 -0.057452034 0.032805309 0.90075147 0.4342674 -0.0076469681 0
-0.040345311 -0.050967392 0.032360084 -0.9065221 -0.42212263 0.0054975976 0
-0.039173935 -0.053477924 0.032438379 -0.90619421 -0.42283404 0.0048489827 0
-0.026368612 -0.052036263 0.030626692 0.065740809 0.183562 -0.98080736 0
-0.022343926 -0.05162124 0.03060353 0.081053331 0.28315094 -0.95564419 0
-0.019215334 -0.051960886 0.030760249 -0.46207082 0.16287948 -0.87175739 0
-0.0058711027 -0.052092984 0.031687226 0.89329809 0.24309067 -0.3780548 0
-0.0040450785 -0.053390194 0.03260171 0.90627521 0.42265683 -0.0051556095 0
-0.041807279 -0.047423683 0.03237405 -0.91623008 -0.39998242 -0.02316037 0
-0.038167715 -0.046018142 0.030359711 -0.19555493 0.29895788 -0.93401414 0
-0.026218923 -0.04905545 0.030505477 0.097582407 -0.28808177 -0.95262086 0
-0.021959053 -0.047574833 0.030960334 0.17106099 -0.20293823 -0.96413392 0
-0.019168368 -0.048050497 0.030870805 -0.814421 -0.11549417 -0.56866467 0
-0.0067034462 -0.047695111 0.032309335 0.90643525 0.42228761 -0.0069456953 0
-0.045175456 -0.040592343 0.032735229 -0.90647137 -0.42219964 0.0075602699 0
-0.042766228 -0.04293897 0.031915899 -0.80318844 -0.53039396 -0.27123898 0
-0.036881689 -0.042502191 0.031314377 0.36443949 0.15891246 -0.91756779 0
-0.03281771 -0.04217381 0.031633772 -0.11942087 0.57995099 -0.8058508 0
-0.027917324 -0.041700479 0.030855441 -0.072472088 0.42250237 -0.90345973 0
-0.023370767 -0.04110666 0.030614505 -0.23528314 0.39734069 -0.88699615 0
-0.010148183 -0.040295754 0.032734685 0.90662313 0.42187378 -0.0075564953 0
-0.009008578 -0.042753007 0.032429103 0.90652567 0.42208344 -0.0075396849 0
-0.046607982 -0.037529342 0.032212351 -0.90655559 -0.4220022 0.0084349532 0
-0.035626441 -0.039074849 0.031957962 0.86461061 -0.44444028 -0.23435304 0
-0.032717042 -0.038165826 0.032031104 -0.06951873 -0.67768383 -0.73205996 0
-0.027479704 -0.037438642 0.032426048 0.46847519 0.021181764 -0.8832227 0
-0.022733619 -0.037515149 0.032347869 -0.65446645 0.34659946 -0.67196923 0
-0.017551156 -0.036669567 0.030389028 -0.021521717 0.30710384 -0.95143265 0
-0.011774772 -0.037515707 0.032369602 0.89910185 0.42395905 -0.1089711 0
-0.050037626 -0.030174309 0.03258916 -0.90619928 -0.4228158 0.0054542194 0
-0.048856951 -0.032702729 0.032293357 -0.90582526 -0.42357442 0.008081967 0
-0.026422242 -0.034166522 0.031590473 0.42236966 -0.87277097 -0.24469319 0
-0.023494838 -0.033847157 0.032441538 -0.44271994 -0.86407727 -0.23951943 0
