# .PCD v0.7 - Point Cloud Data file format
VERSION 0.7
FIELDS x y z
SIZE 4 4 4
TYPE F F F
COUNT 1 1 1
WIDTH 196
HEIGHT 1
VIEWPOINT 0 0 0 1 0 0 0
POINTS 196
DATA ascii
0.0034350301 -0.072386608 -3.5571156e-05
-0.022254948 -0.068213843 -1.7753062e-05
-0.016177798 -0.065229118 -3.0367803e-05
0.0018374036 -0.068333484 -2.5233065e-05
-0.032833282 -0.035645969 -1.2870119e-05
-0.053086761 -0.021418691 -9.0294525e-06
-0.055360958 -0.016390499 -3.1262465e-05
-0.02478029 -0.011004425 -4.1788197e-05
-0.027016709 -0.0077202893 -7.1144721e-05
-0.02101795 -0.092260942 0.0048447112
-0.015685653 -0.095828749 0.0049616541
-0.0051258421 -0.093036689 0.0047865552
0.001680706 -0.09078563 0.0042667328
-0.023586912 -0.085015863 0.0049159066
-0.013469029 -0.083084404 0.0062630204
-0.0059066643 -0.083456457 0.0062402235
0.0063515366 -0.085721776 0.0047801971
0.010454271 -0.085903227 0.0060174279
-0.030280782 -0.072318904 0.0060030837
-0.026935475 -0.074467622 0.0047665313
-0.01369531 -0.07583487 0.0061630849
-0.0056122672 -0.075799607 0.0063003004
0.004661975 -0.075021297 0.0049713203
-0.023103211 -0.068387367 0.0048534367
-0.014959376 -0.064957865 0.0049034492
-0.004572581 -0.062715739 0.0048037609
0.0014603016 -0.066799015 0.0047887885
-0.0032848858 -0.059028782 0.0050068172
-0.0433046 -0.040981777 0.0049754013
-0.050153617 -0.030335449 0.0051409486
-0.04588655 -0.035482388 0.0046453979
-0.034982588 -0.036564399 0.0048163086
-0.025746087 -0.032517381 0.0047101467
-0.019418802 -0.030288614 0.0062608179
-0.052086681 -0.024196843 0.0047148801
-0.044350885 -0.024675604 0.0060715782
-0.034505326 -0.024842948 0.0059262337
-0.022207173 -0.025136787 0.0057214955
-0.018104825 -0.025830965 0.004244165
-0.054092199 -0.014992042 0.00466051
-0.044625256 -0.014702466 0.0062523838
-0.035016138 -0.016439062 0.0061923647
-0.02345152 -0.015075785 0.0048420504
-0.01989034 -0.019783918 0.0050968817
-0.05011845 -0.0099453731 0.0037740995
-0.044086412 -0.0080667827 0.004553502
-0.034960017 -0.0042792144 0.0050927685
-0.027585702 -0.0058519593 0.0047304491
-0.021144534 -0.092471913 0.014955066
-0.015155273 -0.09520521 0.014090926
-0.0058675315 -0.092094213 0.014118589
0.00071742345 -0.090353087 0.01146113
-0.023958774 -0.084633864 0.014202823
-0.01476201 -0.084757335 0.012459805
-0.0044342848 -0.085324861 0.01320898
0.0054059732 -0.085127734 0.014245289
0.010375805 -0.084752984 0.012506858
-0.030463047 -0.071841329 0.015493269
-0.026222492 -0.07509087 0.013590619
-0.015045737 -0.07535053 0.011877572
-0.0051018163 -0.075244799 0.011674929
0.0048469682 -0.075147144 0.014028344
-0.03294836 -0.065739185 0.019298397
-0.024089931 -0.068190336 0.015027732
-0.014697431 -0.065121256 0.013823977
-0.0051917252 -0.064112343 0.012833979
0.0017565226 -0.066351369 0.014810961
-0.040147211 -0.050230358 0.01919256
-0.037925079 -0.054580268 0.019480897
-0.0038750726 -0.056531504 0.016296327
-0.042957023 -0.042620637 0.016395718
-0.039807573 -0.042516273 0.017047297
-0.01083809 -0.04179598 0.019361246
-0.0080456436 -0.046386495 0.019314498
-0.050143652 -0.030280748 0.014865954
-0.046223897 -0.034514338 0.013801029
-0.034995411 -0.035909299 0.013730443
-0.025515825 -0.032870635 0.01449552
-0.015025944 -0.033463418 0.017837502
-0.052425504 -0.024674818 0.014573725
-0.044980481 -0.025155451 0.012055839
-0.035536841 -0.025031442 0.012250279
-0.025675397 -0.024763253 0.011559697
-0.017471096 -0.025685864 0.015184163
-0.054020394 -0.015466161 0.014300453
-0.045477409 -0.014020761 0.013355744
-0.035604943 -0.015009399 0.012104763
-0.024160478 -0.014956386 0.01352066
-0.019861035 -0.019709924 0.015057731
-0.04282897 -0.008650234 0.013790146
-0.034730013 -0.0057816156 0.013903583
-0.027102727 -0.0055740038 0.014571793
-0.021172911 -0.092174761 0.02473324
-0.015669679 -0.092870876 0.024273783
-0.0083460119 -0.090865321 0.021782581
-0.024551429 -0.085035332 0.025145466
-0.012471276 -0.088914678 0.028291248
-0.0044695195 -0.086826906 0.025626512
0.0047000358 -0.083071634 0.0244698
-0.030791519 -0.071632475 0.02487224
-0.028459758 -0.076611683 0.024950199
0.0059160949 -0.075087942 0.02502694
-0.032970596 -0.064561181 0.024669753
-0.02509762 -0.066199139 0.025694381
-0.015319076 -0.063057669 0.025543464
-0.0028220171 -0.060949109 0.023860015
0.0018039211 -0.066051349 0.025002906
-0.040390842 -0.050856374 0.025530024
-0.03601839 -0.055109248 0.02522641
-0.025252156 -0.054645449 0.025946759
-0.015868261 -0.054604586 0.026794482
-0.0054277829 -0.05535068 0.025134079
-0.042280525 -0.044404902 0.024717351
-0.036812752 -0.04533587 0.026816538
-0.025294499 -0.04576128 0.025970381
-0.014813091 -0.044911645 0.026331309
-0.0082038054 -0.04613426 0.024789536
-0.05010467 -0.030212646 0.024558963
-0.04778057 -0.035189863 0.024989806
-0.034837697 -0.038017381 0.024767064
-0.024398677 -0.033969447 0.025082136
-0.014671565 -0.034996882 0.025277808
-0.052478079 -0.024934465 0.025080314
-0.017360661 -0.024983825 0.025089234
-0.052914344 -0.017583521 0.023940125
-0.045090493 -0.014316623 0.02521468
-0.03642359 -0.011707314 0.027470255
-0.022249296 -0.014584072 0.025092999
-0.019826597 -0.01967293 0.025246449
-0.040516201 -0.0097160758 0.020722359
-0.033958994 -0.0080669159 0.023342378
-0.026767895 -0.0072306111 0.024920447
-0.021322332 -0.09055081 0.030887969
-0.019400008 -0.090340167 0.030376684
-0.023634318 -0.084606104 0.034803536
-0.015342833 -0.084599972 0.034804694
-0.0059117256 -0.082349487 0.032638814
0.0013896598 -0.080584429 0.030662809
-0.03068812 -0.071561791 0.034140266
-0.026178876 -0.075753309 0.036714148
-0.014717666 -0.07518445 0.038775947
-0.0047772354 -0.075392134 0.037424982
0.0036268285 -0.074708909 0.033966497
-0.033254147 -0.064572811 0.03536588
-0.024412869 -0.065027177 0.037004497
-0.014909191 -0.065043941 0.038640421
-0.0043044155 -0.064434752 0.038122144
0.0016777182 -0.066442654 0.034375511
-0.040411223 -0.050816655 0.033557061
-0.035813011 -0.05516874 0.036412288
-0.025067501 -0.05456033 0.03719027
-0.015097208 -0.055153754 0.038959742
-0.0050461995 -0.055201776 0.035780683
-0.042690195 -0.04458002 0.034719985
-0.034715865 -0.044452056 0.036184996
-0.025217047 -0.044865366 0.036254391
-0.014808133 -0.044872895 0.038196165
-0.0080870437 -0.045733709 0.034528822
-0.050062023 -0.030148521 0.03332866
-0.045745347 -0.034749527 0.036197349
-0.034479458 -0.035621248 0.036956165
-0.025042867 -0.035853043 0.035473593
-0.014874307 -0.035404526 0.03542291
-0.051471714 -0.025596602 0.033142287
-0.045031242 -0.024619974 0.036575634
-0.035080634 -0.025156682 0.038202912
-0.025243033 -0.025075255 0.038820799
-0.017574333 -0.025291368 0.034726631
-0.050229348 -0.01990002 0.030225879
-0.043529764 -0.018286791 0.032008156
-0.034688305 -0.01608805 0.033932295
-0.024525812 -0.015141524 0.034722399
-0.019828243 -0.019638274 0.033610605
-0.025535755 -0.0095163397 0.030793404
-0.019652957 -0.080021702 0.040095229
-0.022538897 -0.074654885 0.040666945
-0.01786172 -0.074907094 0.040708326
-0.0057342863 -0.071151823 0.040927913
-0.030809417 -0.061542287 0.040941153
-0.026463727 -0.063332148 0.040427301
-0.010247808 -0.067087099 0.040581789
-0.005792839 -0.066918112 0.040787909
-0.031323973 -0.057520285 0.040707327
-0.026397573 -0.05759469 0.040728696
-0.013753118 -0.053529769 0.040633872
-0.0093234004 -0.053366039 0.040702932
-0.033968311 -0.045658927 0.040739797
-0.023057817 -0.042445682 0.04067554
-0.016534731 -0.043880943 0.040461618
-0.042643476 -0.033225276 0.040886935
-0.038140245 -0.032831233 0.040855154
-0.022084333 -0.037586831 0.040972102
-0.01722906 -0.037111163 0.0408662
-0.042239871 -0.028811537 0.040452231
-0.035658542 -0.027384311 0.040369812
-0.026129073 -0.025396643 0.040719703
