# .PCD v0.7 - Point Cloud Data file format
VERSION 0.7
FIELDS x y z normal_x normal_y normal_z curvature
SIZE 4 4 4 4 4 4 4
TYPE F F F F F F F
COUNT 1 1 1 1 1 1 1
WIDTH 643
HEIGHT 1
VIEWPOINT 0 0 0 1 0 0 0
POINTS 643
DATA ascii
0.029922992 -0.096006446 0.041847683 -0.99705279 -0.07503099 0.016000941 0
0.031682029 -0.097530641 0.042391062 0.99846208 0.049019549 0.025894297 0
-0.062400565 -0.092418335 0.042453006 0.95711577 0.2066267 -0.20306362 0
-0.032049194 -0.092649519 0.042570695 -0.99788266 -0.064381704 -0.0092270179 0
0.00050310424 -0.092278205 0.042712957 0.99739355 0.063078538 -0.035033416 0
0.029677061 -0.092489779 0.042608205 -0.99743259 -0.069928654 0.015431332 0
0.032125629 -0.092531197 0.042625025 0.99764365 0.068582051 0.0018930552 0
-0.062856093 -0.087335862 0.042380791 -0.98303068 -0.084914491 -0.16260454 0
-0.032399308 -0.087359793 0.04237067 -0.99710548 -0.07202521 -0.024350708 0
0.00023635864 -0.087534085 0.043142896 0.99447632 0.052649368 -0.090801887 0
0.029336797 -0.087337665 0.042592231 -0.99778599 -0.064824417 0.014861307 0
0.031807832 -0.087608293 0.042652745 0.99798054 0.063132755 -0.0070126983 0
-0.063250922 -0.082496844 0.042329375 -0.99870145 -0.037778154 -0.034177121 0
-0.032750882 -0.082717985 0.042741127 -0.99672461 -0.07620801 -0.027062716 0
-0.00018229021 -0.082020134 0.042610053 0.99716061 0.066478103 -0.035374526 0
9.044887e-05 -0.084819295 0.043916598 0.98587155 0.11656348 -0.12029234 0
0.028992357 -0.082136884 0.041726768 -0.99789995 -0.06343735 0.013092346 0
0.031433586 -0.082206495 0.042293336 0.99707663 0.073254444 -0.021727026 0
-0.063532166 -0.077651486 0.042569581 -0.88278472 -0.19757128 -0.42621204 0
-0.033191174 -0.077246062 0.042313784 -0.99488497 -0.091003746 -0.043845024 0
-0.00047336757 -0.077477127 0.042504266 0.99738485 0.06464079 -0.032327034 0
0.014570744 -0.075951487 0.044987503 -0.39764485 -0.49114871 -0.77501714 0
0.016384356 -0.075202212 0.044874243 0.20011857 -0.268796 -0.94217902 0
0.028677303 -0.077359706 0.042263772 -0.9975298 -0.069639973 0.0091918772 0
0.031104775 -0.077565379 0.04183631 0.99797606 0.061417639 -0.016486857 0
-0.065144017 -0.071585029 0.0418563 -0.99716502 -0.073321171 -0.016905699 0
-0.063249409 -0.073186599 0.042281616 0.9980619 0.059971139 -0.016614035 0
-0.03351457 -0.072942778 0.042140197 -0.99777526 -0.065065026 -0.014531245 0
-0.00075747597 -0.072874583 0.042720035 0.99726903 0.058130171 -0.045556314 0
0.013298179 -0.072717048 0.04459272 -0.16027185 -0.093804099 -0.98260558 0
0.016685326 -0.072160915 0.044620268 0.22508255 -0.039627593 -0.97353345 0
0.028324097 -0.072188899 0.041690219 -0.99809688 -0.061290324 0.0067899744 0
0.030811025 -0.072796263 0.042356167 0.9977088 0.066741012 -0.011076878 0
-0.065457471 -0.067148671 0.042930134 -0.99771249 -0.067344382 -0.0058747828 0
-0.063008614 -0.067245521 0.042557988 0.99723721 0.070963398 -0.021959746 0
-0.059031717 -0.065473363 0.04477334 0.71227497 -0.22789562 -0.66387349 0
-0.033924296 -0.067261651 0.042765558 -0.99621528 -0.071064055 -0.050049946 0
-0.0010891632 -0.067358837 0.04284073 0.99696249 0.060146883 -0.049479287 0
0.0083363475 -0.06550245 0.044757895 -0.60526323 -0.052353043 -0.79430193 0
0.013164855 -0.067691699 0.043657094 -0.21616079 -0.3750793 -0.90143776 0
0.016998837 -0.067269869 0.043836836 0.40824929 -0.39256209 -0.82415259 0
0.020468852 -0.065484293 0.044860777 0.46065164 -0.15156534 -0.8745445 0
0.027959362 -0.066571109 0.042185768 -0.99752063 -0.070288345 -0.0034865537 0
0.030463412 -0.067398831 0.042817779 0.99783534 0.065523766 -0.0055909525 0
-0.065800615 -0.06242526 0.043102078 -0.99714351 -0.075530589 -0.0001318264 0
-0.063079283 -0.061817724 0.042700961 0.98207021 0.075411692 -0.17277531 0
-0.059572827 -0.062419742 0.044585362 -0.30721685 0.020573795 -0.95141715 0
-0.050507594 -0.062491409 0.044933762 0.023302805 0.055783346 -0.99817091 0
-0.04834776 -0.061989877 0.044936337 0.0028843153 0.052426863 -0.99862063 0
-0.03424722 -0.062525652 0.042145487 -0.99656707 -0.073864348 -0.037390493 0
-0.00144834 -0.061893448 0.042097263 0.99786055 0.062446289 -0.019357286 0
0.0089670047 -0.061685074 0.043828707 -0.73749429 -0.28256929 -0.61339778 0
0.01284141 -0.062014155 0.042101201 -0.14683747 -0.13455859 -0.97996563 0
0.017680125 -0.062552378 0.042899054 0.40909594 -0.11583314 -0.90510952 0
0.020302236 -0.060273491 0.044479538 0.71547091 -0.25323415 -0.65113282 0
0.027745137 -0.061791014 0.04222871 -0.99773806 -0.067051753 -0.0047876737 0
0.030131135 -0.062280878 0.042249195 0.99798965 0.063088581 -0.0060402639 0
-0.080705643 -0.055438202 0.040109303 -0.72366703 -0.29061854 0.62597674 0
-0.077515893 -0.056679588 0.040176425 -0.039581917 -0.40893602 0.91170424 0
-0.071666665 -0.056497019 0.040473998 -0.024557386 -0.45717198 0.88903928 0
-0.066758797 -0.057559591 0.041889798 -0.92784202 -0.21982624 0.30130666 0
-0.063671321 -0.058369063 0.042417053 0.99670953 0.071162537 -0.038808849 0
-0.059695411 -0.059806265 0.044994704 -0.62391919 0.39614832 -0.67364043 0
-0.051187251 -0.056192107 0.044760223 -0.17230698 -0.090312988 -0.98089445 0
-0.049612705 -0.056254845 0.044751965 0.054212131 -0.07567735 -0.99565762 0
-0.034670055 -0.057254516 0.042936765 -0.99538136 -0.077500552 -0.056653965 0
-0.0017322348 -0.057474077 0.041908234 0.99777085 0.063595831 -0.020219201 0
0.0048526069 -0.058324911 0.044507831 -0.2793895 -0.21903104 -0.93486196 0
0.0073244916 -0.057058513 0.043350063 -0.48997489 -0.17467359 -0.85405719 0
0.011939398 -0.057488017 0.041539803 -0.16373874 -0.21516021 -0.96275431 0
0.01725534 -0.05744179 0.042131733 0.42511061 -0.090054318 -0.90065044 0
0.020493103 -0.057488445 0.044342164 0.70175421 -0.022669695 -0.71205842 0
0.028416 -0.057474647 0.042701572 -0.97782362 -0.094577625 -0.18685815 0
0.030001696 -0.059973869 0.043998629 0.99813759 0.060851462 -0.0043047075 0
-0.080478676 -0.053207498 0.041194063 -0.33265504 -0.23592377 0.91306114 0
-0.077721566 -0.052887164 0.041453894 -0.051601879 -0.22786906 0.97232342 0
-0.072919615 -0.052125253 0.041868441 -0.043448325 -0.22563469 0.97324258 0
-0.066924058 -0.052804429 0.042961098 -0.85887617 -0.17676263 0.48071486 0
-0.063995488 -0.052449394 0.043045547 0.99891704 0.037260879 -0.027861845 0
-0.051072642 -0.053522702 0.044686001 -0.0079303859 0.059573069 -0.99819249 0
-0.049668182 -0.053778086 0.044811834 0.33145836 0.1070926 -0.93737221 0
-0.040425349 -0.051411591 0.044476409 -0.56844711 -0.29584381 -0.76768768 0
-0.036429927 -0.051305804 0.043365289 -0.86241776 -0.21782643 -0.45693234 0
-0.034903582 -0.053911891 0.041769039 -0.9964478 -0.08059068 -0.024431201 0
-0.0020249716 -0.052607331 0.042628296 0.99622279 0.064284503 -0.058375675 0
0.0048510055 -0.050587773 0.043978173 -0.98124647 -0.14860663 0.1227659 0
0.0073754936 -0.052418794 0.042024873 -0.58801228 -0.36428469 -0.72217602 0
0.01206693 -0.053273499 0.040466901 -0.070589565 -0.25703159 -0.96382147 0
0.017310176 -0.052744288 0.041475121 0.46748573 -0.22170994 -0.85574633 0
0.020586159 -0.051480401 0.043657206 0.82555997 -0.14956659 -0.54413277 0
0.028025195 -0.052583221 0.042446267 -0.98527557 -0.14629324 -0.088489905 0
0.032078292 -0.050070226 0.040086921 0.053233154 -0.42398685 0.90410256 0
-0.081170395 -0.048185848 0.041148432 -0.84826046 -0.076950923 0.52395874 0
-0.077071503 -0.047716103 0.042116571 -0.067936242 -0.018233296 0.99752301 0
-0.072595261 -0.04741507 0.042413108 -0.059851445 -0.0020468968 0.99820524 0
-0.067647725 -0.04801888 0.04315054 -0.68107265 -0.049061939 0.73057026 0
-0.062768102 -0.047005635 0.042770997 0.63750571 0.74965864 -0.17775925 0
-0.057362948 -0.047441136 0.042461112 -0.01177218 -0.72160572 -0.69220418 0
-0.052730165 -0.046976212 0.042150673 0.21749845 0.43995535 -0.87128282 0
-0.047321983 -0.04635828 0.042296961 -0.057962772 0.9885627 -0.13922703 0
-0.042498533 -0.04640688 0.042209134 -0.59003592 0.61824751 -0.51925677 0
-0.037044097 -0.048421081 0.042280726 -0.27334681 -0.84320611 -0.46290928 0
-0.0020507164 -0.047185771 0.0426125 0.96552718 -0.16359772 -0.20246749 0
0.0028084773 -0.047843195 0.04216785 -0.5578317 -0.72495669 -0.40405649 0
0.0058912309 -0.049263004 0.040672846 -0.37118235 -0.61075312 -0.69943142 0
0.018704576 -0.047840662 0.040851079 0.47013783 -0.21023448 -0.85718846 0
0.021139024 -0.046899017 0.042832643 0.80324513 -0.20242785 -0.56019664 0
0.028065063 -0.047638714 0.042922944 0.89737231 -0.019969283 0.44082212 0
0.032611839 -0.047289651 0.041179694 -0.019507702 -0.34058705 0.94001061 0
0.036408123 -0.046891771 0.041172918 0.059208214 -0.31113219 0.94852048 0
0.041848533 -0.046990164 0.040723938 0.21217252 -0.36403203 0.90689766 0
-0.081080839 -0.042851426 0.041001569 -0.5109846 0.18836543 0.83869737 0
-0.077903926 -0.041713301 0.041196588 -0.082675278 0.29366779 0.95232552 0
-0.072550394 -0.042786673 0.04195147 -0.074518956 0.21394916 0.97399831 0
-0.067836769 -0.04228304 0.04269639 -0.72262686 0.11786083 0.68111616 0
-0.064651608 -0.042307463 0.042386319 0.99091893 0.096307807 -0.093832374 0
-0.0564018 -0.041706242 0.044754039 -0.1190999 -0.16446564 -0.97916615 0
-0.051988352 -0.041955587 0.044578433 -0.051694475 -0.073991232 -0.99591815 0
-0.047212958 -0.041266337 0.044711877 0.12420715 0.012183135 -0.99218148 0
-0.041466027 -0.043956116 0.043160692 0.030904397 0.96236795 -0.26998702 0
-0.03762966 -0.044134803 0.042670034 -0.083250992 0.98417342 -0.15643542 0
-0.032041013 -0.044171508 0.04267814 -0.070396826 0.99554121 -0.062785789 0
-0.02746892 -0.044056542 0.042260259 -0.067283213 0.99753624 -0.019857733 0
-0.0229751 -0.043757755 0.042039283 -0.067387924 0.99759847 -0.016005501 0
-0.017349211 -0.04337896 0.041818038 -0.068310514 0.99761319 -0.010077435 0
-0.012658744 -0.043052644 0.042102356 -0.069259912 0.99754554 -0.010291832 0
-0.0073605231 -0.04268039 0.042491652 -0.06934572 0.99753898 -0.010351207 0
-0.0025787454 -0.042656165 0.042353708 -0.028690793 0.99935412 -0.021636914 0
0.0025947085 -0.04198112 0.042156346 -0.068979584 0.99722725 -0.027920684 0
0.0077164462 -0.041626211 0.042862553 -0.068225212 0.99745357 -0.020775456 0
0.012158739 -0.041302957 0.042747296 -0.077322692 0.99679118 -0.020700602 0
0.017383011 -0.040870216 0.042834211 -0.072068974 0.99462789 -0.07430578 0
0.022321422 -0.042370934 0.042118937 0.85788071 -0.080341905 -0.50752902 0
0.027800072 -0.042447139 0.042782079 0.4445408 -0.031191321 0.89521539 0
0.032710116 -0.042228948 0.042285103 0.035310358 -0.095823966 0.99477178 0
0.037054367 -0.042635981 0.042092904 0.044042241 -0.11492017 0.99239796 0
0.042346641 -0.042838909 0.041425124 0.51360047 -0.11764341 0.84992623 0
-0.080236085 -0.039960686 0.040348887 -0.10081072 0.38909921 0.91566318 0
-0.076657914 -0.038891446 0.040288471 -0.10081074 0.38909918 0.91566318 0
-0.072240017 -0.03857566 0.040582363 -0.064420298 0.4280706 0.90144646 0
-0.067024693 -0.037291929 0.042454869 -0.75522369 0.20836046 0.62146842 0
-0.064946264 -0.039504148 0.043081302 0.99649191 0.071537808 -0.043431811 0
-0.05225081 -0.036428276 0.044542488 -0.070039824 -0.40583903 -0.91125691 0
-0.049744356 -0.035516266 0.044835441 0.65292656 -0.7264666 -0.2143203 0
-0.036243603 -0.038971256 0.044799082 -0.10286524 0.5010879 -0.8592611 0
-0.032745756 -0.039647017 0.044825967 0.097680487 0.49908179 -0.86103183 0
0.027324397 -0.037218966 0.042319022 -0.84266508 0.11557481 0.52588785 0
0.032563951 -0.037248727 0.042163383 -0.019945901 0.15350138 0.98794711 0
0.037306268 -0.037491869 0.042100869 0.031436983 0.13315231 0.99059683 0
0.042170823 -0.038381044 0.041428205 0.72592092 0.11113833 0.67873931 0
-0.066840537 -0.032451436 0.042430513 -0.99430937 -0.10522018 -0.01665948 0
-0.062477548 -0.031171421 0.044321138 -0.23618037 -0.29092902 -0.92713493 0
-0.057253249 -0.032004487 0.043380532 -0.20965479 -0.38041493 -0.90073824 0
-0.052775118 -0.032337286 0.042880632 0.026514685 -0.1969313 -0.98005873 0
-0.047774475 -0.032101374 0.043755755 0.33057061 -0.33363104 -0.88284391 0
-0.042124234 -0.031216575 0.044188008 -0.044811156 -0.38240537 -0.92290747 0
-0.037139066 -0.032525036 0.044051502 -0.10967077 -0.21899697 -0.96954244 0
-0.032862835 -0.031790927 0.044437766 0.35870323 -0.28001142 -0.89046371 0
-0.0026454425 -0.031265404 0.044511907 0.27927685 -0.50046921 -0.81947243 0
0.0098739099 -0.031229809 0.044663619 -0.39140189 -0.42961752 -0.81377727 0
0.011982604 -0.031329144 0.044343989 -0.040726081 -0.42082223 -0.90622848 0
0.018263409 -0.031712856 0.044770379 -0.026870867 -0.055561397 -0.99809361 0
0.020712173 -0.032034207 0.044798959 0.18122207 0.048457362 -0.98224765 0
0.026904944 -0.032243498 0.042187747 -0.77649128 0.21572851 0.59204954 0
0.031940695 -0.032445423 0.040944759 0.0094892103 0.34588391 0.93822926 0
0.037729822 -0.032138072 0.040756572 0.021622097 0.35406941 0.93496919 0
0.041522738 -0.03328263 0.04083275 0.41994077 0.31952232 0.84944397 0
-0.067232564 -0.027112955 0.042137343 -0.97336584 0.22905461 0.0096426262 0
-0.062232018 -0.027505087 0.043879166 -0.12267239 0.090846643 -0.98828059 0
-0.058090869 -0.027672181 0.043118078 -0.16764615 0.087732211 -0.9819358 0
-0.052487429 -0.027391598 0.043032881 0.12267058 0.21855633 -0.9680832 0
-0.047659189 -0.02748668 0.0440332 0.34174713 0.52133483 -0.78193283 0
-0.04223907 -0.028395243 0.044025738 -0.05611147 0.17224531 -0.98345464 0
-0.037604086 -0.02764068 0.043858565 -0.015558152 0.17272085 -0.9848479 0
-0.032923911 -0.027829817 0.044247143 0.22170322 0.17880249 -0.95858091 0
-0.02969696 -0.029497944 0.044922881 0.32262224 -0.23870416 -0.91593409 0
-0.017063184 -0.028010475 0.044741519 -0.17516796 0.05278964 -0.98312223 0
-0.012278471 -0.027157765 0.044612348 -0.13528821 0.20158759 -0.97008222 0
-0.0070798015 -0.027536001 0.04387049 -0.1422642 -0.12365042 -0.9820751 0
-0.0023394155 -0.027589301 0.043483708 0.02657453 -0.14154579 -0.98957497 0
0.0022406406 -0.027526053 0.043871056 0.074078418 -0.31738371 -0.94539934 0
0.0080302777 -0.027458007 0.043435186 -0.18855868 -0.33561152 -0.92293584 0
0.01263535 -0.027853755 0.043144487 0.0464807 -0.29069993 -0.95568466 0
0.017060081 -0.027365776 0.043585565 0.25501803 -0.37147868 -0.89273149 0
0.022888144 -0.027221756 0.044456068 -0.18575656 -0.046119489 -0.98151284 0
0.026905684 -0.027620211 0.042514876 0.99588418 0.029089272 -0.085840352 0
-0.066151462 -0.022850649 0.042930026 -0.88284481 0.46964997 0.003744951 0
-0.062662989 -0.022744374 0.04240267 0.59386539 -0.62504321 -0.50660127 0
-0.057404973 -0.022535732 0.043941695 0.081180431 0.34278485 -0.93589973 0
-0.053601991 -0.022642907 0.044290546 0.14869343 0.34564078 -0.92651111 0
-0.03651344 -0.024502086 0.044595748 0.081176601 0.42636567 -0.90090102 0
-0.0066897324 -0.022626666 0.044193637 -0.38574067 0.25398287 -0.88695931 0
-0.0027528931 -0.022697764 0.04376322 0.093706839 0.26224494 -0.96044081 0
0.0012438608 -0.024081808 0.044007733 0.13530658 0.41225812 -0.9009636 0
0.0078587253 -0.021937601 0.043377027 -0.42118493 0.29497528 -0.85766703 0
0.012525962 -0.0224913 0.042412605 -0.036410622 -0.016695082 -0.99919742 0
0.017364185 -0.022341514 0.042566471 0.18435596 -0.13532415 -0.973499 0
0.023369165 -0.022489546 0.043380503 -0.67484605 -0.27037045 -0.68664593 0
0.026980167 -0.02200922 0.042528987 0.96281451 0.27016124 0.0010015826 0
-0.061805978 -0.017891765 0.04216817 -0.60177672 0.79866439 -0.00027935227 0
-0.057963811 -0.017658381 0.042950198 0.46790531 -0.87653738 -0.1129021 0
-0.05223066 -0.016509639 0.042174291 0.1273206 -0.99182725 -0.0082575595 0
-0.046980932 -0.016095309 0.042281076 0.067566246 -0.99762005 0.013748351 0
-0.042636782 -0.015785838 0.042794283 0.063653611 -0.99743122 0.032851491 0
-0.037751403 -0.015458489 0.042286213 0.073220193 -0.99723154 -0.012965443 0
-0.033483874 -0.015129564 0.042508572 0.078775205 -0.99688768 -0.0030512013 0
-0.0056586703 -0.017657166 0.044621106 -0.33004007 0.044623177 -0.94291162 0
-0.0041730921 -0.017415123 0.044550348 0.19474515 0.07332816 -0.97810906 0
0.0087107355 -0.018235961 0.044087052 -0.57466 0.2622444 -0.7752378 0
0.012148637 -0.017884197 0.043168735 -0.097738512 0.29922014 -0.94916511 0
0.018037975 -0.017195201 0.042536102 -0.42473322 0.20947625 -0.88075042 0
0.022858847 -0.017704202 0.042748619 0.51510197 -0.51178426 -0.68756592 0
0.025717765 -0.018231701 0.042772893 0.86746204 0.49748811 0.0039007857 0
-0.055965692 -0.014781622 0.041394997 -0.22626308 0.97405666 -0.0043133162 0
-0.052796155 -0.014252661 0.042822223 -0.12272332 0.99243432 -0.0036385774 0
-0.047667794 -0.013893208 0.042414881 -0.067109741 0.9977414 -0.0028975157 0
-0.043073662 -0.01358315 0.042788014 -0.067302518 0.99772751 -0.0031809921 0
-0.036924589 -0.013165337 0.042624079 -0.068496384 0.99763542 -0.0056361221 0
-0.03235814 -0.013353019 0.042591967 -0.070415542 0.99749601 -0.0065858164 0
-0.027671322 -0.013402549 0.04232851 -0.058398683 0.95711297 0.28376806 0
-0.022841034 -0.013166591 0.04256703 0.07033816 0.49580669 0.86557966 0
-0.017716264 -0.012869404 0.042185165 -0.011744186 -0.54404932 0.83897108 0
-0.012784002 -0.012456946 0.042534009 -0.093239971 0.61742353 0.78108543 0
-0.0071885302 -0.012036832 0.042622089 -0.20076934 0.97387552 -0.10610426 0
-0.0024661114 -0.012439131 0.042244721 0.29277208 -0.91464055 -0.2787779 0
0.0023153832 -0.011585705 0.042394377 -0.25842413 0.96425241 -0.058601603 0
0.007545155 -0.012285382 0.042497218 0.075610206 -0.82162589 -0.56499028 0
0.012852133 -0.011995707 0.042620689 -0.093616784 -0.98761988 -0.12586804 0
0.017345034 -0.01224606 0.04260679 -0.019701105 0.94870561 -0.31554633 0
0.021882921 -0.0135965 0.042730216 0.61720413 0.78676409 0.0078326445 0
-0.022959221 -0.0056182775 0.040527642 -0.58769429 -0.66448057 0.46160698 0
0.0097408723 -0.0099746957 0.043058552 -0.070296243 0.99751997 -0.0035124794 0
0.012340917 -0.0099301385 0.042437848 0.046473574 0.99891078 0.0041883346 0
-0.022525787 -0.0026711817 0.042022165 0.014432816 -0.25894478 0.96578431 0
-0.023232318 0.002718257 0.044222031 -0.30065301 0.40383136 -0.8640185 0
-0.0012393804 0.098281898 0.041971277 -0.8985064 -0.43891898 -0.0060339952 0
0.0020933675 0.097945608 0.042471856 0.30773962 -0.70904952 0.63446444 0
0.0061122258 0.099258922 0.041239467 0.5042038 -0.31355914 0.80464858 0
-0.0013628913 0.10213929 0.041753456 -0.778 0.38347793 0.49765515 0
0.0023338695 0.10235728 0.041510981 0.36454648 0.42689112 0.82756865 0
0.0063076513 0.10201164 0.041265726 0.51718509 0.16551259 0.83971733 0
0.0018053846 0.10542936 0.041289084 -0.13410707 0.9345808 0.32950568 0
-0.051816329 -0.17065284 0.046846129 -0.50891703 -0.81026196 0.2906526 0
-0.047447599 -0.17212923 0.047222439 -0.16720888 -0.63264292 0.75617725 0
-0.042198952 -0.17203897 0.047359038 0.00045167195 -0.42483917 0.90526873 0
-0.037713889 -0.1721883 0.047115672 0.031197969 -0.73329431 0.67919517 0
-0.032504175 -0.17185844 0.047126681 0.051943872 -0.64529276 0.76216739 0
-0.027235486 -0.17213264 0.046307553 0.066712834 -0.98358822 0.16764119 0
-0.022498511 -0.1715609 0.046559867 0.059322745 -0.86773193 0.49347964 0
-0.017303459 -0.17118333 0.046935484 0.060879651 -0.85484546 0.51529878 0
-0.012704555 -0.1710047 0.046979882 0.055195525 -0.79670888 0.60183764 0
-0.0073069092 -0.17075782 0.04654273 0.071234532 -0.94127053 0.33005351 0
-0.0025051138 -0.1704762 0.046655312 0.067032464 -0.96041113 0.27040163 0
0.0020054171 -0.17022905 0.046322227 0.069167055 -0.99757332 0.0079550985 0
-0.05636945 -0.16637009 0.045970824 -0.82455742 -0.55272681 0.12082309 0
-0.052706059 -0.16744427 0.047389597 -0.21674569 -0.24309492 0.94547665 0
-0.047785413 -0.16717303 0.047790535 0.0051534055 0.0079303179 0.99995524 0
-0.042967126 -0.16730592 0.047768716 0.0040991604 0.0085155591 0.99995536 0
-0.037969973 -0.16746241 0.048424881 -0.28226298 -0.25917223 0.92366523 0
-0.032312214 -0.16693202 0.048535429 0.24388598 -0.21028861 0.94673038 0
-0.027021097 -0.16751032 0.047711954 0.018186152 0.0051475237 0.99982136 0
-0.02197936 -0.16683803 0.048059203 -0.48714417 -0.16975714 0.85666382 0
-0.017576069 -0.16730648 0.047856901 -0.15907866 0.18809758 0.96918178 0
-0.012755562 -0.16730081 0.047428183 0.018245036 0.040890645 0.99899703 0
-0.0069699599 -0.1673416 0.047758743 -0.1476922 -0.1545139 0.97688919 0
-0.0025818942 -0.16663481 0.047276046 -0.097269304 0.44459355 0.8904354 0
0.0023516947 -0.16736482 0.048012421 0.2572757 -0.34816557 0.9014377 0
0.0082117599 -0.16815773 0.047207303 0.056751851 -0.60665822 0.79293448 0
0.012319259 -0.16812655 0.04737521 0.015628278 -0.85225517 0.52289283 0
0.017801872 -0.16787937 0.047222447 0.091110289 -0.60695761 0.78949434 0
0.022140544 -0.16760808 0.047139909 0.074733578 -0.58596289 0.80688429 0
0.02686454 -0.16676511 0.047040157 0.29158404 -0.61610794 0.73170328 0
0.030466322 -0.16530202 0.046360798 0.63742864 -0.77040207 0.012863707 0
-0.057213575 -0.16263472 0.047267113 -0.52277392 -0.19714303 0.82936245 0
-0.05249764 -0.16213407 0.047581438 0.041381303 0.003952893 0.99913555 0
-0.04719108 -0.16267908 0.047753885 0.0046046595 0.006167755 0.99997038 0
-0.042397805 -0.16246668 0.047738273 -0.022208005 -0.004404956 0.99974364 0
-0.037396602 -0.16250245 0.048496395 -0.24324398 0.56233877 0.79032105 0
-0.032480951 -0.16249897 0.048553243 -0.064290851 -0.12165076 0.99048865 0
-0.027789669 -0.16228035 0.047851052 0.14024767 0.085942164 0.9863795 0
-0.022377085 -0.16254631 0.047561917 -0.075669251 -0.68219066 -0.72724831 0
-0.017279716 -0.16239022 0.046998993 -0.17013106 0.070398569 -0.98290354 0
-0.0127367 -0.16286306 0.047400858 0.19331183 -0.015306307 0.98101795 0
-0.0070635192 -0.16275057 0.047672354 0.5758751 0.35753191 0.7352134 0
-0.0025890369 -0.16247343 0.047029015 0.22449768 -0.88682026 0.40391916 0
0.0022018903 -0.1621785 0.04760981 0.14835355 0.013629482 0.98884046 0
0.0076095602 -0.16244347 0.048270363 -0.65518624 -0.12563318 0.74494773 0
0.01210527 -0.16245435 0.048379671 0.49544132 0.081081346 0.86484897 0
0.017352765 -0.16249628 0.048398692 0.49817321 -0.081542648 0.86323476 0
0.022845322 -0.16320294 0.047616482 -0.0028608942 0.0066312146 0.99997389 0
0.027230833 -0.16244236 0.047623832 -0.0029040028 0.0065611051 0.99997431 0
0.032087561 -0.1628352 0.046698768 0.64731288 -0.54558015 0.53228593 0
-0.057915129 -0.15726569 0.046651341 -0.87080139 0.0017370688 0.49163184 0
-0.05256433 -0.15683092 0.046768006 -0.12545238 0.80363977 0.58174288 0
-0.047994789 -0.15748289 0.047547475 -0.038267367 0.057030596 0.99763882 0
-0.042329676 -0.15776792 0.047714386 0.0036442808 0.004858729 0.99998158 0
-0.037640914 -0.1578424 0.047703676 -0.00036715964 0.0085155377 0.99996376 0
-0.033055913 -0.15706526 0.04766896 0.0054998673 0.0023540256 0.99998212 0
-0.027476728 -0.15642537 0.047012664 0.13394037 0.125251 0.9830423 0
-0.022422088 -0.15787348 0.047257412 -0.10962499 0.69534403 0.71026683 0
-0.017561883 -0.15796097 0.047084849 -0.14787251 0.98376113 0.10172416 0
-0.012868356 -0.15771426 0.04740832 -0.061862141 -0.023648232 0.99780446 0
-0.0074836458 -0.15755232 0.047422707 -0.018989053 -0.012489174 0.99974167 0
-0.0028447984 -0.1580202 0.047951344 0.10953785 0.72012717 0.68514121 0
0.0026143917 -0.15743528 0.04763845 0.039752688 0.022861505 0.99894792 0
0.0080863098 -0.1575712 0.047867749 -0.20757428 0.16208352 0.96469772 0
0.012701533 -0.15774278 0.048502289 -0.078981131 0.49789575 0.86363286 0
0.017461468 -0.15758306 0.047682714 0.031000929 0.13966358 0.98971361 0
0.022690985 -0.15783051 0.047588304 0.00098603289 0.0052632843 0.99998569 0
0.027692569 -0.15733047 0.047596999 -0.0030182875 0.0053249979 0.99998122 0
0.03258257 -0.1570598 0.047607802 0.0062230793 -0.0024426763 0.99997759 0
0.035743445 -0.15696397 0.046428081 0.96672964 -0.21873832 0.1326177 0
-0.057434089 -0.15247688 0.04723822 -0.90785867 -0.22643268 0.35287526 0
-0.052472051 -0.1526394 0.047479533 -0.0097073382 0.25784066 -0.96613866 0
-0.047449801 -0.15262859 0.047480587 0.64652717 0.74028033 0.18435754 0
-0.042541008 -0.15187515 0.047079705 -0.44642082 0.60686493 0.65758908 0
-0.037463889 -0.15192936 0.047797557 -0.10542999 0.26429468 0.95866209 0
-0.032521233 -0.15235204 0.048166536 0.4119522 -0.34239396 0.84442979 0
-0.026607988 -0.15261531 0.046786331 0.85309666 -0.26078209 0.4519057 0
-0.021887522 -0.15229581 0.047550611 -0.28339723 -0.66333115 -0.69258773 0
-0.017382471 -0.15210879 0.047594741 0.21792005 -0.42199978 -0.88001531 0
-0.012316228 -0.15266193 0.046819557 -0.41638616 0.6944837 0.58678359 0
-0.0075100549 -0.15240468 0.047196303 -0.34111723 -0.015206302 0.93989772 0
-0.0029045113 -0.15238428 0.047058776 0.11636543 0.9192009 0.37620303 0
0.0023236389 -0.15161291 0.046756864 -0.18484859 0.64595485 0.74065739 0
0.0071780835 -0.15205307 0.047157507 -0.022662884 0.20963888 0.97751623 0
0.012576975 -0.15200135 0.048138343 -0.015731128 -0.44811422 0.89383793 0
0.017053844 -0.15243012 0.047580644 -0.0017687995 -0.00325309 0.99999309 0
0.02272113 -0.15297195 0.047576997 0.00059031305 0.00011614659 0.99999988 0
0.027160119 -0.15200223 0.046939887 0.098991871 0.41189852 0.90583676 0
0.032495506 -0.15207706 0.046459481 -0.12601019 0.9159022 0.38110968 0
0.035585683 -0.15264155 0.047285855 0.46407491 -0.023316387 0.88548905 0
-0.060055148 -0.14629985 0.046388503 -0.99611342 -0.082200147 0.031642083 0
-0.057583932 -0.14809304 0.047101308 -0.93094665 0.15786944 0.32926542 0
-0.05295844 -0.14738996 0.047695812 0.55203682 0.13388541 -0.82300067 0
-0.047642961 -0.14732331 0.047349468 0.19677378 0.071844347 -0.97781301 0
-0.041951753 -0.14743462 0.04718734 -0.72381574 0.041883528 -0.688721 0
-0.03740843 -0.14765139 0.047359802 0.58996266 -0.55977142 -0.58189356 0
-0.032161802 -0.14764409 0.047216501 -0.012150676 0.031018473 -0.99944496 0
-0.027464157 -0.14752614 0.046935584 0.092475943 0.44643909 0.89002264 0
-0.022436216 -0.14754193 0.047550473 0.44525331 -0.65541756 -0.61006331 0
-0.017330226 -0.14768954 0.047612932 -0.73004657 -0.6382404 -0.24429747 0
-0.012805168 -0.1476462 0.047042713 0.37921306 0.11407343 0.91825086 0
-0.0075850808 -0.14741217 0.047572747 -0.24320281 -0.00031635587 -0.96997541 0
-0.0025249703 -0.14769624 0.047175892 -0.55708736 0.25023848 -0.79185498 0
0.0023751159 -0.14759576 0.04723252 0.56781554 -0.0066747945 0.82312876 0
0.0077482872 -0.14701144 0.047464777 -0.19632186 -0.28282306 -0.93886572 0
0.012709782 -0.14759143 0.047276996 -0.4999086 0.79913449 0.33387944 0
0.017260328 -0.14718132 0.047468398 0.4057661 -0.13598216 0.9038046 0
0.023059668 -0.14725907 0.047471751 -0.17164075 -0.20208864 0.96420938 0
0.027449345 -0.1472854 0.047611061 0.19745731 0.88307214 -0.42566916 0
0.031835005 -0.14763483 0.047240902 -0.9589057 -0.24372792 -0.14524664 0
0.035770923 -0.14826243 0.046530101 0.90151644 0.062781006 0.42816663 0
-0.060325377 -0.14244637 0.046177916 -0.99759299 -0.063361317 0.028169682 0
-0.057113733 -0.14290826 0.047264952 0.018965639 -0.20435865 0.97871238 0
-0.052378498 -0.1431282 0.046996031 0.3357155 -0.29255295 0.89538139 0
-0.047156576 -0.14281146 0.047006018 0.048056684 -0.55134183 0.83289421 0
-0.042460836 -0.14294986 0.046817627 0.045782514 -0.52005416 -0.85290539 0
-0.037492875 -0.14310244 0.047157284 0.068847403 0.82513344 0.56072712 0
-0.032440957 -0.14240581 0.046700966 0.19201855 -0.92970037 0.31430247 0
-0.027421571 -0.14233769 0.046915505 0.0079210512 -0.69965273 0.71443909 0
-0.022568949 -0.14229441 0.046937842 -0.11602607 -0.32232034 -0.9394933 0
-0.017685182 -0.14240275 0.047248099 0.91274732 0.25054148 -0.32267812 0
-0.012302736 -0.14265046 0.047193289 0.010236705 0.039579507 0.99916404 0
-0.0072122174 -0.14271678 0.04756039 -0.49782029 0.56933898 -0.65423858 0
-0.002673164 -0.14264797 0.047651209 -0.50876093 0.82072896 0.25993505 0
0.0022289327 -0.14297551 0.046855524 0.17559934 0.16321091 -0.97083837 0
0.0077388305 -0.14256315 0.046970945 -0.332118 0.30795479 -0.89155006 0
0.012712904 -0.14262067 0.047623765 -0.09829393 0.031592086 -0.99465585 0
0.017081805 -0.14285494 0.047669452 0.30219415 0.15396406 0.94073039 0
0.02314518 -0.14263438 0.04740211 -0.32362178 0.84133464 -0.43292618 0
0.027496476 -0.14244841 0.046957221 0.029895669 -0.0094288355 -0.9995085 0
0.032115739 -0.14255257 0.04699922 -0.92224771 0.24897051 -0.29575804 0
0.035550456 -0.14262192 0.045890797 0.99633503 0.078933835 0.032955144 0
-0.060588911 -0.13753802 0.046478927 -0.97795177 -0.069421507 0.19695443 0
-0.057105429 -0.13742223 0.047860567 -0.21286283 -0.061589397 0.97513902 0
-0.052422889 -0.13713393 0.048429109 -0.30518022 0.33277157 0.89226019 0
-0.047638681 -0.13754407 0.048053987 0.28295887 -0.13295484 0.9498722 0
-0.042893976 -0.13801928 0.047742303 -0.010078267 -0.00078010483 0.99994886 0
-0.037162352 -0.1372328 0.047458041 0.77900219 -0.60941792 -0.14753108 0
-0.032924626 -0.13736928 0.047201466 -0.0060870335 -0.27539617 0.96131158 0
-0.027186828 -0.13716768 0.047712132 -0.0061182836 -0.0096975435 0.99993426 0
-0.02258485 -0.13727692 0.04828079 -0.059801519 -0.16503218 0.98447353 0
-0.017329643 -0.13715704 0.047852851 0.10278993 -0.20902926 0.97249222 0
-0.012282356 -0.13815726 0.047117803 0.022403758 -0.35981137 0.93275607 0
-0.0078010135 -0.13798659 0.047241848 -0.029906213 -0.43403772 0.90039819 0
-0.0028793146 -0.13750856 0.047620509 0.13478576 -0.53147238 0.83628345 0
0.0027280445 -0.13772351 0.046982907 0.065507703 -0.28329036 0.95679432 0
0.0075823679 -0.13769984 0.046793628 -0.025597462 -0.20438664 0.9785555 0
0.012638044 -0.13761857 0.04722039 -0.01861077 0.008320393 0.99979222 0
0.017384967 -0.13758697 0.047608286 0.0027079829 -0.00042679443 0.99999619 0
0.022888711 -0.13797411 0.04722172 0.045819994 -0.090039074 0.99488372 0
0.027395012 -0.138293 0.046898067 -0.094299629 -0.43765566 0.89418405 0
0.032317873 -0.13821591 0.047017545 0.017411958 -0.1317828 0.99112564 0
0.035210662 -0.13820301 0.046218731 0.98893505 0.073745981 0.12872019 0
-0.060895979 -0.13271846 0.046366341 -0.97029531 -0.077845104 0.22905691 0
-0.056970417 -0.13282388 0.047088042 -0.31996995 -0.058642115 -0.94561106 0
-0.052355308 -0.13203995 0.047423411 -0.39893788 -0.56098467 0.72535837 0
-0.047604993 -0.13275199 0.048072904 0.2041145 0.042058304 0.97804314 0
-0.042797059 -0.1322237 0.048093371 -0.37972805 0.11270683 0.91820681 0
-0.037390929 -0.1318806 0.047789704 0.40216509 -0.49023426 0.77326173 0
-0.033067957 -0.13264057 0.047720995 -0.60337943 0.27699474 0.7478016 0
-0.027957451 -0.1321889 0.047893502 -0.22036509 0.02292279 0.97514808 0
-0.022605129 -0.13222399 0.048174512 0.46559042 -0.024719592 0.884655 0
-0.017709877 -0.13279311 0.048574228 -0.17278904 0.15610752 0.97250932 0
-0.012278678 -0.13260916 0.047872383 -0.22221433 -0.021340508 0.97476435 0
-0.0078666639 -0.13297394 0.048530463 -0.37548351 -0.23277086 0.8971231 0
-0.0022625434 -0.1327336 0.048446804 0.040607963 0.10710515 0.9934181 0
0.0029237366 -0.13234302 0.047240458 0.10210401 0.010411019 0.99471921 0
0.007224231 -0.13245456 0.047077812 -0.55006748 -0.58607835 -0.59492689 0
0.012501089 -0.13301885 0.047829267 -0.8667658 0.30158165 0.39719725 0
0.017204277 -0.13311197 0.046907227 0.24295278 -0.32394612 0.9143483 0
0.023132095 -0.13260958 0.046996888 -0.071666762 -0.1809295 0.98088145 0
0.027558424 -0.13236818 0.047445782 0.67331278 0.32700285 -0.66311318 0
0.032622222 -0.13252603 0.04698604 0.51625729 0.13565589 0.84562165 0
0.035040874 -0.13451245 0.04707019 0.99824297 0.039790656 -0.043906242 0
-0.061087344 -0.12695357 0.046949361 -0.87898058 -0.0886622 0.46854278 0
-0.05765935 -0.12742536 0.046755292 0.16916788 0.03416878 0.98499483 0
-0.052534614 -0.12772374 0.04796521 -0.0010643182 0.2391741 0.97097617 0
-0.047661021 -0.12767477 0.047711249 0.0068905526 0.0015193085 0.99997503 0
-0.042269524 -0.12839445 0.04772979 -0.10125825 0.09267018 0.99053472 0
-0.037303671 -0.12800287 0.048060175 0.093325742 0.16037868 0.98263371 0
-0.032868922 -0.12773432 0.047929008 0.17577328 0.2180794 0.95997137 0
-0.027086854 -0.12818515 0.047861774 -0.18268609 0.13115126 0.97438455 0
-0.022310674 -0.12792294 0.048433591 -0.30809081 0.24450216 0.91940141 0
-0.017841354 -0.12759572 0.048265066 0.25970623 0.34811339 0.90076065 0
-0.012589323 -0.12758839 0.047671665 -0.014285942 0.024166692 0.99960589 0
-0.0076705916 -0.12737803 0.048051562 0.031698558 -0.054593917 0.99800533 0
-0.0027811034 -0.12759639 0.048224311 0.055582363 0.14909799 0.98725903 0
0.0026105004 -0.12742205 0.047217719 0.04398413 0.0045333477 0.99902195 0
0.0076307687 -0.12733673 0.047212899 -0.97738981 0.1601008 0.13811904 0
0.012112905 -0.12706806 0.047690656 -0.3830474 -0.26667646 0.88439715 0
0.017365988 -0.12748711 0.047680628 0.090587132 0.067289703 0.99361259 0
0.023338286 -0.1278072 0.047951162 0.56237346 0.30090144 0.77019113 0
0.027736785 -0.12763958 0.047012299 0.16176379 -0.68558449 -0.70979321 0
0.032411553 -0.12735477 0.047286998 0.70808834 0.1312838 0.69381225 0
-0.061273988 -0.12260758 0.046801273 -0.82767975 -0.046440691 0.55927593 0
-0.057370465 -0.12235337 0.047256712 0.053536627 -0.6939466 -0.71803343 0
-0.053068392 -0.12227233 0.047759622 -0.9364143 -0.1444446 0.31978741 0
-0.047672015 -0.12248427 0.047771785 0.056199066 -0.027531499 0.9980399 0
-0.042530611 -0.12213892 0.047912665 -0.20870149 -0.24160694 0.94766539 0
-0.037743971 -0.12164362 0.047439236 0.47794771 0.84834957 0.22774771 0
-0.032423873 -0.1223538 0.046844143 -0.67126715 0.47616357 -0.56803924 0
-0.027339805 -0.12243925 0.04770238 -0.0048664948 -0.0026314361 0.99998474 0
-0.022607127 -0.12203886 0.048068922 -0.034267139 -0.35729888 0.93336129 0
-0.017096682 -0.12192972 0.047785603 0.026978454 -0.054799747 0.99813282 0
-0.012343329 -0.12244868 0.047653459 -0.0012877483 -9.2782793e-05 0.99999917 0
-0.0079240585 -0.1220881 0.047698464 0.0022459682 -0.026714819 0.99964058 0
-0.0030495531 -0.1227012 0.047664359 0.021378761 0.013134502 0.99968523 0
0.0026539811 -0.12260135 0.047621258 0.0058831242 -0.0026815597 0.99997914 0
0.0081300931 -0.1226636 0.047586579 -0.010205342 0.024945615 0.99963665 0
0.01278754 -0.12242144 0.047575086 0.022544153 0.017869879 0.99958616 0
0.017587772 -0.12248916 0.047571268 -0.0010417979 0.0013331776 0.99999863 0
0.022542577 -0.1224433 0.047805712 -0.070528224 0.16450098 0.98385221 0
0.02806324 -0.12277944 0.047381558 0.2127232 0.49268028 0.84380972 0
0.03238035 -0.12225962 0.046616215 0.88229305 0.03497744 0.46939924 0
-0.061414387 -0.11726449 0.047260091 -0.58142442 -0.031286236 0.81299865 0
-0.057801738 -0.1174199 0.047569491 0.32058442 0.0035866962 -0.94721311 0
-0.052706476 -0.11754759 0.047506403 -0.91045606 -0.35622388 -0.21017681 0
-0.047528319 -0.11762874 0.047173571 0.80468565 0.54873532 0.22665061 0
-0.042472951 -0.11788417 0.047477741 -0.24979608 0.67540675 -0.69384992 0
-0.037155338 -0.11747502 0.047587972 -0.86586034 0.21529244 -0.45159164 0
-0.032329332 -0.11757601 0.04722866 0.61196584 0.62434506 0.48548037 0
-0.027485404 -0.11742606 0.048236154 -0.53250879 -0.2100628 0.8199439 0
-0.022723846 -0.11787069 0.048328396 0.22188884 0.70653671 0.67199045 0
-0.018191639 -0.11761568 0.048579104 0.28057772 -0.33001813 0.90131241 0
-0.012132505 -0.11773293 0.048063938 -0.29800829 -0.12540601 0.94628984 0
-0.0072567877 -0.11809017 0.048485417 0.22719504 0.18394145 0.95631999 0
-0.0027166505 -0.11758874 0.048468735 0.24246642 -0.31312242 0.91823977 0
0.0026862614 -0.11754467 0.04701896 0.12274232 0.25912881 0.95801181 0
0.0074082143 -0.11721236 0.04737277 -0.77208769 -0.12871991 -0.62234384 0
0.01211116 -0.11728755 0.048043098 0.12569155 -0.071166486 0.98951352 0
0.017563371 -0.1169754 0.04746677 -0.022681069 0.026050549 0.9994033 0
0.022187781 -0.1171977 0.047675505 0.021738248 -0.020440513 0.99955469 0
0.027555067 -0.11757204 0.04725631 0.99713022 -0.0095578097 -0.075099513 0
0.032124311 -0.11746521 0.046613868 0.94138134 0.1451987 0.30449721 0
-0.061770383 -0.11272301 0.046855535 -0.86042684 -0.061178647 0.50588816 0
-0.057843428 -0.11289304 0.046997558 0.47712258 0.6678893 -0.5712074 0
-0.052658293 -0.11226042 0.047488943 0.43325755 0.90068328 0.032517787 0
-0.047552314 -0.11227392 0.04699428 -0.11200715 -0.15210812 0.98199672 0
-0.042154383 -0.11258192 0.047401328 -0.54012078 0.7982533 0.26657322 0
-0.037701942 -0.11237064 0.04770853 0.53776765 0.17507225 0.8247155 0
-0.032813579 -0.11298463 0.047008526 -0.71672577 0.30696923 0.62615818 0
-0.027198261 -0.11235268 0.048060521 -0.28181913 0.21649109 0.93472433 0
-0.022293089 -0.11265984 0.0483458 0.14456853 0.10894455 0.98347902 0
-0.017582832 -0.11249042 0.048224274 0.20797433 0.22263846 0.95245934 0
-0.0122574 -0.11240535 0.047958959 -0.28284782 0.11871866 0.95178944 0
-0.0073739653 -0.11211875 0.048631266 0.047083784 0.37009174 0.92780125 0
-0.0024873728 -0.11237191 0.04843384 0.17402704 0.29301021 0.94013804 0
0.0028139292 -0.11276857 0.04693507 0.67737091 -0.011400207 0.73555326 0
0.0073000873 -0.11245783 0.047523536 0.15877816 -0.35759935 -0.92027831 0
0.013187236 -0.11240607 0.047393911 0.52198273 0.11218622 -0.84554619 0
0.017392064 -0.11210147 0.046924159 -0.098181918 0.35352618 0.9302578 0
0.02258425 -0.11262181 0.047858875 0.69257426 0.081545316 0.71672261 0
0.027252851 -0.1124942 0.047183875 -0.12217773 -0.85381389 -0.50603789 0
0.031852812 -0.11280396 0.047172479 0.70211661 0.04951277 0.71033835 0
-0.061593119 -0.10731954 0.046781991 -0.57775384 -0.043869041 0.81503135 0
-0.057595331 -0.10700802 0.047366396 0.18454316 -0.084533416 -0.9791823 0
-0.052534271 -0.10741304 0.047566965 0.49991405 -0.61751986 0.60725218 0
-0.047472876 -0.10755682 0.046942364 -0.010537159 0.047690451 -0.99880654 0
-0.04246214 -0.10705812 0.047335804 -0.15709071 -0.38329771 0.91016775 0
-0.036996391 -0.1072183 0.047180898 0.50153697 -0.745332 -0.43925029 0
-0.032798383 -0.10789411 0.046958733 -0.48503703 0.022421289 0.87420613 0
-0.02757467 -0.1070979 0.04765477 -0.00480917 -0.017174417 0.99984092 0
-0.022493942 -0.10780568 0.047686044 0.0055587967 -0.04368737 0.99902982 0
-0.017862625 -0.1069013 0.047615841 -0.00057672127 0.0041477606 0.99999124 0
-0.012280346 -0.10792334 0.047627762 0.001086048 0.00049327099 0.99999928 0
-0.007170531 -0.10703395 0.047623273 -0.024736341 0.079339974 0.99654067 0
-0.0027262883 -0.10776901 0.047622506 -0.00035960926 0.0046049026 0.99998927 0
0.0026106436 -0.10787338 0.046607681 -0.64290643 -0.21239336 -0.73590791 0
0.0076678805 -0.10714457 0.046663243 0.52273178 0.84620732 0.10336664 0
0.012287376 -0.1077233 0.047021899 0.21166292 0.82326627 -0.5267176 0
0.017586607 -0.10760254 0.046895143 -0.041701391 -0.016320376 0.99899673 0
0.022795165 -0.10773071 0.047233533 -0.52786636 0.75188726 -0.394997 0
0.027403383 -0.10762482 0.047405723 0.4020237 0.36365017 -0.84031868 0
0.031985063 -0.10725616 0.046623643 0.86232668 0.055110328 0.50334442 0
-0.061383829 -0.10218623 0.047284544 -0.63557202 -0.0034014417 0.77203405 0
-0.057345275 -0.10217186 0.047486179 0.10573434 -0.12146915 -0.98694754 0
-0.052484214 -0.10223403 0.047574468 -0.14017497 -0.14099871 -0.98003584 0
-0.047811843 -0.10263734 0.047070462 -0.048094116 -0.018137578 0.99867809 0
-0.042381316 -0.10247172 0.047529966 0.1439544 0.12105484 -0.9821521 0
-0.037689436 -0.10276885 0.047672186 -0.66040558 0.3907297 -0.64124471 0
-0.032921027 -0.1026965 0.04722264 0.52025664 -0.81125134 0.2668415 0
-0.02722461 -0.10231426 0.048342142 -0.18943517 -0.051663287 0.98053318 0
-0.023023318 -0.10345824 0.048711732 -0.30153963 -0.23422617 0.92423588 0
-0.017382063 -0.10247518 0.047947034 0.38606566 -0.14652386 0.9107601 0
-0.012382274 -0.10225166 0.048098367 -0.34524694 -0.25377578 0.90354985 0
-0.0075498153 -0.10209424 0.048487194 0.10707511 -0.096024051 0.9896031 0
-0.0030635411 -0.10220987 0.048346661 0.29819542 -0.39549473 0.86871368 0
0.0024828701 -0.10247719 0.047093831 0.22035059 -0.1358988 0.96590745 0
0.0074808472 -0.10274728 0.047373705 -0.038122114 -0.4085283 -0.91194916 0
0.012269078 -0.10215053 0.047422048 0.21938065 -0.36759737 0.90373904 0
0.01797268 -0.10272368 0.046896577 -0.12787716 0.16342662 0.97823268 0
0.02258501 -0.10274566 0.047307689 -0.53320175 -0.82964969 -0.16546059 0
0.027399179 -0.10287561 0.047062173 0.25162166 -0.37891749 -0.89056611 0
0.031512104 -0.10275619 0.046783391 0.29663914 0.042129442 0.95405996 0
-0.062408175 -0.097552374 0.046626832 -0.79389018 -0.058352534 0.60525471 0
-0.057283096 -0.09759827 0.047349229 -0.38902217 0.38984191 -0.83467662 0
-0.052755058 -0.09743885 0.047317941 0.34220085 0.0032738289 -0.93962109 0
-0.047507484 -0.097499155 0.046969049 -0.49499953 -0.2839174 0.82119817 0
-0.042373348 -0.097420998 0.04767146 0.33573437 0.21490961 0.91711301 0
-0.037739106 -0.097661749 0.047571108 0.12272397 0.7590912 -0.63931167 0
-0.032579508 -0.097845808 0.047113013 -0.15626338 0.1414832 0.97752964 0
-0.027682079 -0.097444236 0.048220273 -0.053137008 0.071256503 0.99604166 0
-0.021826439 -0.097716011 0.048322886 -0.40855065 -0.0053310632 0.91272008 0
-0.017515186 -0.097929843 0.047907487 0.30551001 0.16396543 0.93796533 0
-0.012132179 -0.097689733 0.048389614 -0.29610211 0.27073961 0.91598231 0
-0.0074306726 -0.097634502 0.048101187 0.057204135 -0.53429449 0.84336066 0
-0.0027226142 -0.098126501 0.048336543 0.33224967 0.32594717 0.88508111 0
0.0023671901 -0.097467497 0.047244426 -0.28942627 0.25463042 0.92271113 0
0.0076928232 -0.097706832 0.047214013 0.67824829 -0.16272938 0.71658802 0
0.012318631 -0.097707257 0.047656719 -0.21549658 -0.16909555 -0.96175253 0
0.018144466 -0.097609721 0.047232628 -0.9369449 -0.040102843 -0.34716848 0
0.022649139 -0.097255819 0.047517076 0.92198986 -0.065646119 -0.38160875 0
0.027716117 -0.097353749 0.047569603 -0.29207757 -0.0049297791 -0.95638186 0
0.031215528 -0.09786994 0.046586022 -0.046435677 -0.02169832 0.99868566 0
-0.062496927 -0.092414215 0.04665646 -0.7490018 -0.045043673 0.661035 0
-0.057814397 -0.092182003 0.047099996 -0.72447497 -0.68894172 -0.022254867 0
-0.052645173 -0.092137098 0.047215961 0.77281529 -0.5460971 0.32331792 0
-0.047568988 -0.092291467 0.047064554 -0.013823526 0.051081225 0.99859881 0
-0.042142209 -0.092479073 0.046825889 -0.05572246 -0.18910833 -0.98037392 0
-0.037549648 -0.092449673 0.046946734 0.38112351 -0.50994807 -0.77116656 0
-0.032774705 -0.092866048 0.047071483 -0.2777485 -0.020585164 0.96043324 0
-0.027797138 -0.092785724 0.047631666 -0.003517326 0.0035408102 0.99998754 0
-0.022777388 -0.09184254 0.047603082 0.010088025 -0.0041193278 0.99994063 0
-0.017042963 -0.092599019 0.047593798 -0.0018114945 -0.0019047965 0.99999654 0
-0.012653572 -0.092640288 0.047603585 -0.0026528523 0.0049406057 0.99998426 0
-0.0079799034 -0.092988715 0.04796074 0.0089999521 0.31034163 0.95058244 0
-0.0023543769 -0.092421874 0.047584463 0.0013034446 0.001850022 0.99999744 0
0.0025937411 -0.09250278 0.046821721 0.87348962 -0.018623589 0.48648638 0
0.0076932251 -0.092514984 0.047241069 -0.13237248 0.68992954 -0.7116704 0
0.012628675 -0.092634521 0.047010478 0.43830365 0.89445436 -0.088551089 0
0.017519798 -0.092284821 0.04694777 -0.074565992 -0.10732096 0.9914242 0
0.022635559 -0.092655636 0.047253497 0.023529505 -0.32985762 -0.94373739 0
0.027307101 -0.093004018 0.047394849 -0.40942442 0.54833031 -0.72918141 0
0.031694528 -0.092172988 0.046778128 0.85386306 0.049289346 0.51815885 0
-0.0621715 -0.087333269 0.047109909 -0.88290763 -0.22259142 0.4134334 0
-0.057653554 -0.087274872 0.047554567 0.82204378 0.47183436 -0.31877339 0
-0.052358381 -0.087395266 0.04781219 0.4005104 -0.13216214 -0.9067108 0
-0.047739714 -0.087470151 0.046808295 -0.12379763 -0.074595772 -0.98949975 0
-0.042592715 -0.087944321 0.047763374 -0.40437484 -0.40676954 -0.81915784 0
-0.037382819 -0.087709457 0.047674563 0.61123317 -0.45737603 -0.64591116 0
-0.033239204 -0.087574653 0.04686987 -0.75527626 -0.070374131 0.65161747 0
-0.027268559 -0.087092802 0.048489772 -0.091100693 -0.059469722 0.99406439 0
-0.022512509 -0.087955892 0.048418306 0.065219231 -0.32043287 0.94502342 0
-0.017537314 -0.08725974 0.047667127 0.055337131 -0.016666837 0.99832863 0
-0.012010419 -0.087331668 0.048232291 -0.32386059 -0.38377795 0.86477095 0
-0.0081905415 -0.08758942 0.0481891 0.14226271 0.0044942331 0.98981875 0
-0.0026846426 -0.087272242 0.04776793 0.18865408 -0.10836305 0.97604662 0
0.0028831949 -0.087486684 0.046839934 0.6434263 -0.14198071 0.75222605 0
0.0074332813 -0.087403357 0.047127683 -0.077124432 -0.87277716 -0.48198727 0
0.012124468 -0.087214142 0.047200277 0.51200408 -0.8361147 -0.1968857 0
0.017372305 -0.087413222 0.04668422 -0.11871628 0.081350446 -0.98959005 0
0.022458566 -0.087113157 0.047053825 -0.28890067 -0.76790768 -0.57171172 0
0.027535023 -0.087594993 0.04696162 -0.45114139 -0.15450642 0.87897629 0
0.031813964 -0.087644741 0.046223134 0.9921186 0.059981633 0.11001308 0
-0.06243341 -0.082712576 0.046915408 -0.72790074 0.059628967 0.68308491 0
-0.057131961 -0.082437389 0.047369733 -0.7845934 -0.41206604 -0.46326539 0
-0.052601483 -0.082309283 0.047259606 0.18632701 0.068191826 -0.98011839 0
-0.047355819 -0.082461379 0.047035523 -0.14572756 -0.23732235 0.96043819 0
-0.042295273 -0.082467727 0.047725648 0.02983287 -0.16499239 -0.98584354 0
-0.037549019 -0.082653336 0.047333267 0.26009825 0.19966534 -0.94471294 0
-0.033338871 -0.082331009 0.046831146 -0.8172822 -0.071134925 0.57183009 0
-0.028013332 -0.082329445 0.048528347 -0.57763273 -0.05381133 0.81452125 0
-0.022676896 -0.082290538 0.048822578 -0.51228064 -0.56493431 0.6468522 0
-0.017854765 -0.082879357 0.047867719 0.27792802 -0.027375096 0.96021181 0
-0.01215924 -0.082779825 0.048364308 0.20299622 -0.028042426 0.97877783 0
-0.0081786802 -0.08185067 0.04797506 -0.14082667 -0.49172997 0.85928434 0
-0.0021635441 -0.082263865 0.047796365 0.59707373 0.12644798 0.79215771 0
0.002340724 -0.082513101 0.047162995 0.58932656 -0.023829082 -0.80754346 0
0.0076136235 -0.082463689 0.047298256 -0.4384307 0.86768776 0.23430026 0
0.01255711 -0.083054736 0.04732956 0.50750148 -0.18107726 -0.84240919 0
0.017108085 -0.082189038 0.04735845 -0.61075509 -0.14953364 0.77757174 0
0.022189757 -0.082055248 0.047473919 0.82580298 0.29960367 -0.47779402 0
0.02695485 -0.082672969 0.047501806 -0.53899866 -0.086655878 -0.83783722 0
0.031067206 -0.082099892 0.046742972 0.79465544 0.057413056 0.60433972 0
-0.06314043 -0.077067353 0.046720903 -0.87721574 -0.026848907 0.47934505 0
-0.057588182 -0.077448748 0.046995241 0.069294065 -0.18515517 0.98026317 0
-0.052287247 -0.077720232 0.046680126 -0.63056856 0.22811007 0.74185526 0
-0.047633976 -0.077723265 0.046429932 0.34203613 -0.31866178 -0.88400561 0
-0.04214913 -0.077631459 0.046811521 0.59132653 -0.23023833 -0.7728669 0
-0.037417248 -0.077420242 0.046752352 -0.26339349 -0.35698196 -0.89620739 0
-0.032863367 -0.077080168 0.046917386 -0.43527278 -0.041345242 0.89934874 0
-0.027640745 -0.077613413 0.04763655 -0.0077155218 0.044968862 0.99895853 0
-0.022314036 -0.077808559 0.047701143 0.0094385445 0.10154823 0.99478585 0
-0.017261151 -0.077875972 0.047583379 0.0041017276 0.005090958 0.99997872 0
-0.012115792 -0.077955514 0.047842804 -0.15508194 0.26283041 0.95229715 0
-0.0071223252 -0.077927865 0.048338715 0.11842048 0.66063386 0.74130929 0
-0.0021496103 -0.077783279 0.047312979 0.23111503 0.039095823 0.97214067 0
0.0024275251 -0.07789427 0.047245577 -0.59996527 0.4084422 0.6879074 0
0.0072676884 -0.077606909 0.047616929 -0.6504854 0.75933325 -0.016781973 0
0.012040734 -0.077831551 0.047066115 0.74591732 0.020230727 -0.66573119 0
0.01756656 -0.077978358 0.047013309 -0.75657004 -0.13244648 -0.64035904 0
0.022228837 -0.077554874 0.047710668 -0.040431254 -0.13236386 -0.99037623 0
0.027214397 -0.077841856 0.047417391 0.23492739 0.8902123 -0.39029625 0
0.030849857 -0.07754828 0.046742965 0.79627484 0.044236034 0.60331547 0
-0.065213487 -0.071154676 0.046549048 -0.98636031 -0.067839369 0.14997043 0
-0.062102579 -0.072382659 0.04759733 -0.30443606 -0.43649817 0.84663337 0
-0.057877414 -0.072589777 0.04702301 -0.62692553 0.60805595 -0.48706502 0
-0.052737076 -0.072836354 0.047485106 0.4443357 -0.85609078 -0.26395905 0
-0.04746319 -0.072274968 0.046826381 -0.20861532 -0.056364965 -0.97637218 0
-0.042306781 -0.072580405 0.04743278 0.045569383 -0.61847788 -0.78447974 0
-0.037498392 -0.072109081 0.047658902 0.54027343 -0.56199145 0.62631482 0
