# .PCD v0.7 - Point Cloud Data file format
VERSION 0.7
FIELDS x y z normal_x normal_y normal_z curvature
SIZE 4 4 4 4 4 4 4
TYPE F F F F F F F
COUNT 1 1 1 1 1 1 1
WIDTH 401
HEIGHT 1
VIEWPOINT 0 0 0 1 0 0 0
POINTS 401
DATA ascii
-0.041117631 -0.082004458 -0.00020846857 -0.059020348 -0.050758794 -0.99696541 0
-0.037785064 -0.083269164 -0.00015700597 0.035135541 -0.001967395 -0.99938059 0
-0.032714505 -0.082312629 -0.0001679267 -0.0022667018 0.036818821 -0.99931937 0
-0.027564192 -0.081487037 -0.00018331387 0.008244901 0.0026457428 -0.99996257 0
-0.022686332 -0.080879807 -0.00015202403 0.0030785326 -0.031765569 -0.99949062 0
-0.01797194 -0.080443062 -0.00013197392 0.015570255 -0.23016234 -0.97302771 0
-0.013384301 -0.080138616 -6.1506995e-05 0.10360494 -0.53880936 -0.83603257 0
-0.04172112 -0.077407226 -0.00021031025 0.07174515 0.020096045 -0.99722052 0
-0.020778742 -0.07991115 -3.3034783e-05 -0.1021643 0.45925888 -0.8824079 0
-0.017108101 -0.079575069 -0.00013400106 -0.050276995 0.2201186 -0.97417659 0
-0.012215623 -0.078086339 -0.00011579517 0.025741566 0.041081991 -0.99882412 0
-0.042525951 -0.072495736 -0.00022990548 0.036687434 -0.0073729553 -0.99929953 0
-0.012239867 -0.072745234 -6.7066387e-05 0.046721254 0.011992814 -0.99883592 0
-0.043277498 -0.067768507 -0.00022574341 0.037451737 -0.011433902 -0.99923295 0
-0.013156628 -0.067319259 -0.00012477532 -0.047104809 -0.035445143 -0.99826086 0
-0.045196954 -0.060204595 -5.3089581e-05 -0.42393094 -0.088193029 -0.90139031 0
-0.044004586 -0.062659912 -0.00022126848 0.091998205 0.014462396 -0.99565411 0
-0.013948814 -0.062806271 -0.00016713119 -0.12072232 -0.034802981 -0.9920761 0
-0.045391954 -0.057026617 -0.00019166441 -0.29801333 -0.058766559 -0.95275098 0
-0.044495482 -0.05803727 -0.00024326309 0.22015767 0.035052419 -0.97483432 0
-0.015353554 -0.056232244 -0.00010140979 -0.27913302 -0.047973171 -0.95905334 0
-0.014462248 -0.057739176 -0.00014773525 0.12562361 0.012640017 -0.99199742 0
-0.045571286 -0.053998616 -0.00021341878 -0.20966619 0.11183788 -0.97135597 0
-0.042579703 -0.053651921 -0.00021897125 0.045157962 0.011029392 -0.99891889 0
-0.037449639 -0.052958436 -0.00017382712 -0.0026451405 0.0048451163 -0.9999848 0
-0.032486174 -0.052249767 -0.00018542504 0.0023755201 -0.05088912 -0.99870151 0
-0.027482282 -0.051396329 -0.00018667351 0.0026178381 0.012821136 -0.99991435 0
-0.022810983 -0.050891608 -0.0001499683 0.034484766 -0.12678853 -0.99133009 0
-0.01675557 -0.051334385 -0.00012595362 -0.03462984 -0.09535905 -0.9948405 0
-0.014712884 -0.053657107 -8.3886662e-05 0.33047938 0.051668875 -0.94239783 0
-0.021116365 -0.049784888 -7.4807256e-05 -0.053138573 0.37071997 -0.92722332 0
-0.017447634 -0.049523156 -0.00011819969 0.058752935 0.19517529 -0.97900701 0
-0.041347057 -0.082534425 0.0023574519 -0.78524441 -0.59495658 -0.17151633 0
-0.037493855 -0.083019681 0.0024822408 0.34499663 0.33087799 -0.87834901 0
-0.032561928 -0.082036413 0.0025798269 0.51810241 0.14526977 -0.84289181 0
-0.027432488 -0.081397638 0.0023808638 -0.119412 0.86897254 -0.48023692 0
-0.022698335 -0.081602164 0.002239763 0.15041232 -0.98657203 -0.0636537 0
-0.017679222 -0.081077352 0.0024974784 0.14880058 -0.98815656 -0.037485935 0
-0.013054835 -0.080398217 0.0025250844 0.15461554 -0.98671007 -0.049973343 0
-0.041737095 -0.077538587 0.0024367571 -0.85648477 -0.12192802 -0.50156498 0
-0.039806865 -0.07651154 0.002710908 0.99504584 0.091086328 -0.039837722 0
-0.02227179 -0.079655752 0.0026127698 -0.16428444 0.98464382 -0.059052277 0
-0.017641533 -0.078552485 0.0023422809 -0.14386678 0.97632563 -0.16152593 0
-0.011749006 -0.07745453 0.0023849863 0.63076121 0.6696201 -0.39210871 0
-0.042655572 -0.072511055 0.0023508316 -0.81368685 -0.037179012 -0.58011329 0
-0.031854402 -0.071605876 0.003136477 -0.48397812 -0.63038546 -0.60694259 0
-0.027420014 -0.072309911 0.0031292527 0.058635008 -0.22881813 -0.97170168 0
-0.02374116 -0.07129623 0.0031621072 0.67675263 -0.67907441 -0.28436586 0
-0.012583902 -0.072558358 0.0024703899 0.018995291 0.013439541 -0.99972922 0
-0.043388452 -0.067416221 0.0025185896 -0.2049623 -0.06029227 -0.97691101 0
-0.03513547 -0.066438653 0.0034523632 -0.99823433 -0.0068174251 -0.059006266 0
-0.033697139 -0.067742102 0.0030803445 0.73220402 0.028530454 -0.68048757 0
-0.02271067 -0.067497186 0.003186553 -0.080967769 0.21040188 -0.97425634 0
-0.012998759 -0.067442656 0.0025069171 -0.22359027 -0.077511102 -0.97159636 0
-0.045254275 -0.06170924 0.0024011042 -0.98785383 -0.15273207 -0.0285978 0
-0.043210909 -0.062662549 0.0024328809 0.98551714 -0.0058319359 -0.1694755 0
-0.035026927 -0.064897887 0.0037642072 -0.9608323 0.27564958 -0.02861084 0
-0.03265221 -0.062515788 0.003037553 -0.41249454 0.40565133 -0.8156563 0
-0.027249765 -0.06140364 0.00304807 -0.10547453 -0.79980654 -0.59091848 0
-0.023441598 -0.062923059 0.0031666185 0.58017552 0.50326264 -0.64040852 0
-0.015097361 -0.060589142 0.0027788749 -0.98723006 -0.15766726 -0.02275598 0
-0.013656335 -0.062676854 0.0024514038 0.67099279 0.099183165 -0.73480016 0
-0.045920566 -0.057440069 0.002335323 -0.98619187 -0.15870534 -0.047309615 0
-0.043728203 -0.057789683 0.0024579824 0.97149539 0.22798102 -0.064971782 0
-0.03824731 -0.055291913 0.002969716 0.15499131 -0.98658341 -0.0512922 0
-0.03016429 -0.059955452 0.00417116 -0.25971264 0.9656803 -0.0032995141 0
-0.028075252 -0.059788156 0.0033987828 0.031434327 0.99640644 -0.078651965 0
-0.016013799 -0.057489268 0.0024289831 -0.97899234 -0.15037194 -0.13770396 0
-0.013537481 -0.057479147 0.0022399956 0.97999436 0.14968936 -0.13116463 0
-0.046041496 -0.053597771 0.0024019412 -0.82456338 0.56476462 -0.033706415 0
-0.04232686 -0.053406581 0.0023518035 0.083005615 0.90541369 -0.41633654 0
-0.037324902 -0.052898612 0.0024936697 0.23486191 0.84594387 -0.47876799 0
-0.03248531 -0.052114997 0.0024256941 0.070074543 -0.45714203 -0.88662887 0
-0.027658124 -0.051544692 0.0024025338 0.16212751 -0.95023739 -0.26601422 0
-0.022446036 -0.051990461 0.0024008474 0.23057657 -0.96228015 -0.14439996 0
-0.017258892 -0.052013308 0.0023838556 -0.6808148 -0.72294563 -0.11764678 0
-0.014248509 -0.052406184 0.0025406897 0.98878902 0.13833973 -0.056200199 0
-0.025609493 -0.049906742 0.0026103572 -0.15520304 0.98714435 -0.038182992 0
-0.022487188 -0.04941472 0.0025849347 -0.1609024 0.98449045 -0.06992095 0
-0.017584758 -0.048662007 0.0023289889 -0.071967587 0.99006546 -0.12079376 0
-0.014728659 -0.049420271 0.0024554203 0.95251644 0.29787698 -0.063100807 0
-0.041500304 -0.08257819 0.007378879 -0.86788106 -0.49630338 -0.021572486 0
-0.037533429 -0.082939111 0.0075850142 0.9412114 0.11802591 -0.31652954 0
-0.032651998 -0.082138762 0.0075059184 0.76260418 -0.63624686 -0.11672553 0
-0.027582055 -0.081553355 0.0073930994 0.15682352 -0.95324475 -0.25832319 0
-0.022654051 -0.081786402 0.0075257099 0.15175959 -0.98841327 0.0028879137 0
-0.017543916 -0.081051871 0.0074176532 0.14770906 -0.98902202 -0.0041787317 0
-0.012878396 -0.080365479 0.007486043 0.15977195 -0.98715389 -0.00042285747 0
-0.041747387 -0.077543162 0.0074298577 -0.99402422 -0.071814388 -0.082210526 0
-0.039811227 -0.076483853 0.0075898431 0.99994802 0.0060217306 0.0082233381 0
-0.02524497 -0.079944268 0.009105647 -0.16726376 0.97966129 -0.11084487 0
-0.02239858 -0.079590991 0.0073551629 -0.16079517 0.98599291 -0.044303935 0
-0.017898591 -0.078338556 0.0075922143 -0.21081978 0.97718436 -0.025802244 0
-0.011840905 -0.07741531 0.0074589644 0.54564071 0.83496034 -0.071536452 0
-0.042554498 -0.072532333 0.00735074 0.55994368 0.5924896 -0.57915372 0
-0.032017209 -0.071603477 0.0074554542 -0.6854257 -0.72813988 0.0019780661 0
-0.027475471 -0.072362155 0.0074137715 -0.26726192 -0.96311706 -0.031249968 0
-0.023729388 -0.071322158 0.0077206478 0.68644702 -0.72672462 -0.025724217 0
-0.012564545 -0.072402269 0.0075020725 0.68800139 0.72237706 -0.069466159 0
-0.043333948 -0.067500159 0.007441143 0.70974088 0.027083565 -0.70394194 0
-0.035209727 -0.066643782 0.007403458 -0.99965847 -0.017426565 -0.01947394 0
-0.033507369 -0.067996338 0.0073896209 0.99063474 0.11675815 0.070783235 0
-0.022645559 -0.067606784 0.0074838251 -0.49439645 0.49091074 -0.71734148 0
-0.013029936 -0.067624792 0.0075621163 -0.75279897 -0.43975368 -0.48980653 0
-0.045271084 -0.061650932 0.0075766076 -0.98804331 -0.15413828 -0.0034374527 0
-0.043202594 -0.062769704 0.0074833808 0.98834294 -0.14153145 -0.056098677 0
-0.035109475 -0.06462644 0.0081935693 -0.97409302 0.21206467 -0.078557894 0
-0.032521803 -0.062289715 0.0073179551 -0.66910058 0.70933193 -0.22170396 0
-0.027009379 -0.06159066 0.0073275999 -0.16605152 -0.98610979 -0.0038022001 0
-0.023239577 -0.062845267 0.0076133125 0.7322219 0.61986548 -0.28216636 0
-0.015125618 -0.06100459 0.0075061587 -0.98712611 -0.15345415 -0.04509842 0
-0.013439426 -0.062803216 0.0074471319 0.98789954 0.15019289 -0.038685311 0
-0.045943797 -0.057399455 0.0075103506 -0.98693073 -0.1610885 -0.0042852075 0
-0.043720752 -0.057372898 0.0076548094 0.98789549 0.15497492 -0.0067358338 0
-0.038195398 -0.055305384 0.0075473441 0.20432356 -0.97885007 0.010216382 0
-0.030504692 -0.05983755 0.007838916 -0.34221601 0.93688995 -0.071592376 0
-0.027926676 -0.059583347 0.0075497292 0.059130434 0.99053794 -0.12384755 0
-0.016263846 -0.057458114 0.0075157094 -0.95820892 -0.28248933 -0.045115303 0
-0.01350966 -0.057472833 0.00743997 0.98843485 0.15145522 0.0076088333 0
-0.046063222 -0.053628366 0.0075221467 -0.82711244 0.56201953 -0.0043730009 0
-0.042153526 -0.053390067 0.007466903 -0.2174615 0.97579706 -0.023034815 0
-0.037296847 -0.052861243 0.0074968012 0.10948277 0.99348414 -0.031668 0
-0.032447834 -0.05206364 0.0074855336 -0.13063625 0.95634443 -0.26141828 0
-0.027754012 -0.051542751 0.0074989009 0.15602434 -0.9858495 -0.061296239 0
-0.022530677 -0.052206878 0.0076482855 0.14732102 -0.98842549 -0.036214951 0
-0.017302701 -0.052149691 0.0073735663 -0.76169157 -0.64419425 -0.069568314 0
-0.014247128 -0.052539732 0.0076410868 0.99051225 0.13734066 0.004792151 0
-0.025579082 -0.049904495 0.0077482313 -0.15788034 0.98745078 0.0038415277 0
-0.022532227 -0.049409069 0.0074151224 -0.16157936 0.9868567 0.0024270429 0
-0.017399138 -0.0486039 0.0074587064 -0.046109397 0.99892431 0.0049327207 0
-0.014755301 -0.049300008 0.0077509778 0.94612789 0.3237395 0.0058923117 0
-0.041765451 -0.083000191 0.012554495 -0.90045935 -0.43489692 0.0061375946 0
-0.037490994 -0.083047524 0.012050735 0.26589805 -0.86568105 -0.42413983 0
-0.032110326 -0.082439035 0.012179511 0.34816912 -0.91268522 -0.21397188 0
-0.027741622 -0.082058564 0.012314876 0.091675773 -0.99375457 -0.063620098 0
-0.02245651 -0.081779465 0.012597529 0.15176147 -0.98841697 0.00060997973 0
-0.017659172 -0.081091709 0.012605632 0.14164382 -0.98991609 0.0017770221 0
-0.01285701 -0.080370016 0.012421139 0.16465221 -0.98635167 3.9868944e-05 0
-0.042008013 -0.077749997 0.012372362 -0.97114831 -0.22749308 -0.071538426 0
-0.038164124 -0.077266037 0.012601708 0.12328669 0.24374349 -0.9619717 0
-0.032639384 -0.077646226 0.013156767 0.27499437 0.36828545 -0.88811249 0
-0.027560323 -0.078012884 0.013078406 -0.23824944 0.50378823 -0.83032209 0
-0.022381116 -0.077670336 0.012658388 0.18162893 0.68087047 -0.70952547 0
-0.018042365 -0.077213623 0.011991419 -0.47478279 0.55497122 -0.68307269 0
-0.011543972 -0.077411398 0.012162377 0.9465279 0.17625752 -0.27021885 0
-0.042502631 -0.072298199 0.012202792 -0.81648308 0.23357035 -0.52801543 0
-0.037716202 -0.072768211 0.013659058 0.35115108 0.37195843 -0.85926712 0
-0.032350224 -0.07229989 0.011954869 0.14311709 0.95776683 0.24939975 0
-0.027676497 -0.073044881 0.01176339 -0.041198112 0.63158917 0.77420789 0
-0.02259578 -0.072195776 0.012953144 -0.18338214 -0.19172613 -0.96416402 0
-0.017413432 -0.072275735 0.012932995 -0.26401398 0.19645981 -0.94429874 0
-0.012439986 -0.072487406 0.011956584 0.87189728 0.24118184 -0.42617667 0
-0.042928066 -0.067574158 0.012474815 -0.50804329 -0.50461781 -0.698035 0
-0.038177907 -0.067124113 0.013729579 0.28267863 -0.24856266 -0.92644989 0
-0.033906572 -0.067689635 0.01064588 0.38286486 -0.068734586 0.92124379 0
-0.022165753 -0.067793868 0.012326296 -0.82179844 -0.53401333 -0.19868831 0
-0.017394509 -0.067482539 0.012900189 0.11232805 -0.29992762 -0.94732559 0
-0.012948005 -0.067675352 0.01231453 0.9339965 0.046491329 -0.35424441 0
-0.045272365 -0.061763421 0.012483334 -0.98808944 -0.15383224 -0.0038781471 0
-0.04245162 -0.0629979 0.01176292 0.32144505 0.042373657 -0.94597971 0
-0.0375719 -0.062506385 0.013491797 0.44306505 -0.036592208 -0.89574236 0
-0.032907892 -0.06228615 0.012365083 -0.59865779 -0.74809223 -0.28629845 0
-0.027342869 -0.06198376 0.012575445 -0.19067132 -0.97120744 -0.14283076 0
-0.022827219 -0.062697463 0.011654167 -0.16155581 0.022999534 -0.98659551 0
-0.017395273 -0.062504955 0.011620715 -0.28767517 0.028886307 -0.95729238 0
-0.01277665 -0.062639847 0.012568215 0.98835194 0.15217125 -0.0021070195 0
-0.04597795 -0.057354961 0.012580972 -0.98578632 -0.16788845 -0.0062304516 0
-0.042634096 -0.057427626 0.012552806 0.69732887 0.14257535 -0.70242769 0
-0.03753278 -0.057162192 0.01282297 -0.1416108 -0.4688006 -0.87187862 0
-0.032223765 -0.057652015 0.012914717 0.055812154 0.030450277 -0.99797684 0
-0.027508853 -0.057653595 0.01252342 -0.12155097 0.61531901 -0.77885032 0
-0.022588078 -0.057696201 0.012451776 0.015353947 0.16168788 -0.98672241 0
-0.01753453 -0.057637289 0.011926888 -0.51396853 -0.11194498 -0.85047323 0
-0.013520039 -0.05754697 0.012458675 0.98861372 0.15046628 0.0016600423 0
-0.046077456 -0.053561263 0.012498857 -0.80693394 0.59054703 -0.01057293 0
-0.042207699 -0.053065743 0.01228108 -0.1064488 0.99233311 -0.0627985 0
-0.037668485 -0.052507862 0.012178919 -0.22663014 0.96294552 -0.14620112 0
-0.032170951 -0.052370764 0.012319104 0.40555501 0.67559731 -0.61570567 0
-0.027683446 -0.052028105 0.01250587 -0.50153923 -0.0055979323 -0.86511672 0
-0.022246731 -0.052953504 0.011940397 0.23433271 -0.65285444 -0.72032577 0
-0.01801178 -0.052500006 0.012444547 -0.57436228 -0.31899035 -0.753892 0
-0.014280627 -0.052462932 0.012565141 0.9898234 0.1419526 0.0099524157 0
-0.025630591 -0.049919896 0.012915726 -0.15445016 0.98799998 0.0011061 0
-0.022396158 -0.049397994 0.012616953 -0.16178688 0.98682326 0.0021921613 0
-0.017539874 -0.048640218 0.012486793 -0.043300584 0.99906206 0.0003245594 0
-0.014740702 -0.049509168 0.012620445 0.96551156 0.2602759 0.0066264402 0
-0.041795474 -0.082879931 0.017463086 -0.8915717 -0.45287353 -0.0023098006 0
-0.037490424 -0.084210806 0.017326815 0.18214457 -0.98322624 0.0094705988 0
-0.032530453 -0.083371587 0.017512212 0.15880683 -0.98730099 0.0041432963 0
-0.027674505 -0.082595199 0.017589012 0.15745375 -0.98752016 0.0034988159 0
-0.022492955 -0.081793696 0.017449014 0.14837176 -0.988931 -0.0012023489 0
-0.017576633 -0.0810562 0.01748132 0.1496291 -0.98872757 0.0053767664 0
-0.012928079 -0.080360882 0.017464031 0.15001215 -0.98867071 0.0051533678 0
-0.042778939 -0.077459306 0.017343538 -0.9891746 -0.14609455 -0.013781298 0
-0.039626151 -0.07730598 0.015464229 -0.50813514 -0.10064875 -0.85537618 0
-0.020362169 -0.077847265 0.016464202 0.94054055 -0.042922132 -0.33695891 0
-0.019829988 -0.077845678 0.016244123 -0.99727613 -0.035658304 -0.064566493 0
-0.010494405 -0.077438921 0.01747467 0.99973446 0.022411941 0.0053641214 0
-0.043648869 -0.072395377 0.017441582 -0.98765147 -0.15656778 -0.0055757677 0
-0.035970803 -0.070969291 0.015364949 0.33358222 0.37954569 -0.86294144 0
-0.032040525 -0.072010651 0.015979957 0.23602031 0.37041816 -0.89837897 0
-0.027620103 -0.072251581 0.016320268 -0.07798434 0.42341602 -0.90257263 0
-0.023747552 -0.071248919 0.015894091 -0.5789817 0.37728283 -0.72279859 0
-0.011238345 -0.072459184 0.017502075 0.98783851 0.15541603 0.0045857811 0
-0.044336904 -0.067535199 0.017429087 -0.98718935 -0.15780528 -0.023549723 0
-0.036151581 -0.067546219 0.015621905 0.44461095 -0.11735799 -0.88800246 0
-0.032538451 -0.067544684 0.016537875 0.16582003 -0.090422377 -0.98200178 0
-0.027446883 -0.067323342 0.016812613 -0.11399649 -0.13232 -0.98462999 0
-0.023945587 -0.067821525 0.015837222 -0.56417662 -0.23099397 -0.79268318 0
-0.011977863 -0.067683555 0.017366247 0.98818386 0.15320377 0.0046178438 0
-0.045279872 -0.061853372 0.017601192 -0.98827279 -0.15265901 -0.0034986839 0
-0.044898711 -0.064357221 0.017830569 -0.98853481 -0.15091659 -0.0048145615 0
-0.035703771 -0.063005887 0.015198033 0.14428174 -0.1259478 -0.98148865 0
-0.031898573 -0.063954696 0.015581005 0.20928326 -0.51127011 -0.83354861 0
-0.027550181 -0.063676454 0.015763121 -0.12821303 -0.49061638 -0.86189151 0
-0.024660379 -0.064603604 0.015291846 -0.57958275 -0.40352777 -0.70798951 0
-0.012760851 -0.062659532 0.017399548 0.98800999 0.15424486 0.0067000245 0
-0.045988686 -0.057394486 0.017571406 -0.98621798 -0.16542363 -0.0030469899 0
-0.013555938 -0.057424359 0.017470598 0.98830456 0.15245135 0.0035633605 0
-0.046154492 -0.053601544 0.017451456 -0.84741026 0.53093791 -0.00086221291 0
-0.042588651 -0.052484296 0.017476078 -0.13377056 0.99101031 -0.0020243267 0
-0.037480954 -0.051752023 0.017371472 -0.14711565 0.98911792 -0.0016409178 0
-0.032462496 -0.051012732 0.01750314 -0.14692691 0.98913091 -0.005699351 0
-0.02828557 -0.050972126 0.017166756 -0.1499896 0.97808343 -0.1444159 0
-0.014320401 -0.052370656 0.017456241 0.99080044 0.13502362 -0.0091093294 0
-0.02553869 -0.049907502 0.017279999 -0.15642813 0.98768777 -0.0017737229 0
-0.022443097 -0.049409561 0.017494954 -0.1626302 0.98668677 -0.00082017708 0
-0.0175489 -0.048657734 0.017440984 -0.021046011 0.99977624 0.002129083 0
-0.014801878 -0.049394984 0.017157162 0.95374334 0.3005403 0.0070076496 0
-0.04173243 -0.083002083 0.022490202 -0.85374403 -0.52064329 -0.0071956613 0
-0.037445128 -0.084142111 0.022541435 0.17000441 -0.98540276 0.008937642 0
-0.032491203 -0.083341122 0.022418238 0.15435551 -0.98799562 0.0062422114 0
-0.027374206 -0.082544796 0.02247376 0.15138495 -0.98847467 0.00057899632 0
-0.022308795 -0.081765331 0.022605268 0.1541914 -0.98803973 -0.0015722549 0
-0.017440619 -0.081032544 0.022689443 0.14460984 -0.98947859 -0.0044904966 0
-0.01306377 -0.080383435 0.022515681 0.16019303 -0.98706609 -0.0062255259 0
-0.042866368 -0.077524066 0.022483297 -0.98838705 -0.15191583 -0.003544817 0
-0.010523275 -0.077630326 0.022422854 0.99993092 0.0037865101 0.011122129 0
-0.043657422 -0.072530515 0.022414219 -0.98752856 -0.15735412 -0.0052014133 0
-0.01127956 -0.072393768 0.022306973 0.98831636 0.15189742 0.012566286 0
-0.044458605 -0.067411542 0.022691339 -0.98846716 -0.15136623 -0.0045701116 0
-0.01204715 -0.067379802 0.022379704 0.98839426 0.15164098 0.009043348 0
-0.04529278 -0.06189926 0.02254167 -0.98866349 -0.15008809 -0.0042404244 0
-0.044910189 -0.06444858 0.022633214 -0.98869103 -0.14991157 -0.0040770685 0
-0.012808787 -0.062519662 0.022652982 0.98704576 0.16023023 0.0081810765 0
-0.046018202 -0.057319243 0.022464238 -0.98561054 -0.16900064 -0.0032700168 0
-0.013585727 -0.057530858 0.022464801 0.98800868 0.15392251 0.012114356 0
-0.046088252 -0.053492256 0.022489011 -0.76769924 0.64080709 0.002003208 0
-0.04247639 -0.052464209 0.022576118 -0.13907319 0.99028075 -0.001652033 0
-0.037455514 -0.051735163 0.022570372 -0.14886002 0.98885328 -0.003156448 0
-0.032438941 -0.050970048 0.022475913 -0.15150268 0.98844916 -0.0039006935 0
-0.028087704 -0.050298434 0.02256462 -0.15487379 0.98792928 -0.0031311354 0
-0.014358446 -0.05233309 0.022466619 0.99073499 0.13366874 0.024022304 0
-0.025634076 -0.049912285 0.022251662 -0.154579 0.98797476 -0.0033368268 0
-0.0224098 -0.049396515 0.022569602 -0.16090667 0.98696738 -0.0020946551 0
-0.017387485 -0.048640355 0.022442624 0.0079292646 0.99996042 -0.0040423246 0
-0.014806344 -0.049419872 0.022772999 0.95335734 0.30183232 0.0026312137 0
-0.041800644 -0.082949527 0.027467307 -0.87762392 -0.47934937 0.00056074321 0
-0.037496731 -0.084119305 0.027570697 0.16048798 -0.98702163 0.0056378148 0
-0.032455035 -0.083308108 0.027389232 0.15359165 -0.98813117 0.0025180378 0
-0.027451918 -0.082540676 0.027562482 0.14997922 -0.98868656 0.0022380741 0
-0.022398449 -0.081782945 0.027511207 0.15133777 -0.98848182 0.00066304463 0
-0.017437484 -0.081029445 0.027612392 0.14445548 -0.98949587 0.0055245273 0
-0.012850775 -0.080361046 0.027590826 0.16236539 -0.98672122 0.0043391488 0
-0.042901389 -0.077419356 0.027362704 -0.98847425 -0.15134612 -0.0036291752 0
-0.010544004 -0.07771603 0.02747819 0.99998832 -0.0027750253 -0.0039408975 0
-0.043688789 -0.07242395 0.027447283 -0.98766351 -0.15656598 -0.0027742572 0
-0.011298748 -0.072619893 0.027455773 0.988464 0.15144937 0.0014365797 0
-0.044429649 -0.06769871 0.027473189 -0.98824245 -0.15288346 -0.001902423 0
-0.012088859 -0.06741114 0.027460383 0.98918641 0.14656034 0.0055026142 0
-0.045286339 -0.06206404 0.027453469 -0.98875916 -0.14945742 -0.0042204428 0
-0.044912413 -0.0645625 0.027744541 -0.98852324 -0.15104197 -0.0028672779 0
-0.012890744 -0.062287044 0.02741994 0.98736292 0.15814476 0.010235747 0
-0.046020295 -0.057433188 0.027463779 -0.98631871 -0.16480029 -0.0040307324 0
-0.013629035 -0.057528041 0.027597768 0.98819786 0.15318236 0.00036272765 0
-0.046272457 -0.053734101 0.027655791 -0.91268504 0.40865558 -0.0025770247 0
-0.042432521 -0.05245496 0.027410794 -0.13851273 0.99036068 9.399635e-05 0
-0.037451677 -0.051719621 0.027426589 -0.15086682 0.98854804 -0.0034530049 0
-0.032516975 -0.050958451 0.027709482 -0.15233913 0.98830569 -0.0066871098 0
-0.02819754 -0.050290558 0.027241606 -0.15363179 0.9881115 -0.0057374481 0
-0.014382744 -0.052548788 0.027572919 0.9914968 0.13008969 0.0032813495 0
-0.025720973 -0.049905509 0.02724777 -0.15415248 0.98803794 -0.0042390982 0
-0.022376575 -0.049378216 0.027466223 -0.15882078 0.98730123 -0.0034974925 0
-0.017416846 -0.04862253 0.027459653 -0.027308539 0.99962515 -0.0019598461 0
-0.014829471 -0.049444549 0.027356489 0.95244032 0.30439892 0.014097317 0
-0.041800514 -0.082984276 0.032394744 -0.86227614 -0.50639468 -0.0066578612 0
-0.037530899 -0.08409714 0.032566722 0.15552834 -0.98780715 0.0069230092 0
-0.032522123 -0.083314821 0.032628499 0.15039787 -0.98862445 0.0014304162 0
-0.027594442 -0.082569867 0.032536674 0.14969507 -0.98872989 -0.0021419132 0
-0.022503503 -0.081798136 0.032528985 0.15066908 -0.98858178 -0.0022207855 0
-0.017530873 -0.081050381 0.03253831 0.14755076 -0.98905313 -0.0016541245 0
-0.012837879 -0.080341995 0.032484271 0.18136831 -0.98341149 0.0027010283 0
-0.042889334 -0.077634752 0.032646775 -0.98865908 -0.15003555 -0.0065221447 0
-0.010528625 -0.077566363 0.03248518 0.99999785 0.0020772528 0.0002317952 0
-0.04369285 -0.072508767 0.032450773 -0.98780626 -0.15563799 -0.0039348146 0
-0.01132384 -0.072364546 0.032475568 0.98736733 0.1584094 -0.003500158 0
-0.044482484 -0.06744539 0.032494899 -0.98831737 -0.1523661 -0.0036620656 0
-0.012056228 -0.067633398 0.032505203 0.98858714 0.15059534 -0.0040534949 0
-0.04530457 -0.062072434 0.032433473 -0.98838502 -0.15186971 -0.0055311676 0
-0.044922661 -0.064576171 0.032287791 -0.98833925 -0.15218194 -0.0051121102 0
-0.012892194 -0.062495034 0.032616418 0.98699307 0.16059554 -0.0073366039 0
-0.046036236 -0.057477519 0.032469224 -0.98579681 -0.16786832 -0.0049875746 0
-0.013632083 -0.057624709 0.032531768 0.98861128 0.15049092 -0.00046698336 0
-0.046138559 -0.053585421 0.032645795 -0.82770318 0.56115228 -0.003948133 0
-0.04256478 -0.05246624 0.032420896 -0.13912398 0.99027449 -0.0010220961 0
-0.03759487 -0.051720414 0.032430094 -0.15429087 0.98801631 -0.0042602359 0
-0.032589838 -0.050936893 0.03262407 -0.15358101 0.98811835 -0.005898071 0
-0.028256735 -0.050266914 0.03239347 -0.15276051 0.988235 -0.0074626184 0
-0.014455456 -0.052385066 0.03256993 0.99095762 0.13378716 0.010195499 0
-0.025827505 -0.049889002 0.032764051 -0.1526316 0.98826277 -0.0063502504 0
-0.022434162 -0.049370527 0.032615852 -0.15542413 0.98784202 -0.0033937807 0
-0.017419251 -0.048633855 0.032412566 -0.00026602086 0.9999997 -0.00075996638 0
-0.014852016 -0.049508832 0.032591119 0.96841502 0.24922107 -0.0078282859 0
-0.041602127 -0.082751028 0.037192527 -0.78210282 -0.43822405 0.44302905 0
-0.037413113 -0.08274518 0.037958518 0.045823056 -0.67649984 0.73501575 0
-0.032570414 -0.082428366 0.037710365 0.13332304 -0.77338195 0.61976224 0
-0.027390184 -0.082003698 0.037470769 0.12159801 -0.82551569 0.5511241 0
-0.022583166 -0.081483722 0.037277751 0.13674422 -0.89046657 0.43401644 0
-0.017814476 -0.08092998 0.0370377 0.14104827 -0.95225489 0.2707693 0
-0.013084205 -0.08034388 0.03679356 0.15599038 -0.98121154 0.11353791 0
-0.042254262 -0.077312604 0.037493493 -0.84680021 -0.12994048 0.51579547 0
-0.037494104 -0.077341996 0.038943883 -1.6232458e-05 0.052439667 0.99862409 0
-0.032225396 -0.077214256 0.039007708 0.24190722 -0.077266328 0.96721804 0
-0.027499132 -0.07762368 0.038645271 0.017738128 -0.010266516 0.99978995 0
-0.022837589 -0.077696249 0.038883168 -0.21705158 -0.22602756 0.94963163 0
-0.017447719 -0.077620372 0.039035354 0.13060462 -0.16549131 0.97752494 0
-0.011916021 -0.077556439 0.037846841 0.62812608 -0.069550142 0.77499712 0
-0.042585749 -0.072607249 0.037629697 -0.71299922 -0.086423837 0.69581831 0
-0.037510581 -0.072403178 0.039040562 -0.15035619 0.1322359 0.97974831 0
-0.032425087 -0.072421364 0.039000552 0.17882207 0.16200894 0.97045135 0
-0.027497169 -0.072441377 0.038647186 -0.0078888489 0.0092097456 0.99992651 0
-0.022515969 -0.072606288 0.039007824 0.10102192 -0.098927364 0.98995346 0
-0.018062823 -0.072123654 0.038848881 -0.3719933 -0.3143357 0.87339228 0
-0.012476528 -0.072520018 0.03789242 0.79027772 0.12004428 0.60087478 0
-0.043239944 -0.06743028 0.03767829 -0.63866013 -0.098297961 0.76318455 0
-0.037671871 -0.067578956 0.038596831 -0.01199836 -0.013691016 0.99983424 0
-0.032472797 -0.067492753 0.038548328 0.048390366 0.015451985 0.99870896 0
-0.027589548 -0.067504205 0.038377725 -0.045083731 0.049205963 0.99777061 0
-0.022623923 -0.067472823 0.038815152 -0.14170749 0.20740616 0.96793687 0
-0.017277295 -0.067334317 0.03890156 0.12271158 0.31476554 0.94120371 0
-0.012731874 -0.06748838 0.037544165 0.79266888 0.11745825 0.5982303 0
-0.045312997 -0.062076155 0.036628067 -0.98538691 -0.14986899 0.08094465 0
-0.04282495 -0.062465094 0.038655311 -0.33095831 -0.13900782 0.93335062 0
-0.037556037 -0.062319614 0.038949173 -0.0066180504 0.20101017 0.97956675 0
-0.032468896 -0.062611319 0.038849931 0.2249956 -0.18212228 0.95718783 0
-0.027474055 -0.062541321 0.038643919 -0.085077368 -0.11131048 0.99013728 0
-0.022481153 -0.062797561 0.038962342 -0.076700404 -0.32196128 0.94364077 0
-0.017330969 -0.062494006 0.038779173 0.10233632 -0.11838664 0.98768008 0
-0.013265742 -0.062500849 0.037381612 0.85883713 0.13680953 0.49364144 0
-0.045945268 -0.057466771 0.03684618 -0.96372068 -0.15651083 0.2162102 0
-0.042402454 -0.057471458 0.038868133 -0.31114793 0.19897708 0.92929816 0
-0.037569657 -0.057713483 0.038889635 -0.055572078 -0.35245705 0.9341765 0
-0.032378539 -0.057503864 0.038891133 0.25803858 0.14660905 0.95494598 0
-0.027845662 -0.057586737 0.038870834 -0.38580391 -0.022639392 0.92230302 0
-0.022444051 -0.057555865 0.038784459 0.29340163 0.11257554 0.94933772 0
-0.017516552 -0.057547569 0.039040208 0.013545576 -0.035018422 0.99929488 0
-0.013816901 -0.057505343 0.036987323 0.94292313 0.15865792 0.29278576 0
-0.046060275 -0.05366696 0.036988467 -0.78281313 0.53775424 0.31308779 0
-0.042522818 -0.053011321 0.037343487 -0.12370608 0.83731318 0.53254426 0
-0.037372679 -0.052728493 0.037712593 -0.090082206 0.79410744 0.6010645 0
-0.03254303 -0.052140981 0.037624288 -0.11154655 0.67757362 0.72694659 0
-0.027704176 -0.05190574 0.038031444 -0.14170814 0.51427972 0.84583402 0
-0.022409128 -0.052314091 0.038949542 -0.024429766 0.17332767 0.98456115 0
-0.017365703 -0.052439265 0.038786951 0.16583745 0.17000666 0.97138846 0
-0.014438422 -0.052596539 0.036835104 0.98393101 0.13981952 0.1110418 0
-0.025708262 -0.049859222 0.036416262 -0.14882387 0.98826969 0.03427197 0
-0.022308765 -0.04940559 0.036869016 -0.15597273 0.97492337 0.15873545 0
-0.01744665 -0.048872847 0.037235875 0.05038799 0.92235786 0.38303649 0
-0.014832454 -0.049610723 0.036444657 0.964338 0.26014525 0.048751879 0
-0.036213621 -0.080334716 0.041280799 -0.2241594 -0.9685092 0.10836285 0
-0.033996027 -0.08028318 0.041313037 0.25595707 -0.96104205 0.10432714 0
-0.040026825 -0.075443976 0.040842839 -0.99397105 -0.092486866 0.05888759 0
-0.03814676 -0.077639587 0.04173106 -0.26915151 0.0750736 0.96016741 0
-0.032242589 -0.077606305 0.041623808 0.031079128 0.17289414 0.98444986 0
-0.021699045 -0.076405548 0.04167768 -0.44846758 -0.40492329 0.79681492 0
-0.017475879 -0.076704837 0.041625772 0.51286328 -0.55667049 0.6535207 0
-0.014917097 -0.075180016 0.041004267 0.94215512 -0.33264306 0.041137755 0
-0.040019415 -0.074860252 0.040645607 -0.99763471 0.063946009 -0.025217153 0
-0.037493356 -0.072611511 0.041620396 -0.43896031 0.41066873 0.79916519 0
-0.03266656 -0.072735101 0.041643567 0.34505939 0.30371773 0.88808203 0
-0.022818569 -0.072327115 0.041702658 -0.041392706 -0.25330949 0.96649933 0
-0.016647398 -0.071831785 0.041643288 -0.69256073 -0.34856123 0.6315574 0
-0.014669337 -0.072977327 0.041324731 0.98315465 0.046551134 0.17674813 0
-0.021585058 -0.069116123 0.041610487 -0.46250078 0.83301538 0.30360898 0
-0.018023347 -0.068996988 0.041842874 0.30495888 0.84114397 0.44662824 0
-0.041169509 -0.061895341 0.041587066 -0.55802143 -0.43549412 0.70636886 0
-0.037488505 -0.063420422 0.041610062 -0.049122304 0.055988245 0.9972223 0
-0.033934992 -0.061635748 0.041654266 0.49734846 -0.43824548 0.74872255 0
-0.025395023 -0.06065058 0.041244872 -0.70356572 -0.68235886 0.19844837 0
-0.022245958 -0.061256118 0.041650686 -0.1728117 -0.43333861 0.8845076 0
-0.018928491 -0.060979106 0.041632216 0.57097971 -0.73729795 0.36107308 0
-0.041219462 -0.057802919 0.041576095 -0.60842723 0.4521448 0.65221268 0
-0.037451677 -0.056327906 0.04167844 -0.030780341 -0.30924881 0.9504829 0
-0.033778675 -0.058046591 0.04167806 0.66534269 0.45646489 0.59072745 0
-0.026184456 -0.057572763 0.041689761 -0.90480334 -0.037245568 0.42419779 0
-0.024250701 -0.057786226 0.041330326 0.9403919 0.15610108 0.30215153 0
-0.01806231 -0.057385348 0.041666105 0.13169178 -0.11266894 0.98486698 0
-0.037381724 -0.05493189 0.040863149 0.015270552 0.99679559 0.078519441 0
-0.025503868 -0.054275483 0.041474402 -0.78573519 0.59490329 0.16944095 0
-0.022321273 -0.053546954 0.04168852 -0.08828377 0.37527531 0.92269951 0
-0.018801996 -0.054039232 0.041735481 0.6217562 0.66671878 0.41098088 0
