# .PCD v0.7 - Point Cloud Data file format
VERSION 0.7
FIELDS x y z normal_x normal_y normal_z curvature
SIZE 4 4 4 4 4 4 4
TYPE F F F F F F F
COUNT 1 1 1 1 1 1 1
WIDTH 454
HEIGHT 1
VIEWPOINT 0 0 0 1 0 0 0
POINTS 454
DATA ascii
-0.026946658 -0.052366585 -0.00011870574 0.0050994242 0.021355685 -0.99975896 0
-0.022208897 -0.053710818 -5.6011351e-05 -0.014557724 0.070819117 -0.997383 0
-0.017593289 -0.053746399 -7.86706e-05 -0.0041924771 -0.042965166 -0.99906772 0
-0.012881253 -0.053601686 -0.00011993647 -0.01256304 0.051415969 -0.99859834 0
-0.0072671901 -0.05345105 -0.00011942151 0.0022119107 0.038245 -0.99926591 0
-0.0030507047 -0.0533497 -0.00010722625 0.017686907 0.025241302 -0.99952495 0
0.0020567253 -0.052329943 -0.00010994365 0.086689554 0.0080318786 -0.99620301 0
-0.027779803 -0.047695361 -0.00013781679 -0.028355794 0.0068746032 -0.99957424 0
0.002355346 -0.047238201 -8.8707566e-05 0.059783231 0.0043957224 -0.99820173 0
-0.027819116 -0.042477868 -0.0001630255 0.0692854 0.00079763791 -0.99759656 0
0.0022512388 -0.042398971 -0.00013529061 0.11588999 -0.014961501 -0.99314934 0
-0.027988022 -0.037709896 -0.00019238217 0.0062135151 -0.00024262967 -0.99998063 0
0.0020716817 -0.037570264 -0.00015037815 -0.0040755938 -0.0039178841 -0.99998403 0
-0.028011153 -0.032406799 -0.00014081348 0.048795119 0.0038685757 -0.99880135 0
0.0018017566 -0.032296751 -0.00015108104 -0.018994328 -0.015302867 -0.99970251 0
-0.028323216 -0.027533719 -0.00016257896 -0.062040258 -0.003756772 -0.9980666 0
0.0018463348 -0.027387237 -0.00016623733 -0.042851206 0.0011897055 -0.99908078 0
-0.028450239 -0.022360826 -0.00017907769 -0.011640801 0.0067822607 -0.99990922 0
0.001684736 -0.022408634 -0.00017982004 -0.12752752 -0.01318043 -0.99174744 0
-0.028429927 -0.017571596 -0.00017444989 0.032461453 -0.019606227 -0.99928063 0
0.0015359154 -0.017526684 -0.00017609661 -0.10046513 0.011678477 -0.99487209 0
-0.028685354 -0.012320393 -0.00019574245 -0.068471998 -0.014358244 -0.99754965 0
0.0013538079 -0.01294918 -0.0001647334 -0.063393489 -0.0053003398 -0.99797446 0
-0.028733825 -0.0075005954 -0.00019537148 0.0079277223 0.01254481 -0.99988985 0
0.0013300582 -0.0073798201 -0.00017892159 0.047274668 0.0011246548 -0.99888134 0
-0.029001288 -0.0025007557 -0.00018977365 -0.15294026 0.0059290528 -0.98821759 0
0.0012847161 -0.0024902613 -0.0002007065 0.10686742 0.014901515 -0.99416161 0
-0.028810591 0.0027098104 -0.00014893863 0.074488528 0.033718966 -0.99665159 0
-0.00014699889 0.0014599364 -8.7951439e-06 -0.26576546 0.013355971 -0.96394521 0
0.0010896941 0.0021365902 -0.00013799376 0.079316877 0.0038591255 -0.99684197 0
-0.030032041 0.0078221029 -2.6013755e-05 -0.72707963 0.016128559 -0.68636376 0
-0.027889123 0.007519369 -0.00020741759 -0.016209323 0.026144365 -0.9995268 0
-0.022459427 0.0080095148 -0.00016537678 0.0030319877 -0.0500586 -0.99874169 0
-0.017472858 0.0082285078 -0.00020567482 -0.00083324272 0.040547755 -0.99917722 0
-0.012442335 0.008277989 -0.00022621239 0.0041147531 -0.025351821 -0.99967015 0
-0.0072774575 0.0084101716 -0.00016606228 0.01508142 0.013037197 -0.99980128 0
-0.0026099454 0.0085597523 -0.00017336293 -0.02135748 -0.007968395 -0.99974018 0
0.0010452216 0.0068745166 -0.00015224317 0.050070178 0.032056518 -0.99823111 0
-0.027037807 -0.055039082 0.0029888949 -0.012546929 -0.99992031 0.0013943341 0
-0.027235148 -0.052729089 0.0024852394 -0.83937067 -0.18728879 -0.51027417 0
-0.022601873 -0.053579323 0.0024712179 -0.62943745 0.2208048 -0.74501932 0
-0.017548084 -0.053587791 0.0025186681 0.76692319 -0.28344327 -0.57575059 0
-0.01270946 -0.053516433 0.0023481881 -0.01612322 0.2759394 -0.96103984 0
-0.007378682 -0.053271193 0.0024279929 -0.72285587 0.06388925 -0.68803895 0
-0.002502633 -0.05303666 0.0023599898 0.56067395 0.28616288 -0.77701712 0
0.002059014 -0.052519605 0.0024371785 0.57093686 -0.65737927 -0.49181646 0
-0.027261982 -0.047423959 0.0023388043 0.15621027 -0.19374977 -0.96853471 0
-0.015130305 -0.045051008 0.0041596252 -0.32586518 -0.94492251 -0.030551268 0
-0.01261262 -0.04533077 0.0034065866 0.038692895 -0.99288201 -0.11264195 0
-6.4825152e-05 -0.046115972 0.0033518032 -0.99968219 -0.003679194 -0.024941377 0
0.0019790076 -0.047518246 0.0024499339 0.22556584 -0.28922033 -0.93030733 0
-0.027852051 -0.042506773 0.0025854302 -0.53977519 0.2315034 -0.80935091 0
-0.017345661 -0.042537745 0.0033008161 -0.51194316 -0.45452958 -0.72891498 0
-0.012301833 -0.044061676 0.0032931846 -0.029294029 0.91709954 -0.39758065 0
-0.0080910148 -0.042264901 0.0032548765 0.53148007 -0.34500146 -0.77362961 0
0.0021064577 -0.042536363 0.0025828793 0.1457486 0.78122008 -0.60700279 0
-0.028005023 -0.037530649 0.0024464952 -0.74895412 0.0074810325 -0.6625796 0
-0.018686991 -0.037407931 0.0032608781 0.017918797 -0.30746737 -0.95138991 0
-0.007106754 -0.037529472 0.0032106526 0.14474045 -0.20031759 -0.96898043 0
0.0019861944 -0.037448034 0.002653423 -0.94754708 -0.026266228 -0.31853491 0
-0.027746497 -0.032331724 0.0024170368 -0.42317069 -0.34839854 -0.83638805 0
-0.016632836 -0.033565264 0.003213326 -0.40911493 0.55566078 -0.72378594 0
-0.012479029 -0.032526065 0.0032815447 0.075829886 -0.05449165 -0.99563068 0
-0.0086921901 -0.033795241 0.003220934 0.63580203 0.67394215 -0.37624159 0
-0.00027639946 -0.030613288 0.0025912069 -0.88375777 -0.46669018 -0.034242079 0
0.0018706128 -0.032546636 0.0024822766 0.38641068 -0.80248898 -0.45464075 0
-0.028196538 -0.027608227 0.0025019215 -0.21355331 0.71277851 -0.6680882 0
-0.017260673 -0.027080277 0.0031378828 -0.3830449 -0.33765396 -0.859806 0
-0.01240166 -0.02848316 0.0031884641 0.026233122 0.11054401 -0.99352497 0
-0.0087338481 -0.026759503 0.0032677467 0.48598158 -0.48199558 -0.72904199 0
-0.00022822095 -0.029426675 0.0030570945 -0.92785347 0.36796883 -0.060719501 0
0.0017921629 -0.027376585 0.0023741908 0.40335959 0.66626793 -0.62720656 0
-0.028183559 -0.022617254 0.0026887322 -0.42656973 -0.039736934 -0.90358138 0
-0.021769285 -0.022758374 0.0041169878 -0.59396106 -0.042537514 -0.80336851 0
-0.018933231 -0.022377839 0.0031809702 0.77153111 -0.028748266 -0.63554168 0
-0.0072899712 -0.022572724 0.0033278111 -0.083183661 -0.053876687 -0.99507678 0
-0.0026101691 -0.022405975 0.0045694076 -0.03594682 -0.064530067 -0.99726814 0
0.0016862428 -0.022528984 0.0025117982 -0.1369209 0.18805337 -0.97256804 0
-0.028297491 -0.017352965 0.0024021713 -0.18258795 -0.84291065 -0.50612575 0
-0.017103806 -0.017872615 0.0033169785 -0.48587871 0.40253872 -0.77581215 0
-0.012326268 -0.016776295 0.0031345822 -0.05471487 -0.11347878 -0.99203271 0
-0.0086825732 -0.018503947 0.0031124211 0.59327006 0.52417541 -0.61095887 0
-0.0002930362 -0.015124909 0.0024240713 -0.545834 -0.83783156 -0.010170897 0
0.001592899 -0.017507818 0.0023135678 0.22068012 -0.66076237 -0.71742141 0
-0.028357362 -0.012757801 0.0024543039 -0.0058301212 0.90556157 -0.42417476 0
-0.017069843 -0.011764135 0.0032419313 -0.51022905 -0.55196273 -0.65954781 0
-0.01247755 -0.01259241 0.0032776722 -0.1196 0.093279801 -0.98843038 0
-0.0090093566 -0.011265588 0.003128011 0.64833599 -0.64641982 -0.40224603 0
-0.00055012107 -0.013643265 0.0028696051 -0.97903585 0.14719218 -0.14079483 0
0.0017364542 -0.012008214 0.0024595037 0.96515477 0.17098637 -0.19809079 0
-0.028792491 -0.0075451876 0.0023617079 -0.5994038 -0.0075316979 -0.8004114 0
-0.020457007 -0.0071828468 0.0032743178 -0.97142279 -0.15625492 -0.17866775 0
-0.018954463 -0.0080569908 0.0031718782 0.85515434 0.25876844 -0.44916591 0
-0.010026649 -0.0099830143 0.004581789 -0.82907772 0.55901384 0.011560712 0
-0.0079660174 -0.0076229363 0.0032951618 0.096577473 0.20665887 -0.9736349 0
0.0012790456 -0.0075541092 0.0026677079 -0.4982959 0.0085420208 -0.86696494 0
-0.028726824 -0.0024523335 0.0024296159 0.55736715 -0.61925989 -0.55304527 0
-0.020449752 -0.0040885652 0.0036124203 -0.92055207 0.32479486 -0.21700747 0
-0.017525274 -0.0020935738 0.0031436505 -0.055767056 0.31580552 -0.94718361 0
-0.012071744 -0.0012251886 0.003149037 -0.18884717 -0.63953882 -0.7452026 0
-0.0086222747 -0.0031736437 0.0032565761 0.63181973 0.45381546 -0.62837523 0
0.0011497164 -0.0025496834 0.0024753485 -0.56439584 -0.072121225 -0.82234776 0
-0.028623007 0.0023353819 0.0023276317 -0.032524809 0.51948559 -0.8538599 0
-0.015128474 1.7132228e-05 0.0039792 -0.15845267 0.98697394 -0.027843792 0
-0.013600953 0.00013456338 0.0038498831 0.012796644 0.99960178 -0.025148258 0
-0.00069439877 0.002298089 0.0026820058 -0.98562306 -0.0041197077 -0.16890936 0
0.0016058255 0.0026603055 0.0021641729 0.99328947 0.018454216 -0.11417303 0
-0.03012662 0.0070592789 0.002697011 -0.99986702 -0.016166588 -0.0021410522 0
-0.027443586 0.0075780004 0.0024343394 0.58702314 0.71487731 -0.37993979 0
-0.022375382 0.0076474752 0.0023871996 0.15359476 0.10522343 -0.98251551 0
-0.017475655 0.0081462413 0.0025082568 0.16146258 -0.49866009 -0.85162663 0
-0.012472594 0.0083558569 0.002520307 -0.014301952 0.86526012 -0.5011192 0
-0.0073065953 0.0079714339 0.0023188672 -0.3333773 -0.4195686 -0.84428769 0
-0.0025270444 0.0084875552 0.0025123358 -0.64578253 0.53893626 -0.54084438 0
0.0012643024 0.0075140861 0.0025642368 0.80413997 0.57957035 -0.1321245 0
-0.026889743 -0.055014029 0.0070559043 -0.0027205024 -0.99999475 -0.0017620284 0
-0.027328722 -0.052592702 0.0075324541 -0.92211926 -0.38540864 0.034005888 0
-0.022400692 -0.053438708 0.0074852072 -0.92761987 0.14571251 -0.34393206 0
-0.017654052 -0.053193629 0.0076883486 0.42768508 -0.11715073 -0.89630413 0
-0.012546819 -0.053485673 0.0075311549 0.16517928 -0.19062045 -0.9676671 0
-0.007404455 -0.053116057 0.0076151337 -0.72369307 -0.23764609 -0.64791417 0
-0.0025276639 -0.052776795 0.0074931388 -0.35840043 -0.85216039 -0.38127658 0
0.0025483188 -0.05293341 0.0075549358 0.76018494 -0.64970285 -0.002254952 0
-0.027189581 -0.047362562 0.0074906773 -0.73473185 -0.14962916 -0.66164964 0
-0.024939099 -0.046284288 0.0098681338 0.82217377 0.017901547 -0.568955 0
-0.015715562 -0.046060611 0.0090879863 -0.46201181 -0.62158328 -0.63259733 0
-0.01253332 -0.045809112 0.0078460285 0.054180771 -0.91797537 -0.39291936 0
-0.0096993754 -0.045429606 0.0094494661 0.60429221 -0.57773465 -0.54868352 0
-0.0018046758 -0.047394041 0.0081863366 -0.71888179 0.10212638 -0.68758935 0
0.0027536091 -0.047480345 0.0072118179 0.99223429 0.045029569 -0.11594614 0
-0.027687965 -0.042527232 0.0074457331 0.56960136 0.22187109 -0.7914086 0
-0.020831268 -0.041282307 0.0094408421 -0.5610615 -0.24827234 -0.78966498 0
-0.017503301 -0.042476509 0.0073922235 -0.50685513 -0.55059159 -0.66328472 0
-0.012333677 -0.043685418 0.0073290751 -0.078225441 0.9962256 -0.037622508 0
-0.0080566723 -0.04234159 0.0075744106 0.65900785 -0.62002629 -0.42576525 0
-0.0015652843 -0.044173241 0.0094500221 -0.28067294 0.50178921 -0.81818718 0
0.0021080934 -0.042534973 0.00751322 0.58529538 0.7573337 -0.289612 0
-0.02785344 -0.037404623 0.0075976932 0.85563558 0.018032638 -0.51726443 0
-0.021043262 -0.037370101 0.0085315378 -0.79612738 -0.077487461 -0.60014737 0
-0.018303966 -0.037529506 0.0070451489 0.89581084 -0.42509288 -0.12968789 0
-0.0070919967 -0.037426721 0.0074315858 -0.54299933 -0.4272795 -0.72289968 0
-0.0040071933 -0.037086319 0.0096934568 0.41552931 -0.054125827 -0.90796793 0
0.0020667261 -0.037512694 0.0075848834 0.51869148 -0.12325147 -0.84603089 0
-0.027528074 -0.032527804 0.0075536426 0.63485688 -0.72161299 -0.27610049 0
-0.020924488 -0.033351064 0.0092357015 -0.574902 0.30044228 -0.76106644 0
-0.017344769 -0.032588709 0.0075027556 -0.54419851 0.6212855 -0.563784 0
-0.012019971 -0.032654781 0.0075175106 0.56482261 -0.82514203 0.010771018 0
-0.0082586864 -0.033640407 0.0077891583 0.58019561 0.76927525 -0.2675603 0
-0.00081327499 -0.031719599 0.0082804412 -0.80875885 -0.29611945 -0.50815582 0
0.0019240794 -0.032656398 0.0075138616 0.79808235 -0.46734253 -0.38033599 0
-0.028092803 -0.027523421 0.0075031002 0.33221579 0.89444196 -0.29934314 0
-0.020062003 -0.026230134 0.0098647047 -0.91049206 0.020150637 -0.41303539 0
-0.017311027 -0.027252221 0.0076013426 -0.71396643 -0.54194617 -0.4433355 0
-0.012015794 -0.027969584 0.0073972801 -0.15194477 0.9732101 -0.17255378 0
-0.0085538561 -0.026968783 0.0073343762 0.69742352 -0.70972407 -0.099459246 0
-0.00033834437 -0.029283723 0.0074675437 -0.93039954 0.36006674 -0.068619631 0
0.0018266991 -0.027266564 0.0075267623 0.69181377 0.71921742 -0.064187571 0
-0.027736964 -0.022630913 0.0074194064 -0.995749 -0.082239248 -0.041481111 0
-0.022388523 -0.022812909 0.0075457338 -0.98089957 -0.1111194 -0.1596515 0
-0.018549269 -0.022429412 0.0074566612 0.99806935 0.015099054 -0.060246337 0
-0.010238543 -0.024553725 0.0097427601 -0.73322612 0.27196491 -0.62322915 0
-0.0074220104 -0.022640331 0.0074289804 -0.84254116 -0.019829597 -0.5382669 0
-0.0026410064 -0.022162167 0.0075023398 -0.64997405 -0.5581407 -0.51576418 0
0.0018674743 -0.022907548 0.0072948015 0.9408381 -0.3352012 -0.049636427 0
-0.028234173 -0.017422872 0.0076047159 -0.28232414 -0.94780546 -0.14818148 0
-0.020566376 -0.017693529 0.0094683897 -0.71601564 0.017153187 -0.69787347 0
-0.01765682 -0.017689794 0.0074181552 -0.54798079 -0.15094285 -0.82275951 0
-0.012029311 -0.016914934 0.0074383905 0.52322686 -0.84804147 0.084020525 0
-0.0083032176 -0.018397542 0.0074420217 0.73139685 0.62119466 -0.28138223 0
-0.0011319538 -0.017315911 0.0089142509 -0.51458597 0.019962238 -0.8572064 0
0.0016161355 -0.017371593 0.0072602364 0.92919952 -0.057926007 -0.3650108 0
-0.028271653 -0.012600459 0.0076598125 0.084803171 0.95130217 -0.29636553 0
-0.020845724 -0.010985867 0.0095472317 -0.41379052 -0.38269773 -0.82602656 0
-0.017180262 -0.012208455 0.0075562787 -0.92389965 -0.16698763 -0.34427372 0
-0.012101267 -0.012230949 0.0074616456 0.2749311 0.96146262 -0.0015912375 0
-0.0086692208 -0.011365466 0.0073440042 0.7379998 -0.67105794 -0.07097584 0
-0.00088981155 -0.013427127 0.007752486 -0.95190227 0.20505783 -0.22766945 0
0.0018647271 -0.012043886 0.007449985 0.98807544 0.15306386 -0.016684484 0
-0.028679933 -0.0075471341 0.007530205 0.39836794 -0.16943294 -0.90144068 0
-0.02114966 -0.0073603611 0.0077088252 -0.88511646 -0.1962992 -0.42194259 0
-0.01864567 -0.0079683671 0.0073527773 0.96733493 0.25117564 -0.034264572 0
-0.010301149 -0.009611642 0.0084698014 -0.85260069 0.42957914 -0.29754636 0
-0.0078598242 -0.0074684368 0.0075468724 -0.14031279 0.27724254 -0.9504993 0
-0.0045922184 -0.0050153979 0.0099602938 0.29813248 -0.16234563 -0.94061732 0
0.0013968939 -0.0074250554 0.0074539441 0.98562074 0.0092715593 -0.1687181 0
-0.028682761 -0.0022511408 0.0076634018 -0.21256086 -0.72049087 -0.66008395 0
-0.021299502 -0.0031443993 0.0081736026 -0.71529615 0.31866106 -0.62193781 0
-0.017634826 -0.0023144439 0.0071660057 0.71954316 -0.50861526 -0.47283003 0
-0.01211553 -0.0015918872 0.0074057966 -0.21996383 -0.97279644 -0.072683647 0
-0.0079181455 -0.0026544358 0.0079511898 0.51183975 0.47624075 -0.71499288 0
-0.0022648049 -0.0022291678 0.0097469296 -0.20070143 -0.05513934 -0.97809941 0
0.0013143807 -0.0024645221 0.0073209424 0.97580981 -0.021916475 -0.21751986 0
-0.028508645 0.0023275078 0.007477066 -0.047178563 0.9916749 -0.11981262 0
-0.020340359 0.00080493867 0.0098704705 -0.29960898 0.32973841 -0.89526927 0
-0.016946079 0.001285744 0.008780662 -0.21493217 0.66568434 -0.71461082 0
-0.012676932 0.00087266823 0.0078448784 0.16504249 0.85649806 -0.48905212 0
-0.0086183622 0.00071774371 0.0097787194 0.23410086 0.16419788 -0.95824617 0
-0.0011186249 0.002246483 0.0077564009 -0.96200681 0.043528039 -0.26953351 0
0.0019047116 0.0025022407 0.0075719338 0.99995613 0.0073137819 -0.005845001 0
-0.030097216 0.0070421584 0.0075661107 -0.99961799 -0.026070025 0.0091824345 0
-0.027601723 0.0075000944 0.0075069913 0.52144045 0.84997326 -0.075136304 0
-0.022402225 0.0074237883 0.0074893227 -0.002899179 -0.91029805 -0.41394329 0
-0.017452888 0.008161542 0.0076008677 0.090889089 0.81121904 -0.57763565 0
-0.012550533 0.0082568061 0.0074735335 -0.26071629 0.24114862 -0.93481249 0
-0.007444581 0.0078595625 0.0076159057 -0.6195578 -0.35767722 -0.69872391 0
-0.0023745683 0.0082857534 0.007441829 -0.65961957 -0.74220055 -0.11849219 0
0.0012251055 0.007369142 0.0073531135 0.81857598 0.57432854 -0.0089446642 0
-0.0269947 -0.055010479 0.011483731 0.024343397 -0.99966186 0.0091353515 0
-0.02729906 -0.052812811 0.012295681 -0.87254268 -0.4331983 -0.2258507 0
-0.022717999 -0.053681314 0.01199374 -0.17772999 -0.90287775 -0.39143825 0
-0.017262105 -0.054508001 0.012543796 0.035975054 -0.99859297 -0.038960539 0
-0.012326341 -0.05306362 0.011889436 0.12713701 -0.88019878 -0.4572596 0
-0.0079356376 -0.053861484 0.012045461 -0.058411051 -0.98796701 -0.14321057 0
-0.0027055726 -0.053006526 0.011973605 0.011329308 -0.98540449 -0.16985209 0
0.0024936029 -0.053050339 0.012377743 0.74487895 -0.66719115 0.0033572835 0
-0.027603421 -0.04803434 0.012246708 -0.93901843 -0.27692905 -0.20384951 0
-0.022512041 -0.047534011 0.010805991 -0.14008693 -0.13882802 -0.9803583 0
-0.01784002 -0.047579151 0.010277297 -0.079413921 0.047098164 -0.99572849 0
-0.012403258 -0.048848774 0.010465168 0.08925236 -0.3062861 -0.94774622 0
-0.0073179589 -0.047718018 0.010332077 -0.0314008 0.0044414154 -0.99949706 0
-0.0040271613 -0.048553869 0.010506768 -0.17213671 -0.49110144 -0.85392523 0
0.0032840034 -0.04763734 0.01239118 0.99963731 0.026432591 -0.0051405043 0
-0.027491644 -0.042170893 0.012213599 -0.91970128 0.21276416 -0.32997105 0
-0.022953508 -0.042683568 0.010655951 -0.31511015 0.035548124 -0.94838911 0
-0.017106757 -0.042339366 0.010902164 0.49587843 0.27845737 -0.82253647 0
-0.01257635 -0.04209299 0.011402051 -0.23354226 0.43753707 -0.86834276 0
-0.0072436524 -0.043057319 0.010361195 -0.082848147 -0.051617343 -0.9952246 0
-0.0026653016 -0.041868638 0.01074784 0.25914544 0.15987872 -0.95251369 0
0.0023163483 -0.042172138 0.012338914 0.93473673 0.27678338 -0.22284122 0
-0.027688349 -0.037563968 0.012087034 -0.87649482 -0.17469789 -0.44859493 0
-0.023550058 -0.037498247 0.010946558 -0.58767277 -0.043874975 -0.80790824 0
-0.016843021 -0.037524391 0.011675725 0.66309339 -0.17265928 -0.72835159 0
-0.012399511 -0.037563339 0.012326318 -0.070020244 0.10986182 -0.99147749 0
-0.0086261397 -0.037667207 0.011237387 -0.71876806 0.022922134 -0.69487196 0
-0.001858714 -0.037909314 0.010499542 0.16797106 -0.24126692 -0.95581174 0
0.0025119602 -0.037863228 0.012260632 0.98645186 -0.13157055 -0.097989678 0
-0.028090786 -0.032781735 0.012206074 -0.94134808 -0.17058028 -0.29114649 0
-0.023074098 -0.032292992 0.010573585 -0.2498136 0.043719366 -0.96730649 0
-0.016485291 -0.03171001 0.010746644 0.31958556 0.54969716 -0.77181476 0
-0.012057425 -0.032944404 0.011389459 0.24698739 -0.45761776 -0.85415649 0
-0.0076699117 -0.031729404 0.011176264 -0.11964796 0.4692449 -0.8749249 0
-0.0025895506 -0.032311447 0.01040195 -0.15472595 0.13344842 -0.97890317 0
0.0028816729 -0.032348402 0.012551947 0.99972004 0.022624826 -0.0069289231 0
-0.027750842 -0.02731687 0.012201244 -0.65378946 0.49694195 -0.57062072 0
-0.022247065 -0.027253883 0.011485946 -0.36541659 0.36665338 -0.85559106 0
-0.016921837 -0.027831469 0.010849393 0.20316339 0.14404681 -0.96849114 0
-0.012390003 -0.027406264 0.011102737 -0.084156573 -0.037917729 -0.99573088 0
-0.0072474941 -0.027776005 0.011282487 0.39301527 -0.31958383 -0.8622095 0
-0.0024022309 -0.02740103 0.012056054 -0.014200142 0.52026904 -0.85388428 0
0.0020351522 -0.027128581 0.012146661 0.9408282 0.29253194 -0.17107713 0
-0.027649324 -0.022544738 0.012195041 -0.88913941 -0.061914589 -0.45342889 0
-0.022824068 -0.022866582 0.011784863 -0.58209658 -0.28564176 -0.76129651 0
-0.017024729 -0.022711242 0.011578377 0.45140263 0.060925644 -0.89023799 0
-0.012598959 -0.022492934 0.011546392 -0.20651177 0.21400563 -0.95475358 0
-0.0071344771 -0.021835549 0.011142224 0.23303483 0.088134877 -0.96846628 0
-0.0028496117 -0.022757677 0.012361148 -0.010017967 -0.72614789 -0.68746543 0
0.0020745422 -0.022987787 0.012475112 0.99158794 -0.079236552 -0.10234707 0
-0.028000783 -0.017670343 0.011902377 -0.76601583 -0.35865095 -0.53346908 0
-0.022839453 -0.017586442 0.010942148 -0.3533884 -0.25392842 -0.90035385 0
-0.016280124 -0.019059394 0.011254629 0.57639331 -0.68163735 -0.45071203 0
-0.012408395 -0.017601194 0.011372359 0.044578385 -0.27649307 -0.95998138 0
-0.0072528091 -0.01726084 0.010780474 0.053853497 0.16696882 -0.98449033 0
-0.0037589381 -0.017976457 0.010854411 -0.30891663 -0.40724263 -0.85949057 0
0.0025176257 -0.017551463 0.012369819 0.99971622 0.023817103 0.00038484734 0
-0.028259266 -0.012295525 0.011805427 -0.83551395 0.24024904 -0.49416274 0
-0.02284742 -0.012596545 0.01057723 -0.22470441 0.019872544 -0.97422433 0
-0.017250527 -0.013034775 0.01076124 0.092878476 0.361913 -0.9275735 0
-0.012287718 -0.012679563 0.01123594 0.31366739 -0.2427081 -0.91798991 0
-0.0072934898 -0.012809113 0.010962399 -0.045456983 -0.28414112 -0.95770425 0
-0.0028055767 -0.012164132 0.010878221 -0.026777731 0.32668892 -0.94475251 0
0.0021720328 -0.012366238 0.012488324 0.99820471 0.058021855 -0.014863261 0
-0.028104197 -0.0074571664 0.012256308 -0.81278074 -0.12861106 -0.56819588 0
-0.023955058 -0.0075512528 0.010967961 -0.62994075 -0.084358603 -0.77204806 0
-0.017324466 -0.0074393074 0.011500531 0.51811022 0.2398079 -0.82100785 0
-0.012441319 -0.0075683356 0.011421157 -0.2553992 0.24848859 -0.93435788 0
-0.0077453712 -0.0073582102 0.010549154 -0.19627239 0.13029812 -0.97185373 0
-0.0022107614 -0.0074764588 0.01162259 0.38000762 -0.23361015 -0.89499754 0
0.0015260375 -0.0076337704 0.012047512 0.99727166 0.016521549 -0.071946271 0
-0.028335195 -0.0027191225 0.01173874 -0.83735287 -0.23525214 -0.49345374 0
-0.023908775 -0.0023477243 0.010416198 -0.33122468 0.019395776 -0.94335252 0
-0.016733903 -0.003489461 0.011432002 0.56177157 -0.54529011 -0.62215066 0
-0.012655655 -0.0028501998 0.011616133 -0.21750623 -0.58903533 -0.77828562 0
-0.0095682386 -0.0040648333 0.011086473 -0.7967509 -0.43860543 -0.41570809 0
-0.0023410951 -0.0040481384 0.010219061 0.027441341 -0.26876143 -0.96281582 0
0.0021312269 -0.002636821 0.012477736 0.99968112 0.024859076 -0.0044506504 0
-0.028359059 0.0026661574 0.012257194 -0.805314 0.21090861 -0.55406392 0
-0.022517554 0.0027257868 0.011227188 -0.33841994 0.26400554 -0.90320152 0
-0.017487012 0.0037600053 0.010555792 0.05494424 0.35513765 -0.93319786 0
-0.012487032 0.0039658612 0.010758991 -0.11498323 0.49682215 -0.86020148 0
-0.0071909656 0.003047646 0.010390242 0.10696304 0.15862024 -0.98152864 0
-0.0029228753 0.0032945743 0.010823379 -0.15229559 0.5379861 -0.82908201 0
0.0020053147 0.0023853516 0.012378789 0.99968821 0.024800448 -0.0028847151 0
-0.030065605 0.0070526246 0.012623202 -0.99998671 -0.0043500005 -0.002745837 0
-0.027522748 0.0076425984 0.012103216 -0.13649374 0.94350791 -0.3019309 0
-0.022887615 0.0078068879 0.012258094 -0.29919308 0.90964341 -0.28815335 0
-0.017280528 0.0081414832 0.012067446 0.19337153 0.9217332 -0.33617753 0
-0.012834536 0.0079570571 0.012217079 -0.23773392 0.85998374 -0.45156464 0
-0.0072296569 0.0085157137 0.012075269 0.063951872 0.96977812 -0.23545797 0
-0.0023433119 0.0078872116 0.012280253 -0.1659717 0.82243276 -0.54411191 0
0.0015190064 0.0079008313 0.012427471 0.89186031 0.45227489 -0.0057129445 0
-0.027263423 -0.052884698 0.017611567 -0.64507258 -0.44595918 0.62048513 0
-0.022551904 -0.053290471 0.018192006 -0.047915027 -0.72061187 0.69168109 0
-0.017504087 -0.053319041 0.017985726 0.090029739 -0.74861228 0.65686709 0
-0.01246867 -0.053129409 0.017928563 0.012724325 -0.59976083 0.80007815 0
-0.0074448073 -0.053165626 0.017962893 -0.040713456 -0.74703735 0.66353416 0
-0.0025897501 -0.053084824 0.017958997 0.071132794 -0.7963627 0.60062176 0
0.0022627253 -0.052619752 0.017584169 0.63368565 -0.48953986 0.59899348 0
-0.027645247 -0.04745115 0.017776735 -0.84776294 -0.025170173 0.52977777 0
-0.021863047 -0.047596417 0.01893854 0.35070825 0.21515909 0.9114331 0
-0.017501861 -0.047106069 0.019117348 0.089400969 0.10862087 0.99005497 0
-0.012549254 -0.047589485 0.018746916 -0.017795093 0.0049621733 0.99982935 0
-0.007371428 -0.047430567 0.019067841 0.21626918 0.032735124 0.9757849 0
-0.0028696335 -0.04762394 0.019043252 -0.22907583 0.26927689 0.935422 0
0.0022196004 -0.047504462 0.017958609 0.7571665 0.017150939 0.65299666 0
-0.027701207 -0.042563315 0.017802987 -0.75789642 -0.0031827616 0.65236723 0
-0.022337709 -0.042443164 0.019105503 -0.038380902 0.15874518 0.98657328 0
-0.017350975 -0.042594679 0.018980913 0.15932436 0.20378774 0.9659639 0
-0.01255722 -0.042454291 0.018721368 -0.0038403063 -0.00084261934 0.99999231 0
-0.007671494 -0.042646304 0.019091045 -0.15316294 0.10673441 0.98241991 0
-0.0024714794 -0.042566542 0.018956898 0.13673215 0.12088078 0.98320502 0
0.0023984408 -0.042735651 0.017639849 0.78452218 0.025459461 0.61957788 0
-0.02789033 -0.037328511 0.01778733 -0.71551347 -0.022703001 0.69823003 0
-0.022340095 -0.03730401 0.01886062 -0.03419584 -0.24341199 0.96931994 0
-0.017592179 -0.037208606 0.018783065 0.068779781 -0.12009577 0.99037689 0
-0.01254326 -0.037428774 0.018704496 0.00076562871 0.015317133 0.99988234 0
-0.0074279699 -0.037246045 0.018766003 -0.018478185 -0.12466391 0.99202693 0
-0.0025838057 -0.037402168 0.018730033 0.01915996 -0.072241418 0.99720311 0
0.0022851308 -0.037472766 0.017621925 0.75937515 0.018706771 0.65038401 0
-0.027778739 -0.032542303 0.017961649 -0.81677043 -0.064628206 0.57333183 0
-0.022325445 -0.03240753 0.019007441 0.24149971 0.26378098 0.93386155 0
-0.017038325 -0.032442752 0.019073857 0.21154813 -0.11110616 0.97103184 0
-0.012374904 -0.032300252 0.018684989 -0.10727361 0.00028205939 0.99422956 0
-0.0072796908 -0.032372486 0.018991714 0.071708001 0.018899627 0.99724662 0
-0.0024560622 -0.032286525 0.01912597 0.055219084 -0.0061948975 0.99845505 0
0.0022103444 -0.0323967 0.017636623 0.79323089 0.024850344 0.6084137 0
-0.028024973 -0.027669052 0.017728847 -0.81179243 0.033722945 0.58297151 0
-0.022212524 -0.027244203 0.019068765 0.031256504 0.12473038 0.99169827 0
-0.017613146 -0.027463282 0.018948082 0.099392861 0.18397702 0.9778924 0
-0.012467205 -0.027652929 0.018623078 -0.05817166 0.028933622 0.99788719 0
-0.0072967708 -0.027523456 0.01906321 -0.10022132 0.19493298 0.97568274 0
-0.0024439201 -0.027416792 0.018966302 0.15627831 0.11884174 0.98053747 0
0.0020695201 -0.027469771 0.017453562 0.80109227 0.025829948 0.59798324 0
-0.027964909 -0.022385923 0.017849019 -0.64812207 -0.01960865 0.76128393 0
-0.022361007 -0.022412933 0.018641969 0.0017956068 -0.025734656 0.99966723 0
-0.017261822 -0.02241228 0.018547628 0.061646808 -0.011976015 0.99802619 0
-0.012401492 -0.022661371 0.018362273 -0.037863366 0.0038371915 0.99927557 0
-0.0075085759 -0.022410925 0.018584887 -0.0085766828 0.012091802 0.99989015 0
-0.0024933082 -0.022449454 0.018591018 -0.0084045595 -0.0021749365 0.99996233 0
0.0021355802 -0.022443103 0.01738316 0.85532045 0.026888577 0.51740104 0
-0.028003452 -0.017477078 0.017933674 -0.71481925 -0.063759647 0.69639659 0
-0.022639606 -0.017473958 0.019089073 0.18542042 0.014344659 0.98255455 0
-0.017481256 -0.017505471 0.018986212 0.14118311 -0.17683831 0.97406143 0
-0.012541388 -0.017504698 0.018604033 -0.061181847 -0.032791391 0.99758786 0
-0.0073891133 -0.017671729 0.019004991 -0.15880901 -0.11624981 0.98044163 0
-0.0023503117 -0.017633632 0.01906324 0.18275696 -0.22378618 0.95735031 0
0.0019661698 -0.017464632 0.017494051 0.82575434 0.026133602 0.56342429 0
-0.028154057 -0.012430578 0.017882308 -0.76483655 0.040255681 0.64296538 0
-0.022402979 -0.012686809 0.018989906 0.20355944 -0.050464138 0.97776115 0
-0.017385837 -0.012470549 0.01902537 0.16906823 0.14379659 0.97505814 0
-0.012436168 -0.01252439 0.018655512 -0.13256522 0.010235003 0.99112147 0
-0.0074957148 -0.01247776 0.019053401 0.0080749169 0.049019609 0.99876517 0
-0.0022178749 -0.012457221 0.019080089 0.15806174 0.036194347 0.98676562 0
0.0018679675 -0.01264411 0.017442409 0.83073765 0.019006763 0.5563395 0
-0.028286379 -0.0075159161 0.017774303 -0.63200754 -0.018556258 0.77474004 0
-0.022392936 -0.0075836051 0.018676015 0.014018555 0.072202899 0.99729139 0
-0.017488003 -0.0075210477 0.018614911 -0.0056051598 -0.0070685055 0.99995935 0
-0.012429585 -0.0075921402 0.018630428 0.0050506825 -0.0077614272 0.99995708 0
-0.0074761589 -0.0076348814 0.018694313 -0.030895511 0.14282912 0.98926508 0
-0.0026246521 -0.0075650844 0.018664232 0.031135963 0.080241814 0.99628901 0
0.0018292983 -0.0075344774 0.017401626 0.86219126 0.013815973 0.50639445 0
-0.028108971 -0.0023243595 0.01805135 -0.65296924 -0.10005728 0.75074619 0
-0.022586307 -0.0022827478 0.019037412 0.036093641 0.031932574 0.99883813 0
-0.017284868 -0.0027377692 0.018880369 0.19498391 -0.18988146 0.96225065 0
-0.012364412 -0.0022844116 0.018692007 -0.079908878 -0.033975068 0.99622297 0
-0.0074432883 -0.0026342287 0.019034926 -0.059441157 -0.23410758 0.97039181 0
-0.0025609916 -0.0024985957 0.01897192 0.14420642 -0.15483189 0.97735947 0
0.0017351583 -0.0026203578 0.017378928 0.87568504 0.030244414 0.48193458 0
-0.02844898 0.0025143791 0.018004412 -0.76797265 0.059860054 0.63767922 0
-0.022458237 0.0022267762 0.018845776 0.29722837 -0.31696069 0.90066159 0
-0.017508585 0.002518343 0.018990748 0.13864374 0.13502158 0.98109484 0
-0.012390575 0.0024747911 0.018776366 -0.24036203 0.033630829 0.97010058 0
-0.0070960871 0.0025799186 0.018866485 0.35589382 -0.33716506 0.87158436 0
-0.0023797625 0.0022918731 0.01904746 -0.015936716 0.043012965 0.99894744 0
0.0016526363 0.0025491016 0.017267184 0.89562643 0.033015329 0.44358006 0
-0.03006864 0.0069176923 0.016519191 -0.9995814 -0.016306389 0.023901181 0
-0.027542127 0.0077541368 0.017691806 -0.22128242 0.68743718 0.69171107 0
-0.022568345 0.0078963544 0.017945131 -0.012472062 0.79552722 0.60578936 0
-0.017582465 0.0079009505 0.017808614 0.01636705 0.76919478 0.63880467 0
-0.012479394 0.0081022242 0.017744729 -0.018870471 0.64070237 0.76755744 0
-0.007637342 0.0081072347 0.017969979 -0.068198495 0.72969812 0.6803599 0
-0.0024995443 0.0081057288 0.017816918 0.051394023 0.76363707 0.64359707 0
0.0013741981 0.007590285 0.017392149 0.77481294 0.30769256 0.55225915 0
-0.022130519 -0.05086657 0.022001017 -0.34512916 -0.84875661 0.40062222 0
-0.018668121 -0.050894514 0.021654829 0.4706769 -0.84403962 0.25702238 0
-0.0064090947 -0.050614726 0.021612635 -0.35837531 -0.91622257 0.17917426 0
-0.0035514308 -0.050721724 0.021907553 0.27677795 -0.87607092 0.39483386 0
-0.025296502 -0.047199398 0.021390302 -0.98989707 -0.050214119 0.13259807 0
-0.023223111 -0.048314046 0.021762639 0.60106611 0.46484026 0.65011007 0
-0.01729431 -0.047663335 0.021642739 0.026982389 0.18700664 0.98198801 0
-0.0080882777 -0.047728203 0.021545697 -0.24446297 0.21185757 0.9462316 0
-0.0017562151 -0.047823358 0.021658288 0.051696938 0.36496672 0.92958415 0
6.5589491e-05 -0.046375152 0.020855974 0.99886221 -0.0025260674 0.047621299 0
-0.025083192 -0.044864003 0.021066196 -0.90852022 0.40903148 0.085347727 0
-0.022442294 -0.04327628 0.021778125 -0.32642722 0.39423904 0.85908145 0
-0.018182598 -0.043487854 0.021632977 0.54446447 0.61093044 0.57473683 0
-0.0070738639 -0.043060813 0.021606604 -0.49192631 0.57327706 0.65525717 0
-0.0025460285 -0.043138612 0.021693625 0.582178 0.45184284 0.67594886 0
-0.021461099 -0.035422441 0.021491488 -0.11303684 -0.98040843 0.16131343 0
-0.019401411 -0.03524629 0.021164814 0.36159894 -0.92868495 0.08240436 0
-0.0056954254 -0.035117131 0.021470223 -0.16876552 -0.98262686 0.077217661 0
-0.0044394606 -0.035133924 0.02091332 0.19962507 -0.9775427 0.067528211 0
-0.025487343 -0.031870101 0.021530813 -0.92807943 -0.21423647 0.30458388 0
-0.023110652 -0.033212245 0.021763274 0.43448073 0.49738258 0.75089079 0
-0.017864404 -0.032559853 0.021545522 0.21547736 0.012923429 0.97642326 0
-0.010042373 -0.030465808 0.020931464 -0.99800658 0.0027824885 0.06304834 0
-0.0078492658 -0.032855395 0.021582505 -0.17370728 -0.29652134 0.9390958 0
-0.0024078917 -0.032799117 0.021600049 0.3497493 -0.18634763 0.91812307 0
-0.025451465 -0.029136261 0.021170009 -0.91940093 0.34918672 0.18102647 0
-0.022561528 -0.02747722 0.021636549 -0.016029973 -0.10203346 0.99465179 0
-0.018346919 -0.028057234 0.02158137 0.24121182 0.27908775 0.92947668 0
-0.010036444 -0.029833917 0.020373052 -0.99258196 0.11738513 0.031649414 0
-0.0076238518 -0.027607596 0.021591129 -0.32538804 0.36687574 0.87150723 0
-0.0025746126 -0.027668579 0.021664038 0.45981839 0.32675692 0.82570994 0
-0.025658173 -0.016586641 0.021615438 -0.90501058 -0.35195443 0.23892245 0
-0.022868471 -0.018016867 0.021741796 0.32359719 -0.0972156 0.9411875 0
-0.018356821 -0.017306039 0.021576529 0.54044527 -0.40926948 0.73513091 0
-0.010154738 -0.015627492 0.021106053 -0.94687843 -0.30409434 0.10463236 0
-0.0074746702 -0.017643418 0.021673566 -0.20412506 -0.31158122 0.92803562 0
-0.002753044 -0.017116422 0.021532895 0.46874544 -0.38642269 0.7943269 0
-0.025743868 -0.013329885 0.021474665 -0.90050805 0.32228673 0.29191864 0
-0.022727022 -0.011719059 0.021625951 0.42544499 -0.056258753 0.90323395 0
-0.018215759 -0.012506742 0.021640103 0.54593724 0.46543747 0.69664949 0
-0.010248868 -0.013943758 0.021140486 -0.98403215 0.11990353 0.13154402 0
-0.0078932373 -0.011993887 0.021723548 0.069892056 -0.15155599 0.98597461 0
-0.0025233529 -0.012313797 0.021632474 0.36264735 0.24633868 0.89877921 0
-0.02124911 -0.0099652056 0.021847924 -0.063624218 0.99060512 0.1210515 0
-0.0060189338 -0.0097812414 0.021367589 -0.14314315 0.9785195 0.1483563 0
-0.0043951329 -0.0098379701 0.02149209 0.28100738 0.95504642 0.094452187 0
-0.025734169 -0.0013614232 0.02174861 -0.84109735 -0.47920993 0.25082472 0
-0.022541083 -0.0024323126 0.021600626 0.24573772 -0.071474105 0.96669769 0
-0.01880149 -0.0016395935 0.021650188 0.52482998 -0.5198797 0.67400193 0
-0.010192403 -0.00044933966 0.021462597 -0.90323955 -0.39677331 0.16349117 0
-0.0073759872 -0.0019967097 0.021737145 -0.14959167 -0.318483 0.93605065 0
-0.0032757099 -0.0015669093 0.021594794 0.54487211 -0.44174021 0.71272719 0
-0.025932129 0.0021689923 0.021784078 -0.86056894 0.26110774 0.43731457 0
-0.023273062 0.0033988813 0.021514736 0.48421183 -0.77408111 0.40784484 0
-0.018280247 0.0022488695 0.021566888 0.1107847 0.02337902 0.99356937 0
-0.010414762 0.0018786438 0.021478806 -0.96586782 0.11121274 0.23394701 0
-0.0082115987 0.00317003 0.021545352 0.63773751 -0.48419717 0.5990358 0
-0.0025556579 0.0026890344 0.021686561 -0.053636942 -0.2589384 0.96440345 0
-0.022156518 0.0056326627 0.021703459 -0.10334668 0.9665553 0.2347133 0
-0.019429158 0.0052751792 0.02151989 0.44693872 0.88472605 0.13230914 0
-0.0069940756 0.0057735257 0.021696953 -0.31065434 0.88253367 0.35302716 0
-0.0036930919 0.0056127231 0.021590289 0.4634079 0.87161213 0.15982898 0
