# .PCD v0.7 - Point Cloud Data file format
VERSION 0.7
FIELDS x y z normal_x normal_y normal_z curvature
SIZE 4 4 4 4 4 4 4
TYPE F F F F F F F
COUNT 1 1 1 1 1 1 1
WIDTH 636
HEIGHT 1
VIEWPOINT 0 0 0 1 0 0 0
POINTS 636
DATA ascii
-0.023801845 -0.035574861 0.012576579 0.44049537 -0.89738828 -0.025656208 0
-0.03224818 -0.032377057 0.012369592 -0.89819986 -0.43957233 0.0036307604 0
-0.021350484 -0.034357809 0.012367746 0.44425589 -0.89563954 -0.021599477 0
-0.017488172 -0.032450616 0.012406295 0.4413164 -0.89721358 -0.015738787 0
-0.013844274 -0.030635923 0.012765097 0.45209146 -0.89194697 -0.006617574 0
-0.035482422 -0.025809282 0.012709683 -0.89720047 -0.44149372 0.010703688 0
-0.034156114 -0.028496027 0.012509512 -0.8963865 -0.44324687 0.0048473198 0
-0.011107198 -0.02946266 0.012269246 0.36781496 -0.92988563 -0.0049958164 0
-0.0075403405 -0.027804969 0.012502181 0.43561342 -0.90008402 -0.0094743771 0
-0.0033490784 -0.025770385 0.012501367 0.43709379 -0.89939433 -0.0062261359 0
-0.037059564 -0.022508215 0.012302474 -0.90421534 -0.42677933 0.015938437 0
-0.00088182499 -0.024573341 0.012697877 0.43647009 -0.89970887 -0.0042182701 0
0.0026981309 -0.02282794 0.012505952 0.43484768 -0.90050119 -0.0022599115 0
0.006861906 -0.021001462 0.012342053 0.39065909 -0.92035866 0.018038286 0
-0.040378753 -0.015757365 0.012395567 -0.90041876 -0.43498904 -0.0055451258 0
-0.039083507 -0.0184267 0.012448683 -0.895033 -0.44599009 -0.0029546621 0
0.0094928257 -0.019756354 0.012806789 0.43503022 -0.90026903 0.016257264 0
0.012291996 -0.018393217 0.012792678 0.43790036 -0.89898503 0.0083134687 0
0.01713128 -0.016054656 0.012417145 0.42930844 -0.90313119 0.006956927 0
-0.041943658 -0.01255525 0.012313521 -0.89689845 -0.44215938 -0.0082634939 0
0.019696679 -0.014874409 0.012320763 0.39553672 -0.91832608 0.015095232 0
0.020823207 -0.012531308 0.012485943 0.99904823 -0.043523543 -0.0028754517 0
-0.045308713 -0.0057164356 0.012537746 -0.91738325 -0.39798772 -0.0037024776 0
-0.044059414 -0.0082957232 0.012668164 -0.89614725 -0.44371107 -0.0063699135 0
0.018783865 -0.007373841 0.012483848 0.8931669 0.44962174 -0.0096498746 0
0.020049334 -0.0098813428 0.012985189 0.89642268 0.44307235 -0.010642191 0
-0.046843253 -0.0024038614 0.012393439 -0.89985561 -0.43614545 0.0060795383 0
0.016384812 -0.0025938607 0.012444225 0.89458913 0.44681773 -0.0080185374 0
-0.05032577 0.0045808866 0.012473634 -0.89563155 -0.44479078 -0.002279907 0
-0.04902764 0.0019597707 0.01255418 -0.89612234 -0.44380698 0.0003385364 0
0.01389805 0.0024416668 0.012545809 0.90671736 0.42167458 0.0073602912 0
0.01505137 6.6430825e-05 0.011613488 0.89393634 0.44813153 -0.0074821054 0
-0.051778466 0.0075059044 0.012748522 -0.89624453 -0.4435409 -0.0041424967 0
0.011685744 0.0073046219 0.012564919 0.89930212 0.43732527 -0.0015034052 0
-0.052587606 0.012979626 0.012449349 -0.8675065 0.49723113 0.013920689 0
0.0089864377 0.012788653 0.012639208 0.89790994 0.44017226 -0.0024500887 0
0.010199462 0.010318631 0.012358989 0.89651817 0.44297099 -0.0056446465 0
-0.050077919 0.015031133 0.011992592 -0.43410167 0.90032518 0.031150438 0
-0.047418766 0.016318023 0.012374399 -0.43443382 0.90034997 0.025243413 0
-0.042298555 0.018808484 0.012426447 -0.44119468 0.89702857 0.02620969 0
-0.039843634 0.019975411 0.013820969 -0.43357959 0.90056074 0.031608984 0
0.0066954861 0.017459318 0.012437421 0.89009833 0.45575315 0.0037371512 0
-0.037634473 0.021003336 0.012556512 -0.42454827 0.90518814 0.019826999 0
-0.032459356 0.023500403 0.012849887 -0.43358934 0.90107787 0.0076829162 0
-0.029708426 0.024822827 0.013081159 -0.43405876 0.90085441 0.0073734741 0
0.0040001334 0.022811947 0.012603266 0.90671861 0.42156565 0.011990624 0
0.0052011847 0.020208253 0.01256952 0.85764343 0.51421916 0.005140543 0
-0.02721164 0.026042679 0.012179268 -0.43581539 0.89999127 0.0089824097 0
-0.022524951 0.028264174 0.012624565 -0.38054851 0.92470056 0.010570765 0
-0.019139851 0.029561704 0.012546082 -0.39508975 0.91863567 0.0035676912 0
0.001627968 0.02767602 0.012399051 0.89632678 0.44335529 0.0058468892 0
-0.016600113 0.030797753 0.012364963 -0.44183528 0.89707202 -0.0065844757 0
-0.01243863 0.032860938 0.012565717 -0.44502369 0.89543051 -0.012578419 0
-0.008961047 0.034586582 0.012371256 -0.44431323 0.89573264 -0.015768861 0
-0.0010541773 0.0331196 0.012416212 0.90373117 0.42796949 0.01058764 0
0.0002171948 0.030516634 0.012397271 0.89494294 0.44615018 0.0052108206 0
-0.0065111215 0.035802823 0.012213065 -0.44867095 0.89362735 -0.011160266 0
-0.0030817459 0.036179498 0.012655823 0.54547262 0.8380931 0.0077186939 0
-0.030438425 -0.035812195 0.017250272 -0.87796605 -0.47383425 0.068239518 0
-0.027438233 -0.037159625 0.01766674 0.062631853 -0.99253148 -0.10468324 0
-0.023464942 -0.035692558 0.017693477 0.44350657 -0.88595837 -0.13557185 0
-0.031934746 -0.0326613 0.017587714 -0.89292401 -0.44158006 0.087714031 0
-0.02112633 -0.034437139 0.017429011 0.44822338 -0.8850832 -0.12539335 0
-0.017461162 -0.032623127 0.01773075 0.47560349 -0.87058437 -0.12603252 0
-0.014199007 -0.030580336 0.016707441 0.73787791 -0.67054135 0.076879673 0
-0.035329029 -0.025805734 0.017150903 -0.90684843 -0.41382757 0.079828925 0
-0.034121722 -0.028240521 0.017770976 -0.89618421 -0.43829033 0.068960607 0
-0.012303515 -0.028427891 0.017770888 0.24052274 -0.90873832 0.34109157 0
-0.0075713322 -0.027771065 0.017632365 0.34163356 -0.93956953 -0.022264915 0
-0.0032460496 -0.025736861 0.017476926 0.44131321 -0.897322 -0.0074737007 0
-0.036215525 -0.022437306 0.01680205 -0.85264254 -0.22798118 0.47013333 0
-0.034651797 -0.021428101 0.018281594 -0.98229587 0.018204754 0.18644969 0
-0.0008323139 -0.02454669 0.017316055 0.44235411 -0.89673525 -0.013739597 0
0.0023353258 -0.022347616 0.017439563 0.69918883 -0.67502487 0.23553431 0
0.0070857317 -0.020614672 0.016813971 0.21447888 -0.94947165 0.22913411 0
-0.040369928 -0.015710132 0.017553896 -0.89373398 -0.44766009 0.028981369 0
-0.037902437 -0.018694973 0.01783107 -0.66617119 -0.74433368 0.046726242 0
0.0037742411 -0.019252568 0.018139211 0.32631308 -0.93321496 0.1504315 0
0.0077698934 -0.019451899 0.018419331 0.056211796 -0.97577685 0.21142335 0
0.012546674 -0.018156486 0.017427627 0.43006104 -0.89907515 0.081924133 0
0.016788665 -0.016081078 0.017648134 0.43563688 -0.89385498 0.10603674 0
-0.042122569 -0.01219826 0.017393433 -0.89607561 -0.44371966 0.012707369 0
0.01956811 -0.014585276 0.018248718 0.45098221 -0.86347848 0.22587582 0
0.020796401 -0.012246774 0.017411798 0.99880654 0.048244685 -0.007605195 0
-0.045230057 -0.0056032944 0.01605946 -0.95396233 -0.18604866 0.23524855 0
-0.043966103 -0.0077137728 0.01757966 -0.96503329 -0.22757466 0.13007893 0
0.018831868 -0.0072945356 0.017604206 0.89123899 0.44948313 -0.060479727 0
0.020098591 -0.0098131355 0.017408295 0.88796502 0.44638985 -0.11069858 0
-0.046627577 -0.0019472616 0.017264096 -0.72412843 -0.67292899 0.15101215 0
-0.043778189 -0.0034435336 0.018215079 -0.85992932 -0.45442471 0.2324215 0
0.014799445 -5.0804432e-05 0.019089308 0.65220731 0.64402747 -0.39981776 0
0.016456489 -0.0025974112 0.01765929 0.88337541 0.46109775 -0.083885401 0
-0.050327692 0.0045007947 0.017497888 -0.89368367 -0.44650903 -0.04426283 0
-0.048967253 0.0018184477 0.017643312 -0.88807219 -0.45552626 -0.061834339 0
0.012774897 0.0023025384 0.017603314 0.79091102 0.51829153 0.32532093 0
0.015120066 9.6174561e-05 0.017320871 0.88271999 0.46045402 -0.093741544 0
-0.051806472 0.0074542668 0.017779408 -0.88895261 -0.44065741 -0.12483665 0
0.011364131 0.0076450822 0.017499508 0.9320665 0.35706565 0.061287358 0
-0.052515406 0.012830552 0.01749788 -0.83945388 0.53493154 0.095736615 0
-0.049459424 0.014805205 0.019341599 -0.41503909 0.84207904 0.34444937 0
0.0089138644 0.01281423 0.017723558 0.89537108 0.44496161 0.017884232 0
0.010126448 0.01042211 0.017280437 0.89573699 0.44458428 -0.00043640941 0
-0.047395982 0.016161978 0.017283283 -0.43593639 0.89546561 0.090004109 0
-0.04256409 0.018451728 0.017553939 -0.40516272 0.90733075 0.11222389 0
-0.037312139 0.018898062 0.018379895 -0.19068941 0.90474421 0.38088781 0
-0.034917008 0.019667691 0.018662665 -0.96504545 0.20352525 -0.1651203 0
0.0034413866 0.018848995 0.017977631 0.48860073 0.8041389 0.33857054 0
0.0065582232 0.017163461 0.017351666 0.79534614 0.59883028 0.093950562 0
-0.03685265 0.020950899 0.016333181 -0.48402193 0.78928643 0.37782255 0
-0.033012837 0.022864802 0.017765971 -0.59240896 0.80111969 0.085199364 0
-0.029529965 0.02482963 0.017866289 -0.44356173 0.89595598 0.022713332 0
0.003084186 0.022292752 0.01771117 0.94651473 0.020917553 0.32198197 0
-0.02708056 0.026054699 0.017389439 -0.43855587 0.89861572 0.012595732 0
-0.022485543 0.027627757 0.017571026 -0.11456513 0.964957 0.23607814 0
-0.018547311 0.028414058 0.017948197 -0.7210685 0.66984087 0.17712569 0
0.0016403887 0.027371543 0.017481223 0.89792067 0.43747509 0.048518017 0
-0.016504463 0.030864384 0.017389204 -0.51378351 0.85691941 -0.041419961 0
-0.012447995 0.032994527 0.017506406 -0.44912097 0.88989383 -0.07986974 0
-0.0091527011 0.034617733 0.016869813 -0.44365716 0.89389062 -0.064249024 0
-0.0009480858 0.032601997 0.01757268 0.89357424 0.44061375 0.085934073 0
0.0001584297 0.030515512 0.016811779 0.89543319 0.44378078 0.035469837 0
-0.0068299305 0.035832096 0.017665947 -0.44138539 0.88592941 -0.14250635 0
-0.0034771168 0.03631907 0.017274607 0.43315741 0.9010635 0.021429151 0
-0.030254554 -0.035468746 0.022375491 -0.89542466 -0.44520739 0.0022419947 0
-0.027708506 -0.037444446 0.022459486 -0.1870739 -0.98212057 -0.021039708 0
-0.022946058 -0.036039155 0.022584012 0.46044478 -0.88754845 -0.015758907 0
-0.031812739 -0.03241777 0.022637362 -0.88952804 -0.45688045 0.00039397922 0
-0.020523163 -0.034783285 0.022352127 0.45924369 -0.88821238 -0.01318764 0
-0.017445056 -0.033191148 0.022529893 0.4604055 -0.8875249 -0.018064691 0
-0.013354406 -0.030921241 0.022572078 0.58303297 -0.79662532 -0.1595643 0
-0.035347041 -0.025545988 0.02259207 -0.89090556 -0.4540945 -0.0092449337 0
-0.034141231 -0.027898237 0.022540109 -0.88942987 -0.45705348 -0.0040827985 0
-0.011851738 -0.028687634 0.021576151 0.40652895 -0.71509331 -0.56866139 0
-0.0075963815 -0.02820983 0.022373687 0.43075123 -0.90141851 -0.043566898 0
-0.0034135988 -0.026056662 0.022546876 0.46410677 -0.88562548 -0.016506813 0
-0.036477357 -0.022431862 0.022428181 -0.88979185 -0.36708897 -0.27113867 0
-0.034737539 -0.021242287 0.020834219 -0.9629823 -0.12355846 -0.23957977 0
-0.00063416624 -0.024585139 0.02241689 0.47267443 -0.88108814 -0.016204257 0
0.0024652218 -0.02270494 0.022459285 0.57261515 -0.808424 -0.1362447 0
0.0066386112 -0.020523606 0.02293738 0.31766576 -0.91913712 -0.2329706 0
-0.040394727 -0.015623308 0.022325894 -0.88756114 -0.45991316 -0.026742017 0
-0.038869463 -0.018356314 0.022252876 -0.85453153 -0.51357889 -0.077541396 0
0.0042407773 -0.019229174 0.020858278 0.55798727 -0.82065785 -0.12317046 0
0.0082798647 -0.019502588 0.021890078 0.24928874 -0.95900476 -0.13477808 0
0.012492183 -0.017763676 0.022517828 0.45954826 -0.8881247 0.0070657814 0
0.016425334 -0.015741622 0.022640012 0.45434943 -0.89074993 0.01144734 0
-0.041957129 -0.012600554 0.0225248 -0.88989383 -0.45573273 -0.019916013 0
0.018922273 -0.014469739 0.022241388 0.44974962 -0.89315379 -0.0012753188 0
0.021050761 -0.01205042 0.022348005 0.98679048 -0.15898648 -0.031110954 0
-0.045285027 -0.0058486126 0.023768151 -0.93028611 -0.35591587 -0.088834807 0
-0.044085927 -0.0078302454 0.0222141 -0.94824374 -0.27305162 -0.16210073 0
0.018996293 -0.0066639683 0.022387808 0.88693744 0.46158126 -0.016873626 0
0.020401482 -0.0093484223 0.022695553 0.88314229 0.46892527 -0.012993856 0
-0.047113005 -0.0023076786 0.022530017 -0.80918437 -0.56976628 -0.143482 0
-0.043669041 -0.0038235176 0.021130919 -0.65938795 -0.53091127 -0.53229755 0
0.016831737 -0.0025075618 0.022566061 0.8873896 0.46090978 -0.01009309 0
-0.050445408 0.0037338606 0.022556117 -0.8874656 -0.46052381 -0.017960267 0
-0.04928679 0.0015209203 0.022406315 -0.88660306 -0.46179926 -0.026008179 0
0.012737436 0.0030060529 0.02208069 0.78920513 0.45799118 -0.40914467 0
0.015302991 0.00043211703 0.022318034 0.88690978 0.46131253 -0.0241201 0
-0.05229412 0.007292747 0.02263896 -0.88573045 -0.46346852 -0.026049351 0
0.011551171 0.0075510028 0.022305058 0.92047 0.38154784 -0.08459501 0
-0.052570097 0.01247273 0.022646967 -0.79233676 0.61008364 -0.00066432543 0
-0.049310438 0.014639871 0.022270584 -0.45321617 0.89131624 0.01226584 0
0.00891989 0.012839247 0.022309547 0.88834357 0.45852017 -0.024595143 0
0.010172449 0.010408073 0.022338044 0.88847846 0.45785564 -0.031211864 0
-0.046701387 0.015986711 0.022582823 -0.46021295 0.88772696 0.012037519 0
-0.042464189 0.0181932 0.022525426 -0.45720381 0.88930023 -0.010478995 0
-0.037964515 0.019130459 0.021696821 -0.2314963 0.85361665 -0.46663481 0
0.0035182703 0.019349266 0.021078609 0.27593601 0.78557181 -0.55383772 0
0.0065548164 0.017354367 0.022715226 0.86291301 0.50235444 -0.054964427 0
-0.036552005 0.020903531 0.022644363 -0.6033538 0.74617946 -0.28139022 0
-0.032582793 0.023282496 0.022544539 -0.46783358 0.88344204 -0.025728121 0
-0.029613966 0.024816692 0.022071356 -0.45635429 0.88944554 -0.025046015 0
0.0033985961 0.022540782 0.022185102 0.94106543 0.2102171 -0.26496169 0
0.0051067919 0.020049108 0.023849485 0.82444245 0.56472069 -0.037218377 0
-0.027180165 0.026066935 0.022504209 -0.45392612 0.89074761 -0.022799019 0
-0.02249462 0.027829332 0.022287942 -0.25321537 0.94130349 -0.22322573 0
-0.019380063 0.028628083 0.021577369 -0.78177494 0.48603413 -0.39063892 0
0.0013504552 0.02764021 0.022219814 0.88999146 0.45595229 -0.0047576036 0
-0.017098295 0.031068919 0.022942387 -0.46034285 0.88757479 -0.017187104 0
-0.012390951 0.033480451 0.02245667 -0.45646101 0.88965458 -0.012573549 0
-0.0096815871 0.034865815 0.022261424 -0.4561573 0.88975745 -0.015880985 0
-0.0011947813 0.032626789 0.022480221 0.89272565 0.45060042 0.0003986099 0
7.7145749e-05 0.030133333 0.02260338 0.8911705 0.45366845 0.0003652508 0
-0.0071036252 0.036170918 0.02243191 -0.41765863 0.90843153 -0.017703807 0
-0.0033209196 0.036229488 0.022535235 0.67751497 0.7354728 -0.0072974125 0
-0.030266304 -0.035400607 0.027665619 -0.8973754 -0.44125158 0.0037940401 0
-0.027785532 -0.037508573 0.02757295 -0.24134055 -0.9703564 -0.012775732 0
-0.022976223 -0.036109921 0.027461492 0.46242151 -0.88659686 -0.010605581 0
-0.031742547 -0.032488294 0.027543869 -0.8902638 -0.45538604 0.0073391353 0
-0.02045298 -0.034796074 0.027701138 0.45975882 -0.88798904 -0.0098667564 0
-0.017707678 -0.033380549 0.027345931 0.45658606 -0.88960826 -0.011234805 0
-0.013174651 -0.031031271 0.027463444 0.47148412 -0.88180327 -0.01121449 0
-0.035323024 -0.025574403 0.027526576 -0.88806975 -0.45965916 0.0067563769 0
-0.033925209 -0.028265618 0.027679496 -0.8869881 -0.46172723 0.0077562816 0
-0.010577621 -0.029726697 0.027117189 0.37333626 -0.92759448 -0.013727414 0
-0.0076921023 -0.028326919 0.027441725 0.45691109 -0.88949525 -0.0055281683 0
-0.0031682518 -0.025962934 0.027512658 0.4672038 -0.88414842 -0.0014840179 0
-0.036846843 -0.02250747 0.027542213 -0.88981867 -0.4563005 0.0035465735 0
-0.00060700165 -0.024605766 0.027215526 0.47041678 -0.8824423 -0.0018906901 0
0.0025432189 -0.022914935 0.027744306 0.48261228 -0.87582964 -0.0028019147 0
0.0064056152 -0.020829298 0.027380442 0.44289562 -0.89653081 0.0087200031 0
-0.040350545 -0.015812371 0.02771808 -0.88645691 -0.46279314 -0.0040657409 0
-0.039102402 -0.018202906 0.027246621 -0.88712597 -0.46150315 -0.0047236341 0
0.0091589494 -0.019438885 0.027463304 0.46425268 -0.88565117 0.0095645841 0
0.012316918 -0.017789828 0.027471418 0.46020272 -0.8877207 0.012862413 0
0.016374124 -0.015707165 0.027459817 0.45438573 -0.89070481 0.013362464 0
-0.04204328 -0.012523032 0.027541794 -0.89032066 -0.4553259 -0.0027367331 0
0.018845858 -0.014455465 0.027536478 0.44407332 -0.89594615 0.0089046992 0
0.021040818 -0.011884496 0.02742574 0.99595821 -0.089290753 0.0097152023 0
-0.045375843 -0.0058516315 0.027446084 -0.91352314 -0.40672991 -0.0068057878 0
-0.044180565 -0.0083156908 0.027563194 -0.89258367 -0.45084915 -0.0054205959 0
0.019155774 -0.0069456664 0.027590849 0.88378006 0.46789324 -0.0029506655 0
0.020331889 -0.009172705 0.027976464 0.88733923 0.46110043 -0.0039350367 0
-0.047031134 -0.0027799208 0.027525051 -0.87340248 -0.48699555 -0.001861139 0
0.016844675 -0.0025251159 0.027412575 0.88890207 0.45809191 -0.0022169992 0
-0.050509647 0.0038532198 0.027406638 -0.88609755 -0.46349728 0.0012077645 0
-0.049249984 0.0014404489 0.027126914 -0.88680923 -0.46213049 0.0022162949 0
0.013863498 0.0031867742 0.027549868 0.88064873 0.47375563 -0.003670194 0
0.015273316 0.00054734002 0.027771087 0.89093953 0.45410693 -0.0036972587 0
-0.052333068 0.0073420578 0.027686412 -0.88680696 -0.46213901 0.00094858796 0
0.011644477 0.007603249 0.027635954 0.8953653 0.44531775 -0.0035961391 0
-0.052585248 0.012470332 0.027455511 -0.73543888 0.67743182 0.014683492 0
-0.049262453 0.014566999 0.027381768 -0.45667955 0.88949817 0.015390405 0
0.008978758 0.012817663 0.027700981 0.88880885 0.45827162 -0.002447489 0
0.010208603 0.010422065 0.027278578 0.88970691 0.45650697 -0.0048003579 0
-0.04679507 0.015833599 0.027473306 -0.45756018 0.88901913 0.016841905 0
-0.042520024 0.018064911 0.027390955 -0.46506596 0.88500226 0.022016205 0
-0.03937107 0.019714708 0.027420891 -0.45295092 0.89128321 0.021204261 0
0.006570945 0.017454481 0.027416579 0.88284248 0.46964183 -0.0050616898 0
-0.03680395 0.021031722 0.027487108 -0.47825506 0.87816644 0.0097895199 0
-0.032556795 0.023296118 0.027478069 -0.45977879 0.88802671 0.0034828337 0
-0.029585341 0.024833435 0.028099852 -0.45397735 0.89100748 0.0032117078 0
0.0038427422 0.022714274 0.027580438 0.89540213 0.44525844 1.3316072e-05 0
0.0051229368 0.020087812 0.026405314 0.85445505 0.51939172 -0.011779239 0
-0.027155308 0.026072806 0.02777021 -0.45450851 0.89072478 0.0055953306 0
-0.022720944 0.02829447 0.027378393 -0.44052136 0.8977223 0.00597058 0
-0.019631855 0.029821316 0.026969371 -0.49647614 0.86799824 -0.0095160613 0
0.0014734712 0.027363647 0.027571267 0.88697654 0.46179724 0.003996613 0
-0.017274855 0.03103365 0.027525987 -0.44882968 0.89356685 -0.0095047476 0
-0.012439805 0.033486322 0.027377266 -0.45389047 0.89103383 -0.0064969845 0
-0.0097877281 0.034841172 0.027298886 -0.46331766 0.88618636 -0.0032329659 0
-0.0012544512 0.032691121 0.027804328 0.8939805 0.44809821 0.002629549 0
5.5590281e-05 0.030080631 0.029924449 0.89257455 0.4508467 -0.0069230828 0
-0.0072759595 0.036136415 0.027536595 -0.43151698 0.90206963 -0.0079693766 0
-0.0034759338 0.03639074 0.027493902 0.64302212 0.76584309 0.0026439142 0
-0.030208807 -0.035464171 0.032938972 -0.8942188 -0.44761512 0.0036639622 0
-0.027658207 -0.037589427 0.032358617 -0.1965591 -0.98041207 -0.012516056 0
-0.022667693 -0.036009852 0.032559048 0.4594788 -0.88811076 -0.011769856 0
-0.031744584 -0.032451652 0.032494184 -0.88987094 -0.45620838 -0.0018913227 0
-0.020364264 -0.034806214 0.031650726 0.45589 -0.88989788 -0.015684431 0
-0.017440872 -0.033318654 0.032649662 0.45675686 -0.88949764 -0.012931969 0
-0.01304468 -0.031007057 0.032508172 0.48774865 -0.87224174 0.035994813 0
-0.035232924 -0.025686264 0.03271959 -0.8895421 -0.45681137 0.00616587 0
-0.033937708 -0.028194198 0.032427307 -0.8884083 -0.45904884 0.002224559 0
-0.010667327 -0.029689558 0.032972869 0.36092603 -0.92094243 0.14696053 0
-0.0074564149 -0.028223656 0.032582264 0.45616534 -0.88989508 0.00010382229 0
-0.003004953 -0.02588854 0.032621559 0.47005296 -0.88263476 -0.0024656761 0
-0.036860615 -0.022349279 0.032556131 -0.8870489 -0.45865142 0.05275606 0
-0.00044595398 -0.024519991 0.032534156 0.46995938 -0.88268799 -0.00032719466 0
0.0024507015 -0.022961298 0.03247444 0.49323905 -0.86985844 0.0078418646 0
0.0065790564 -0.020682249 0.032482289 0.43265006 -0.90116864 0.026627554 0
-0.040314786 -0.015898805 0.032528158 -0.8872211 -0.46133977 0.0020905454 0
-0.039108291 -0.018216966 0.032760967 -0.88668799 -0.46234661 0.0044743475 0
0.0089824302 -0.019476594 0.032176983 0.46414861 -0.88572627 0.0074179196 0
0.012562769 -0.017615287 0.032407135 0.4580892 -0.88890386 0.0020749085 0
0.016348898 -0.015674265 0.032554887 0.45505813 -0.89045227 0.0041158521 0
-0.042118631 -0.012400466 0.032437466 -0.88947618 -0.45697927 -0.0014302634 0
0.01892796 -0.014370834 0.032520942 0.44051531 -0.89771217 0.0076858844 0
0.021039786 -0.012140539 0.032626603 0.97335523 -0.22924656 0.0050539668 0
-0.045339912 -0.0058663818 0.03233337 -0.90574831 -0.42116454 0.047331877 0
-0.044200238 -0.0083104195 0.032366544 -0.89651781 -0.44300693 0.00080345548 0
0.019086463 -0.0067694117 0.032530215 0.88450712 0.46650994 -0.0039476003 0
0.020324023 -0.0091280164 0.032583777 0.88976896 0.45640424 -0.0024997317 0
-0.047158733 -0.0025454704 0.032447834 -0.87884653 -0.47708869 0.0039130761 0
0.016885953 -0.0025404028 0.032440376 0.88910758 0.45762226 -0.0083363606 0
-0.050571896 0.0039830869 0.032389853 -0.88718283 -0.461418 0.00024697511 0
-0.049216509 0.0013751999 0.032553438 -0.88723427 -0.46131706 -0.0014109452 0
0.013922924 0.0030780239 0.032596409 0.87718105 0.47956103 0.023972187 0
0.015298692 0.00056749413 0.032764804 0.89111972 0.45369676 -0.0080599654 0
-0.052359153 0.0073966309 0.032531556 -0.88736302 -0.46107024 -0.0010785011 0
0.011708708 0.0074438658 0.032500986 0.89829105 0.43923566 0.012050642 0
-0.05254405 0.012332123 0.032653548 -0.76286048 0.64641851 0.013676725 0
-0.049119487 0.014554068 0.032420654 -0.45769989 0.88888675 0.01977868 0
0.0088739581 0.013005467 0.032684896 0.88879323 0.45828196 0.0049303025 0
0.010234071 0.010347722 0.032506891 0.88874936 0.45834088 0.006951204 0
-0.046668634 0.015810695 0.032485615 -0.45658168 0.88953525 0.016132005 0
-0.042562488 0.017939981 0.032533303 -0.46259063 0.88640922 0.016987376 0
-0.039276633 0.019647175 0.03231658 -0.43550324 0.89982218 0.025629854 0
0.0065309065 0.01750597 0.032569118 0.88124937 0.47254178 0.010186682 0
-0.036724921 0.020987729 0.032413032 -0.48728427 0.87278014 0.028438998 0
-0.032471042 0.023278758 0.032318868 -0.45947182 0.8880586 0.01541011 0
-0.029525662 0.024808938 0.03211721 -0.46163449 0.88685858 0.019376008 0
0.0038375615 0.022640767 0.032622911 0.8990128 0.43535221 0.047376081 0
0.0050857547 0.020173889 0.031867895 0.86204696 0.5068121 0.0040596542 0
-0.027102496 0.026040202 0.032840122 -0.45515254 0.8902393 0.01761229 0
-0.022444289 0.028376713 0.032385267 -0.44966912 0.89279461 0.026749725 0
-0.019735606 0.02978663 0.032288548 -0.55174541 0.83380854 0.018443769 0
0.0014340404 0.027434293 0.032512266 0.88879067 0.45831329 -0.00019122082 0
-0.017160039 0.031135129 0.032362331 -0.45243713 0.89175469 -0.0086143352 0
-0.012699928 0.033405535 0.032624558 -0.45495543 0.89045626 -0.010163407 0
-0.0097944299 0.034892727 0.032343652 -0.45937112 0.88820344 -0.0085278032 0
-0.0011473121 0.032456964 0.032516327 0.89146465 0.45307669 0.003499192 0
4.6029782e-05 0.030132277 0.033083018 0.88849109 0.45889232 0.0012268241 0
-0.0073560998 0.036136903 0.032467049 -0.43468884 0.90056151 -0.0058834641 0
-0.0034521956 0.03640775 0.03236974 0.67973864 0.73338997 -0.0097255744 0
-0.03012548 -0.035288829 0.037121262 -0.88521284 -0.45478916 0.097801156 0
-0.027899439 -0.037339013 0.037784617 -0.42084894 -0.9071306 0.00058579649 0
-0.022600256 -0.036159441 0.037468951 0.46531159 -0.88115376 -0.083982125 0
-0.031452473 -0.032602943 0.037655823 -0.88505429 -0.45871007 0.079145111 0
-0.020335369 -0.034856666 0.036630966 0.4547846 -0.88934755 -0.047242828 0
-0.017579982 -0.03353592 0.037693806 0.46816638 -0.88185948 -0.056072515 0
-0.013832345 -0.031163979 0.037670594 0.78589576 -0.61660838 -0.046497624 0
-0.035164136 -0.025602059 0.036452763 -0.90552944 -0.40987647 0.10962586 0
-0.033889856 -0.027816715 0.03761318 -0.89854258 -0.43595603 0.050632253 0
-0.012411719 -0.028239369 0.03753645 0.52813816 -0.83459878 0.15657283 0
-0.0076569747 -0.028021136 0.037540291 0.28155729 -0.95951641 0.0073360996 0
-0.0033052468 -0.025940493 0.037503704 0.46608078 -0.88433057 0.026980165 0
-0.0361358 -0.021676283 0.037239544 -0.74565166 -0.63507682 0.20169559 0
-0.034387428 -0.022131385 0.037643719 -0.99446821 0.027574928 0.10135454 0
-0.00073384459 -0.024554694 0.03780999 0.47040683 -0.88217026 0.022206848 0
0.0023257148 -0.022384046 0.037481524 0.72701538 -0.68092883 0.088229142 0
0.0067446749 -0.020320019 0.035816107 0.17246729 -0.937859 0.3011238 0
-0.040371612 -0.015702954 0.037168898 -0.88497132 -0.46558118 -0.0077475137 0
-0.038278341 -0.018581863 0.037385479 -0.73141497 -0.68153578 0.023261236 0
0.004072824 -0.019159611 0.037916042 0.65699643 -0.74525911 0.11377418 0
0.0074635022 -0.019056711 0.037894156 -0.0070730392 -0.98547071 0.16969812 0
0.012413644 -0.017497662 0.037589718 0.4618507 -0.88516933 0.05629424 0
0.016097173 -0.015628051 0.037527945 0.45755282 -0.88406175 0.095290631 0
-0.042034596 -0.012511525 0.037604779 -0.88765675 -0.46021226 -0.016437683 0
0.018443588 -0.01433068 0.037800357 0.45170966 -0.88707602 0.095155478 0
0.021014184 -0.012032308 0.037471015 0.96754354 -0.25241011 0.0121919 0
-0.045115247 -0.0053580031 0.035144307 -0.80488586 -0.077179067 0.5883894 0
-0.043783128 -0.0072874934 0.037483919 -0.98996556 0.068776734 0.12344199 0
0.019127222 -0.0067145778 0.037473213 0.88376677 0.465664 -0.045970801 0
0.020411622 -0.0090879276 0.037889142 0.88563466 0.46055338 -0.059513818 0
-0.046974175 -0.0021347806 0.03748275 -0.69575375 -0.71827906 -0.0013502116 0
-0.043596532 -0.0036964805 0.0376206 -0.67895836 -0.71402699 0.170825 0
0.016983263 -0.0026103691 0.037412774 0.88482189 0.46483749 -0.031878773 0
-0.050500751 0.0038205688 0.037540108 -0.88476151 -0.46431592 -0.04009657 0
-0.049287051 0.0015185549 0.037672326 -0.88479531 -0.46530592 -0.025053097 0
0.012246241 0.0026805263 0.037697844 0.70828986 0.69056517 0.14644174 0
0.015274725 0.00062387181 0.037692048 0.86292326 0.50494176 -0.019927029 0
-0.052345481 0.00736066 0.037484009 -0.8920334 -0.45128012 -0.024955437 0
0.011313497 0.0073084054 0.037449323 0.98241717 0.18188608 0.042118967 0
-0.052420173 0.012282484 0.037506074 -0.71844959 0.69344562 0.054435652 0
-0.048927382 0.014451944 0.037523009 -0.45958173 0.88457012 0.079501264 0
0.0089043528 0.012763375 0.037322097 0.88788843 0.45996228 0.0094282571 0
0.010166012 0.010342273 0.036986072 0.88634491 0.46302488 -0.00084624178 0
-0.046483789 0.015741374 0.037215717 -0.45535046 0.88800526 0.064051963 0
-0.042671118 0.017625326 0.037518926 -0.41665259 0.90578628 0.077148743 0
-0.037316173 0.018593019 0.037548274 -0.34015304 0.90750641 0.24643068 0
-0.034938574 0.019946892 0.038052656 -0.86135 0.36005056 -0.35838494 0
0.0034783562 0.019280035 0.037882574 0.40818414 0.91267014 0.020467913 0
0.0066063534 0.016975332 0.037564117 0.82969606 0.55815232 0.0083888322 0
-0.035631526 0.020982545 0.037304889 -0.85801446 0.49253777 0.14566317 0
-0.032648955 0.022932705 0.03763821 -0.53766996 0.84312612 0.0070220623 0
-0.029407904 0.024722444 0.037788976 -0.46210361 0.88666135 0.017085262 0
0.0025342302 0.022571696 0.037497491 0.98420101 0.02681376 0.17501195 0
-0.026874153 0.026040761 0.037378598 -0.45344394 0.89110148 0.018076627 0
-0.022588445 0.027258858 0.037505072 -0.039636191 0.98514795 0.16707025 0
-0.019013332 0.02794845 0.037383713 -0.92686892 0.33828643 0.16271532 0
-0.00011182622 0.029731745 0.038507581 0.88835698 0.45783761 0.034735944 0
0.0012096617 0.027507806 0.037546489 0.89156568 0.44955906 0.054837946 0
-0.016829668 0.031327855 0.037392806 -0.52718824 0.84923464 -0.029546747 0
-0.012628345 0.033543661 0.037356615 -0.45977655 0.88700324 -0.042787883 0
-0.0097870147 0.03492628 0.036912795 -0.4583132 0.88796872 -0.03821671 0
-0.0013757155 0.032521456 0.037465047 0.88748878 0.45290518 0.085092202 0
8.2764171e-05 0.030027632 0.035854429 0.88538742 0.46472353 0.011007884 0
-0.010065448 0.035105109 0.039591525 -0.45374876 0.8909021 -0.020139471 0
-0.0075424332 0.036145013 0.037457611 -0.41530579 0.90771037 -0.059859179 0
-0.0035975305 0.036327936 0.037552085 0.69487649 0.71813589 0.037782021 0
-0.030039493 -0.035082821 0.042222906 -0.8880139 -0.45978677 0.0052313665 0
-0.027995856 -0.037365206 0.042515513 -0.51039904 -0.85993558 0.0019136004 0
-0.022552533 -0.036456026 0.042761415 0.46767777 -0.88379169 -0.01377413 0
-0.019907709 -0.035048567 0.041929249 0.47325101 -0.88075137 -0.017617073 0
-0.03136934 -0.032514956 0.042358294 -0.8881464 -0.45955193 0.002818644 0
-0.017456014 -0.033735514 0.042070244 0.47306827 -0.8808279 -0.018669195 0
-0.012908666 -0.031251915 0.042780705 0.54275548 -0.83779162 -0.059344422 0
-0.035135292 -0.025220873 0.042424146 -0.89409757 -0.44760078 -0.015587713 0
-0.033813987 -0.027792841 0.042491276 -0.88808799 -0.45966929 -0.0019819504 0
-0.011148302 -0.02910739 0.04151104 0.4467794 -0.70213205 -0.55443549 0
-0.0074744257 -0.02816263 0.042409915 0.45372689 -0.89102203 -0.014549154 0
-0.0033578628 -0.025988389 0.042504814 0.46984902 -0.88274676 -0.00038241092 0
-0.03649931 -0.022495756 0.042354234 -0.85694021 -0.49629626 -0.13908054 0
-0.034596115 -0.021551177 0.040344223 -0.60131574 -0.54666406 -0.58273309 0
-0.00086048653 -0.024659265 0.042834256 0.47002414 -0.88265359 0.00012068098 0
0.0025700065 -0.022740588 0.042384665 0.54153132 -0.83697617 -0.078832656 0
0.0060934536 -0.020605652 0.042787947 0.49755818 -0.85724705 -0.1325264 0
-0.040410932 -0.015800631 0.042362269 -0.88260972 -0.47010598 -0.00063315773 0
-0.039053857 -0.018350862 0.042386476 -0.88230658 -0.47064862 -0.0050007305 0
0.0045590987 -0.019033503 0.040403172 0.73231965 -0.4862932 -0.47668329 0
0.0078510772 -0.019313291 0.041835263 0.22749765 -0.93958712 -0.25577533 0
0.012474378 -0.017319845 0.042541265 0.47114545 -0.88205528 -0.00069397112 0
0.015897287 -0.015491043 0.04233256 0.47225943 -0.88145959 7.230678e-06 0
-0.04215236 -0.012528392 0.042442553 -0.88335824 -0.46869543 -0.0016863907 0
0.018370708 -0.01417228 0.04241284 0.46744105 -0.88401163 0.0047234334 0
0.021075515 -0.011859019 0.042499695 0.93471658 -0.35536775 -0.004315584 0
-0.045425937 -0.0059754406 0.043373927 -0.92074186 -0.38497296 -0.063484535 0
-0.044327348 -0.0080055874 0.042078242 -0.92622769 -0.35907942 -0.11473595 0
0.019135341 -0.0062282248 0.042393226 0.87937206 0.47604808 -0.0091162985 0
0.020566115 -0.008878842 0.042577151 0.88248944 0.47022724 -0.0099321064 0
-0.047189903 -0.0025598141 0.04264893 -0.84540719 -0.52900314 -0.073772632 0
-0.044090066 -0.0042341291 0.040585339 -0.11878122 -0.53501242 -0.83645236 0
0.017169699 -0.0025720603 0.042428516 0.8808257 0.4733834 -0.007361508 0
-0.050652482 0.0038069051 0.042626496 -0.88291711 -0.46948642 -0.0063115358 0
-0.049307413 0.0012781615 0.042251501 -0.8824085 -0.47033828 -0.011716165 0
0.01339938 0.0032633801 0.041966997 0.80419785 0.50973552 -0.30567235 0
0.015383447 0.00075613405 0.042733166 0.88211834 0.47096056 -0.0079684407 0
-0.05264103 0.0075655584 0.04242463 -0.9001537 -0.43548939 -0.0084982086 0
0.011721829 0.0073886761 0.042519957 0.91037279 0.41126531 -0.045632921 0
-0.052452657 0.011999686 0.042673852 -0.70911747 0.70474243 0.02214748 0
-0.048664875 0.014287029 0.042594928 -0.46662897 0.88409007 0.025341302 0
0.0089737019 0.012735135 0.04238122 0.88507581 0.46543491 -0.0033314999 0
0.010250046 0.010316425 0.042242903 0.88352978 0.46835613 -0.0041925646 0
-0.046052728 0.015655465 0.042410504 -0.45768777 0.88886619 0.020947367 0
-0.042308569 0.017587546 0.042539444 -0.45565549 0.89006644 0.01264092 0
-0.038503502 0.019078016 0.04205009 -0.37835598 0.87554294 -0.30045184 0
0.0040929136 0.019869786 0.040138628 -0.09186475 0.72251862 -0.68522096 0
0.006569162 0.017303331 0.042606618 0.88274372 0.46982276 -0.0054797004 0
-0.036363844 0.020953706 0.042773288 -0.55802101 0.82823759 -0.051333077 0
-0.032325078 0.023173103 0.042800229 -0.46657273 0.8844555 0.0069559859 0
-0.029467992 0.024683625 0.042920381 -0.46838444 0.88350403 0.0060564233 0
0.0034351416 0.02233671 0.042241126 0.85384893 0.48404002 -0.19143462 0
0.0050709425 0.020160304 0.043178435 0.85416859 0.5198493 0.012356552 0
-0.026972814 0.026006639 0.042530123 -0.46793541 0.88375586 0.003456326 0
-0.022313651 0.028146926 0.042211276 -0.40884513 0.88615537 -0.21811555 0
-0.019818891 0.029399488 0.041048601 -0.7341013 0.59374976 -0.32947916 0
-0.00014637291 0.029827943 0.04216693 0.88511968 0.46535078 0.0034327891 0
0.0012565079 0.027144009 0.042625856 0.88702017 0.46172887 0.0012981346 0
-0.017327817 0.031313881 0.042672597 -0.46387911 0.88566995 -0.020121776 0
-0.012598199 0.033805303 0.042443875 -0.4675566 0.88390917 -0.0097692143 0
-0.0015937279 0.032583769 0.042412851 0.8860569 0.46354038 0.0057865665 0
-0.010125494 0.035119895 0.042808548 -0.46879518 0.8832705 -0.0080227908 0
-0.0075716483 0.036433004 0.042274341 -0.42519537 0.90495747 -0.016152242 0
-0.0038211914 0.036458485 0.042646635 0.72571772 0.68795842 0.006855824 0
-0.030029714 -0.035068508 0.04688932 -0.88550609 -0.46461013 -0.0040556146 0
-0.027955113 -0.0375119 0.047403533 -0.49668717 -0.86783558 -0.012782594 0
-0.022453863 -0.036473032 0.047221046 0.47417402 -0.88025433 -0.017642409 0
-0.01983184 -0.035090242 0.048368894 0.45997819 -0.887802 -0.015089281 0
-0.031475175 -0.032306254 0.047302306 -0.88692081 -0.46191525 -0.0023737412 0
-0.017239586 -0.033725847 0.047617394 0.46349683 -0.88595527 -0.015938567 0
-0.012985072 -0.031429578 0.047299501 0.52132148 -0.85308099 -0.021836106 0
-0.03512058 -0.0253064 0.046787526 -0.88809425 -0.45965502 -0.0024398242 0
-0.033802196 -0.02783688 0.047417156 -0.8864975 -0.46273091 -0.0015218657 0
-0.010348908 -0.029683204 0.047481366 0.49734688 -0.86749846 -0.0096172588 0
-0.0075709312 -0.028241787 0.047605898 0.46257049 -0.8865701 -0.0046873977 0
-0.0034285448 -0.026039923 0.047447622 0.47130951 -0.88195264 -0.0051930523 0
-0.036620442 -0.022612736 0.047730088 -0.86425364 -0.5030365 -0.0044708066 0
-0.00077018182 -0.024618806 0.047671568 0.47214648 -0.88151455 -0.0031074681 0
0.002557266 -0.022831842 0.047337495 0.48464027 -0.87471229 0.0014452321 0
0.0062971064 -0.020625135 0.047674507 0.49555162 -0.86857426 -0.0026999998 0
-0.04042859 -0.015815385 0.047587886 -0.88280755 -0.46967873 -0.0072642444 0
-0.039211363 -0.018100806 0.047412995 -0.88347304 -0.46845123 -0.0053745359 0
0.0087405117 -0.019327434 0.047697715 0.4746564 -0.88017118 -0.00023555651 0
0.012671617 -0.01719358 0.0476043 0.47752848 -0.87861246 0.002591219 0
0.015886242 -0.015455926 0.047836695 0.46832466 -0.88352948 0.0068932734 0
-0.042163942 -0.012545081 0.047311094 -0.88309002 -0.46917495 -0.0051845508 0
0.018347537 -0.014154322 0.047618352 0.46254089 -0.88659298 0.0029629807 0
0.021147424 -0.011770015 0.047431171 0.94538206 -0.32595825 0.0019854624 0
-0.045468204 -0.0060719978 0.04747802 -0.90508628 -0.42508587 -0.010987135 0
-0.044266634 -0.0085705323 0.047615241 -0.89006335 -0.45581588 -0.0043726573 0
0.019258451 -0.0064048222 0.047346968 0.87937713 0.47608039 -0.0065825838 0
0.020560117 -0.0087820627 0.047612652 0.87647152 0.4813121 -0.011678983 0
-0.047367293 -0.0024550685 0.047399376 -0.88241696 -0.47039324 -0.0083946977 0
0.017170027 -0.0025055641 0.047695439 0.88204449 0.47109815 -0.0080096386 0
-0.050632294 0.0037516621 0.047439255 -0.88379812 -0.46785757 -0.0032032595 0
-0.049362861 0.0013475205 0.047117256 -0.88439357 -0.46672872 -0.0034991007 0
0.014056876 0.0032512308 0.047494184 0.86371315 0.50389951 -0.0092200525 0
0.015439598 0.0007358825 0.047368396 0.88435578 0.46667945 -0.011185535 0
-0.052570846 0.0073868684 0.04759695 -0.90297163 -0.42964816 -0.0066744108 0
0.011811392 0.0073218066 0.047442056 0.89045203 0.45507696 -0.0002368852 0
-0.052121419 0.012153514 0.047573946 -0.63588327 0.77168286 0.012574021 0
-0.048407186 0.014268408 0.047697395 -0.46215284 0.88654655 0.021210466 0
0.0088652987 0.012944737 0.047316793 0.88402158 0.46744016 -0.0023344602 0
0.010201997 0.010415335 0.046791717 0.88359988 0.46824217 -0.00072229712 0
-0.046112318 0.01547874 0.047489729 -0.46611276 0.88437951 0.024732394 0
-0.042593814 0.017332725 0.047535755 -0.46603334 0.88449448 0.021964502 0
-0.038851906 0.019311702 0.047618113 -0.51337582 0.85799861 0.016841462 0
0.0063523506 0.017711693 0.047422118 0.8840428 0.46739915 0.0025365711 0
-0.036361191 0.020963402 0.047478314 -0.5320341 0.84671158 0.0043861135 0
-0.032419227 0.02309653 0.04761431 -0.46582946 0.88487428 0.00064129854 0
-0.02936648 0.024709983 0.047118794 -0.46913776 0.88312477 0.00052868522 0
0.0035484466 0.022730356 0.04756536 0.88096756 0.47316805 0.0028738973 0
0.0050761867 0.020123227 0.045926392 0.83944494 0.54343295 0.0035784468 0
-0.026961805 0.02598826 0.047467437 -0.47030967 0.88249528 0.0033061099 0
-0.022260359 0.02854111 0.047533974 -0.50790715 0.86140954 -0.0020145075 0
-0.00012599087 0.02972237 0.047724914 0.88370323 0.46797377 0.0083179036 0
0.0013080833 0.027011339 0.047664568 0.88438129 0.46674037 0.0048068748 0
-0.01728872 0.031430267 0.047578443 -0.46594077 0.88466287 -0.016452037 0
-0.012680983 0.033825319 0.047527887 -0.46339935 0.88604432 -0.013660494 0
-0.0015275526 0.032387443 0.047534127 0.88608086 0.46352088 0.0030099151 0
-0.010268616 0.035085566 0.046998546 -0.47091231 0.88196367 -0.019536261 0
-0.0076351357 0.036472339 0.047557916 -0.40362245 0.91473359 -0.018746238 0
-0.003809965 0.036439929 0.04768661 0.74070263 0.67183304 -0.00024400211 0
-0.030054856 -0.035080176 0.052503511 -0.88603449 -0.46359232 0.0050102472 0
-0.027839718 -0.037551627 0.052541018 -0.47569719 -0.87918586 0.027284788 0
-0.022255981 -0.036483087 0.05242731 0.47501165 -0.87997723 -0.0019810442 0
-0.019700266 -0.035104692 0.052335545 0.46813831 -0.88363618 -0.0057956977 0
-0.031512938 -0.032258075 0.052511856 -0.88883793 -0.45816034 0.0074880575 0
-0.017287327 -0.033830766 0.052378368 0.46217912 -0.88678545 -0.0014428406 0
-0.012694941 -0.031363409 0.052474625 0.53747714 -0.84326696 0.0043716533 0
-0.0351527 -0.025266917 0.052622762 -0.88813561 -0.45958012 -0.0011258821 0
-0.033837274 -0.02776807 0.052713353 -0.88615459 -0.46307948 0.016953222 0
-0.010446339 -0.029784311 0.052019697 0.56505692 -0.82498068 -0.010850049 0
-0.0073672221 -0.028156029 0.05246073 0.46465927 -0.88548905 0.00097927451 0
-0.0032804175 -0.025989769 0.052442923 0.47129431 -0.88197565 -0.00082845544 0
-0.036813069 -0.022364205 0.052447565 -0.85937238 -0.51117557 0.013365786 0
-0.00060917874 -0.024555119 0.052298613 0.47493812 -0.88001323 -0.0032531493 0
0.0026892188 -0.022777217 0.052486267 0.49377409 -0.86958486 -0.0030479552 0
0.0064200321 -0.020582514 0.052246653 0.49069273 -0.87133038 -0.0019757496 0
-0.040510625 -0.015733143 0.05283086 -0.8843531 -0.46675369 0.0077897287 0
-0.039188206 -0.018225541 0.052762736 -0.88261187 -0.47004658 0.0072406228 0
-0.020548889 -0.015392643 0.053083256 0.36697114 0.90700114 0.20659408 0
-0.019454677 -0.015368873 0.053603403 -0.44143578 0.86768514 0.22859767 0
0.0087534562 -0.019314924 0.052335359 0.47987249 -0.87733114 0.0035233595 0
0.01264181 -0.017201778 0.052362192 0.47566158 -0.87962812 0.00053355843 0
0.015915859 -0.015449309 0.052370835 0.46441349 -0.88553065 -0.012470108 0
-0.042255148 -0.012445115 0.052684683 -0.88270068 -0.46992069 -0.0037501655 0
-0.021072431 -0.0131974 0.053026341 0.73772407 -0.38560745 0.55413896 0
-0.018893117 -0.013128869 0.053177826 -0.77322394 -0.32967219 0.54170191 0
0.018428659 -0.014118767 0.052337058 0.47101799 -0.88211876 -0.0029275808 0
0.021069229 -0.011962418 0.052625507 0.89661008 -0.44260761 0.013742394 0
-0.045530125 -0.0060363607 0.052631125 -0.89710593 -0.44179356 -0.0044188267 0
-0.044332929 -0.0085035777 0.052512806 -0.88999057 -0.45597714 -0.0013107921 0
-0.0051837824 -0.0052137841 0.054626487 0.88765812 0.26271254 0.37821308 0
-0.0032977297 -0.0057375585 0.053219255 0.065513283 0.9211992 0.38353625 0
0.019176159 -0.0061409576 0.052309759 0.87442702 0.48502213 -0.011443354 0
0.020642899 -0.00881893 0.0525443 0.88253576 0.47019395 -0.0069479477 0
-0.047514006 -0.002268455 0.052715894 -0.88489068 -0.46578151 0.0040078461 0
-0.0052147754 -0.0040127113 0.054239459 0.95807892 -0.12017277 0.26008311 0
-0.0028663573 -0.0034618573 0.052979108 -0.26628846 -0.80208945 0.53454924 0
0.017109659 -0.0023192179 0.052470144 0.88271147 0.46986756 -0.0067039304 0
-0.050642665 0.0036840497 0.05246117 -0.88101959 -0.47303644 -0.0064116367 0
-0.049391281 0.0013283881 0.052191015 -0.88539302 -0.46480867 -0.0056774449 0
-0.030474169 0.0029920659 0.053755913 0.92595708 0.038013656 0.37571052 0
-0.02867444 0.002880451 0.053306751 -0.52669895 0.20851777 0.82408041 0
0.01404344 0.0033469326 0.052303672 0.85681087 0.51562101 -0.0031763292 0
0.015454479 0.00081745564 0.052583754 0.8858943 0.46384743 -0.0060719312 0
-0.052733973 0.0075960229 0.052498512 -0.90147841 -0.43282393 0.00028738481 0
-0.028588127 0.0050980048 0.054239672 -0.16822515 -0.96290278 0.21099427 0
-0.012523419 0.0099725919 0.05486156 0.077252872 0.98356342 0.16320218 0
0.01184091 0.0072930972 0.052776851 0.88989151 0.45616373 -0.0027807967 0
-0.052132066 0.012055688 0.05246387 -0.64246869 0.76606208 0.019567996 0
-0.048416208 0.014195128 0.052425958 -0.45712116 0.88930196 0.013496466 0
-0.012558078 0.012395987 0.053496834 -0.010332067 0.020533264 0.99973577 0
0.0088600609 0.012972943 0.052432597 0.88349122 0.468445 0.0015824889 0
0.010228686 0.010382213 0.05367237 0.88425165 0.4669829 0.005092389 0
-0.045927625 0.015460817 0.052467104 -0.45825475 0.88863856 0.017999843 0
-0.042388141 0.017314576 0.052473109 -0.46632689 0.88432455 0.022569502 0
-0.038783859 0.019247811 0.052358851 -0.52316362 0.85203403 0.018378602 0
0.0065150768 0.017391229 0.052735444 0.88284528 0.46965507 0.0028714023 0
-0.036489971 0.020858655 0.052545976 -0.55250418 0.8335045 -0.0030434397 0
-0.032345854 0.023122437 0.05252225 -0.46786085 0.88379985 0.0019989673 0
-0.029378133 0.024702262 0.052026086 -0.47018632 0.88255632 0.0043820795 0
0.0037681584 0.022311389 0.052447043 0.87405109 0.48581448 0.0043552271 0
0.0050858976 0.020077653 0.054248661 0.84142929 0.54034168 -0.0052625858 0
-0.026884293 0.026021799 0.052221615 -0.468279 0.88357311 0.0036505444 0
-0.022368701 0.028492972 0.052414671 -0.52733517 0.84965599 -0.0015227525 0
-0.00013716852 0.029730251 0.052028771 0.88727289 0.46116453 -0.0086055594 0
0.001161026 0.027247671 0.052516807 0.88515443 0.46529731 -0.00031787789 0
-0.020062201 0.030066838 0.052917954 -0.56787395 0.82285631 -0.020656634 0
-0.017457983 0.031426352 0.052476972 -0.45995167 0.88792092 -0.0063892072 0
-0.012652851 0.033931617 0.052612923 -0.47236434 0.88139719 -0.0033191941 0
-0.0015827224 0.032539055 0.052532069 0.88883901 0.45821452 -0.0022024326 0
-0.010321267 0.035188641 0.05249745 -0.47662941 0.87887543 -0.020057378 0
-0.0075470661 0.036614999 0.05256651 -0.38551131 0.92270285 0.00072397181 0
-0.0036576213 0.036270391 0.052730322 0.769427 0.63867456 -0.0087743755 0
-0.02719084 -0.036671955 0.056050949 -0.22236231 -0.49865839 0.83779156 0
-0.02269092 -0.036001861 0.05581715 0.3438617 -0.63808995 0.68891251 0
-0.030915428 -0.032101206 0.055859182 -0.66875976 -0.36016083 0.6504187 0
-0.027402939 -0.032417305 0.056709774 -0.081783414 -0.056425218 0.99505162 0
-0.022189837 -0.032722183 0.056642048 0.064142138 -0.095262274 0.99338359 0
-0.017867485 -0.032348812 0.056270763 0.19522463 -0.36152184 0.91169584 0
-0.012893514 -0.030832322 0.055747621 0.40673137 -0.61076427 0.67936486 0
-0.035074066 -0.025163718 0.055254221 -0.84688693 -0.46138638 0.26439583 0
-0.032405 -0.027342072 0.056276761 -0.47444442 -0.26994422 0.83787388 0
-0.027643679 -0.027439576 0.056836028 0.014028622 -0.015065869 0.99978811 0
-0.022445612 -0.027513217 0.056760788 0.010116968 -0.012252349 0.99987376 0
-0.017579943 -0.027657226 0.056702476 0.00512429 -0.018460013 0.99981648 0
-0.012448037 -0.027659664 0.056651756 0.030097684 -0.21296141 0.97659695 0
-0.0078268014 -0.027195781 0.056436103 0.28736764 -0.56230843 0.77538967 0
-0.0035918492 -0.025656104 0.056086019 0.3892431 -0.73854828 0.55048734 0
-0.036172416 -0.022017254 0.056016706 -0.61235636 -0.40394282 0.67959535 0
-0.032779951 -0.022760272 0.056885481 -0.10874716 -0.04069886 0.99323595 0
-0.0273547 -0.022472419 0.056915764 0.016603151 -0.01855506 0.99968994 0
-0.022401107 -0.022398405 0.056832578 0.014316224 -0.010973373 0.99983722 0
-0.017666779 -0.022564013 0.056795824 -0.020126119 -0.030702135 0.99932587 0
-0.012436482 -0.022731032 0.057063393 -0.051656552 -0.027853757 0.99827629 0
-0.0076306728 -0.022484619 0.057113618 -0.0020576392 -0.0010770482 0.99999726 0
-0.0025304903 -0.022614582 0.05694316 0.099864893 -0.18200985 0.97821236 0
0.0024279382 -0.021954186 0.056321084 0.36944583 -0.59415382 0.71448648 0
0.0060169413 -0.020550866 0.05572132 0.46094111 -0.77749318 0.42782906 0
-0.040406901 -0.015542286 0.05562919 -0.84010887 -0.45915455 0.28878042 0
-0.037432797 -0.017499814 0.056552853 -0.33727124 -0.19374965 0.9212541 0
-0.032570641 -0.017477952 0.056928493 0.0071935966 -0.012552347 0.99989533 0
-0.027728217 -0.017518349 0.056887873 0.0134898 0.0018292007 0.99990731 0
-0.022220654 -0.017438075 0.056677956 0.091532171 0.19359769 0.97680181 0
-0.017661247 -0.017532406 0.056796305 -0.14553399 0.089396991 0.98530608 0
-0.012465492 -0.017681856 0.057117932 -0.0043069874 -0.0048928456 0.99997878 0
-0.0076134484 -0.017479526 0.057107978 0.003475087 -0.00099812588 0.99999344 0
-0.0024276623 -0.01753452 0.057117108 -0.0068027987 0.0077267522 0.99994695 0
0.0024765374 -0.017602783 0.05712885 -0.020159299 -0.025801858 0.9994638 0
0.0074309451 -0.017852847 0.056888685 0.16915634 -0.37200209 0.91268861 0
0.012189204 -0.0166869 0.056332171 0.36465046 -0.66894269 0.64772344 0
0.015775746 -0.015348188 0.055880837 0.44555336 -0.82126796 0.35637215 0
-0.041378323 -0.012218619 0.056305297 -0.58298552 -0.32111186 0.74633437 0
-0.037409496 -0.012436722 0.057024922 -0.016321316 -0.024083069 0.99957675 0
-0.03261878 -0.012543081 0.057004143 0.0038492719 -0.014208807 0.99989164 0
-0.027474491 -0.012495083 0.056975037 0.0065947999 -0.021777652 0.99974102 0
-0.022561027 -0.012313886 0.056406364 0.45373553 -0.27815565 0.84661293 0
-0.017372793 -0.012324277 0.056558799 -0.43959874 -0.23815362 0.86604607 0
-0.0126445 -0.012806304 0.057126306 -0.0045339651 0.002490089 0.99998659 0
-0.0072995662 -0.012448246 0.057108581 0.002009873 -0.001074879 0.99999744 0
-0.0025860881 -0.012636601 0.057105962 0.0049903938 0.00076045503 0.99998724 0
0.0024616246 -0.012345377 0.057230152 -0.053581208 -0.021703705 0.99832761 0
0.0074701733 -0.012572388 0.057305962 0.0017760445 0.010063259 0.99994779 0
0.012346244 -0.012374973 0.057293419 0.010278209 -0.014235589 0.99984586 0
0.017473377 -0.012453366 0.056882143 0.1965697 -0.33275443 0.92229867 0
0.020828992 -0.011558907 0.056095839 0.78581327 -0.29991356 0.54087824 0
-0.045441229 -0.0057798424 0.055739664 -0.79608804 -0.41223389 0.4430657 0
-0.042585809 -0.0074488665 0.05672634 -0.31464288 -0.14864516 0.93749905 0
-0.037496842 -0.0072594569 0.057092503 -0.00030147843 -0.010752155 0.99994218 0
-0.032460071 -0.0077332724 0.057066489 0.0076965713 -0.013313541 0.99988174 0
-0.027510334 -0.0076405578 0.057051819 0.013041103 -0.019574095 0.99972332 0
-0.022630131 -0.0075794086 0.057037197 -0.031578917 -0.044259604 0.99852079 0
-0.017225975 -0.0073052738 0.057136372 -0.0010065108 -0.026253138 0.99965477 0
-0.012462178 -0.0073273918 0.057117075 0.015798636 -0.024818726 0.99956715 0
-0.0072327112 -0.0071786041 0.056895684 0.12699005 0.062489286 0.98993367 0
-0.0024119557 -0.007374547 0.056642182 -0.1337364 0.41798764 0.89855492 0
0.0025346517 -0.0074911318 0.057236742 -0.010510633 0.011493643 0.99987876 0
0.0073454385 -0.0074679335 0.057251625 -0.0067049046 0.012252283 0.99990249 0
0.012778146 -0.0076138694 0.057280295 -0.01105733 0.0068867938 0.99991518 0
0.017623061 -0.0074025444 0.056977801 0.30228499 0.17163607 0.93763793 0
0.020373408 -0.0089792451 0.056096692 0.73603719 0.43465149 0.51896757 0
