# .PCD v0.7 - Point Cloud Data file format
VERSION 0.7
FIELDS x y z normal_x normal_y normal_z curvature
SIZE 4 4 4 4 4 4 4
TYPE F F F F F F F
COUNT 1 1 1 1 1 1 1
WIDTH 638
HEIGHT 1
VIEWPOINT 0 0 0 1 0 0 0
POINTS 638
DATA ascii
0.014804503 0.073459081 0.0051059392 0.0013904183 0.82381403 -0.56685847 0
0.025035465 0.073446013 0.0047262395 -0.0006790823 0.88065332 -0.47376084 0
0.034612987 0.073200658 0.0048161577 -0.0085885804 0.78188121 -0.62336826 0
0.045423523 0.073325634 0.0049010087 -0.026894392 0.87895888 -0.47613853 0
0.054956898 0.073641866 0.0050830641 -0.011359848 0.91423714 -0.40502006 0
0.065390877 0.073192984 0.0042571216 -0.0072183865 0.79691052 -0.60405421 0
0.076442458 0.073047064 0.0049522249 0.43154496 0.82726109 -0.35973331 0
-0.032810692 -0.050138988 0.017545152 -0.015720408 -0.99828529 -0.056386854 0
-0.022848686 -0.051109094 0.015769254 -0.55124414 -0.83390903 -0.026936602 0
-0.015103492 -0.05574375 0.015123458 -0.08944162 -0.99594867 0.00929737 0
-0.0048689931 -0.055632226 0.015152702 0.076306164 -0.99157029 0.10471763 0
0.0046853865 -0.055195149 0.01537869 0.0066891876 -0.99996066 0.0058248611 0
0.015079082 -0.055321082 0.015236639 -0.017841002 -0.99971974 -0.015565649 0
0.025471324 -0.055538636 0.015119609 -0.020260803 -0.99940121 -0.028047012 0
0.035202175 -0.055707205 0.015524414 -0.011245864 -0.99921274 -0.038045224 0
0.045704126 -0.055691633 0.014005408 -0.0011657939 -0.99853063 -0.054177463 0
0.05526074 -0.055581059 0.015503705 0.064583384 -0.99671775 -0.048813425 0
0.064947188 -0.054927103 0.015029441 0.0054397313 -0.99997318 -0.004886725 0
0.075114332 -0.054954626 0.015013739 -0.010657586 -0.99988145 0.01111499 0
0.083137922 -0.053013518 0.015307298 0.76609749 -0.64190894 -0.032365385 0
-0.0446629 -0.046579059 0.014981763 -0.82683343 -0.56019258 0.050306804 0
-0.035816416 -0.049820688 0.01356463 -0.032859992 -0.99851936 -0.043351896 0
-0.027259998 -0.049920518 0.011765417 -0.029221535 -0.9983446 -0.049539134 0
0.086675555 -0.044966973 0.015454494 0.96706635 -0.2330782 -0.1022608 0
-0.045306522 -0.034833577 0.015392187 -0.99769193 0.046123214 0.049832907 0
0.08772818 -0.034791958 0.015061107 0.99613482 -0.037097596 -0.079618432 0
-0.04563069 -0.025397362 0.015168806 -0.99727285 -0.067202121 0.030508913 0
0.087965049 -0.025618501 0.01520906 0.99228311 -0.0096834339 -0.12361439 0
-0.046326064 -0.015102078 0.015113374 -0.99976337 0.015801337 -0.014949813 0
0.086700976 -0.015093876 0.015562757 0.95628518 0.28459534 -0.067261875 0
-0.046148099 -0.0048566726 0.014906336 -0.99975103 0.018942734 -0.011795008 0
0.084570684 -0.00519598 0.014308785 0.99914259 0.039933566 0.010931154 0
-0.047644258 0.0053854585 0.015162848 -0.97496504 -0.14447853 -0.16902392 0
0.08539623 0.0056329505 0.015354172 0.99465376 -0.050885439 -0.089857943 0
-0.047766574 0.015044839 0.014858377 -0.98386794 0.016425639 -0.17814037 0
0.085477501 0.01501116 0.014055327 0.99535137 -0.018481491 -0.094520211 0
-0.045941882 0.025548691 0.015338963 -0.78080899 0.60702735 -0.14783472 0
-0.034887098 0.028207749 0.015551312 -0.028542282 0.99908006 -0.032005332 0
-0.025110545 0.028527558 0.013844997 -0.28076559 0.919258 -0.27592641 0
0.084300622 0.024673564 0.015199794 0.96123189 0.27380824 0.032591727 0
-0.043185424 0.033941265 0.01964617 0.073345557 0.1527662 -0.98553681 0
-0.039086077 0.034092735 0.019747373 0.06091192 0.48766813 -0.87090158 0
-0.02401275 0.034828261 0.01539882 -0.81917024 -0.11775562 -0.56133205 0
0.083152942 0.034855243 0.014779897 0.99796277 0.050490025 0.039000198 0
-0.030117443 0.047482472 0.018136768 -0.96675056 -0.2077315 -0.14913385 0
-0.026130399 0.044852018 0.014091756 -0.75817364 -0.31811768 -0.56918705 0
0.079815418 0.04947817 0.013873775 0.99393034 0.10845604 -0.018434819 0
0.082518935 0.044522673 0.01511758 0.96384579 0.26622829 -0.011124417 0
-0.030219179 0.055123433 0.015068667 -0.99934822 -0.020247141 -0.029884906 0
-0.029921172 0.053069338 0.013695917 -0.99857998 -0.051219303 0.014647893 0
0.079796016 0.055323321 0.015515628 0.99986428 0.010406804 -0.012768394 0
-0.030562034 0.064955406 0.015584293 -0.99752867 -0.034778025 -0.061048258 0
-0.00051603431 0.069268078 0.010349517 0.054804143 0.79375386 -0.60576504 0
0.079701699 0.065045416 0.014737987 0.99999368 -0.0016527354 -0.0031295286 0
-0.03452111 0.073095761 0.017778397 -0.62824798 -0.34710345 -0.69629282 0
-0.025185427 0.074113801 0.015252565 -0.22136945 0.96657556 -0.12933375 0
-0.015092766 0.074703887 0.014862555 -0.034213036 0.97911441 -0.20041077 0
-0.0044783982 0.075008705 0.01525911 0.096431948 0.88844222 -0.44874394 0
0.0047800303 0.075284734 0.014806243 -0.19766939 0.92976624 -0.31058258 0
0.014915861 0.075821996 0.015359351 -0.0062389397 0.89885426 -0.43820322 0
0.025095029 0.075552717 0.015102588 0.012533313 0.90179056 -0.43199164 0
0.034885205 0.075831078 0.015177341 -0.02014599 0.95687228 -0.28980947 0
0.045026213 0.075948924 0.014814757 -0.017707655 0.92914611 -0.36928827 0
0.054964349 0.076112345 0.014727833 -0.027311992 0.91375089 -0.40535581 0
0.064925924 0.076735273 0.015253318 -0.030192297 0.89352161 -0.44800389 0
0.075728782 0.075145274 0.015476482 0.59154469 0.77673239 -0.21624446 0
-0.042868525 -0.054037459 0.028784191 -0.2059903 -0.23669268 -0.94949698 0
-0.034299515 -0.053541198 0.027125146 -0.090075284 -0.65586638 -0.74948359 0
-0.024925224 -0.053076781 0.025759529 -0.17076366 -0.80254835 -0.57162565 0
-0.016331641 -0.05538179 0.02528608 -0.13607691 -0.9900986 -0.034462988 0
-0.0053747753 -0.055512127 0.025552023 -0.011655907 -0.99896222 -0.044029269 0
0.0057466975 -0.05574166 0.02488941 -0.028355913 -0.99055433 -0.13415651 0
0.015073803 -0.056126248 0.025539991 -0.03510119 -0.95285243 -0.30139726 0
0.02526461 -0.056431726 0.025582718 -0.03687311 -0.97358876 -0.22531144 0
0.034794427 -0.057285774 0.025658561 -0.055019334 -0.93465269 -0.35127941 0
0.044733811 -0.05739351 0.025470871 -0.017666988 -0.9593972 -0.28150466 0
0.055404384 -0.056677207 0.025575088 0.082728185 -0.96423918 -0.25179145 0
0.065179199 -0.055425085 0.025389841 0.0020838347 -0.993343 -0.11517587 0
0.074671932 -0.055357832 0.02500839 0.0041089877 -0.98042059 -0.19687229 0
0.083128251 -0.05302231 0.025308453 0.67963529 -0.73220605 -0.044386461 0
-0.0444359 -0.045972053 0.024896877 -0.90509045 -0.42510685 -0.0097674495 0
-0.038244214 -0.049723543 0.024224652 -0.13543852 -0.99035132 0.029339157 0
0.087264359 -0.044904102 0.025129788 0.96691042 -0.22252291 0.1247712 0
-0.045156691 -0.034279183 0.025306607 -0.99272317 0.034786001 -0.11528444 0
0.088122681 -0.035108954 0.025173973 0.99857897 -0.053115845 0.0043264497 0
-0.046229634 -0.025488373 0.025475632 -0.91081959 -0.19203737 -0.36541653 0
0.088550545 -0.024912979 0.025032487 0.9993189 -0.010031452 0.035511188 0
-0.046938349 -0.014997597 0.026220629 -0.89292336 0.024792872 -0.44952542 0
0.087431796 -0.014754856 0.024837168 0.97881424 0.18608017 -0.085420646 0
-0.046459164 -0.0052131978 0.025133107 -0.98241967 0.010586394 -0.18638548 0
0.086071268 -0.0050426731 0.024985176 0.97977674 0.047346376 -0.19441138 0
-0.050198961 0.0068393149 0.028188664 -0.99678755 0.0064532966 0.079830579 0
-0.048857436 0.0046005365 0.02532717 -0.93685716 -0.33368298 0.10466275 0
0.086278774 0.0048166071 0.024477931 0.99067241 -0.061420497 -0.12163716 0
-0.050164104 0.016288491 0.02843109 -0.99984407 0.0084155062 -0.015527318 0
-0.049256954 0.015306423 0.024935177 -0.99771363 0.0051889215 0.067383692 0
0.086555332 0.015023443 0.024790399 0.99391466 -0.0064888941 -0.10996196 0
-0.050174642 0.022906259 0.029048787 -0.99120724 0.12774222 -0.034499314 0
-0.046710759 0.026189515 0.024760019 -0.85731077 0.49973619 -0.12362063 0
-0.035973232 0.028901426 0.022165181 -0.26479647 0.75176156 -0.60393482 0
-0.029943146 0.029646732 0.020224027 -0.43422154 0.45813963 -0.77560288 0
0.084596932 0.025084019 0.024996554 0.93107134 0.19819506 -0.30630845 0
-0.0458293 0.034906451 0.02383888 -0.84570038 -0.0053180736 -0.5336315 0
-0.034643851 0.034178987 0.021731632 0.023902271 0.011546905 -0.99964768 0
-0.027844487 0.035425078 0.021512598 -0.41683617 0.21275412 -0.88373262 0
0.084194578 0.035150658 0.025708672 0.96084702 0.012038327 -0.27681798 0
-0.045509771 0.04436256 0.025902864 -0.60208714 0.31926662 -0.73181963 0
-0.034027819 0.045554839 0.025210198 -0.28562048 0.37054628 -0.8838079 0
-0.029158881 0.043012701 0.022077078 -0.922598 -0.30559501 -0.23542441 0
0.083661906 0.04551854 0.025422163 0.9150393 0.11444926 -0.3867875 0
-0.044282779 0.052741326 0.028830132 -0.022053087 0.44945136 -0.89303249 0
-0.032369092 0.052469466 0.025994562 -0.86976498 0.35348457 -0.34432188 0
-0.029718682 0.057617474 0.025847757 -0.99199969 0.12219092 0.031717349 0
0.079869449 0.056457043 0.021501431 0.99628735 0.030714545 -0.080424756 0
0.083007038 0.055281997 0.026495956 0.79007518 0.07519307 -0.60838085 0
-0.03123226 0.066229336 0.024405254 -0.96568632 -0.2579461 -0.0302283 0
-0.029652612 0.060765613 0.027133448 -0.97398669 -0.21178021 0.080616176 0
0.079764612 0.06530688 0.022824155 0.99960941 0.015358515 -0.023345888 0
0.083312906 0.064253002 0.027670616 0.64931995 0.051671542 -0.75875801 0
-0.034447707 0.073558174 0.02408562 -0.73617435 0.66046995 -0.14773859 0
-0.025044169 0.07544522 0.024979776 -0.099582292 0.9928112 -0.066402778 0
-0.014625931 0.076482423 0.024655696 -0.09298747 0.9931879 -0.070221171 0
-0.0048367134 0.077353768 0.025585292 -0.06177092 0.99660939 -0.054351039 0
0.0052413838 0.078014731 0.025270769 -0.072754115 0.99701452 -0.025862293 0
0.014681197 0.078464314 0.024518766 -0.0090157678 0.99964988 -0.024879022 0
0.02544184 0.078460328 0.024829527 0.0019860105 0.99978554 -0.020615881 0
0.034713432 0.078423545 0.024927728 0.0045179129 0.99978328 -0.020321481 0
0.045021586 0.078377783 0.02496741 0.0045179133 0.99978322 -0.020321483 0
0.055241104 0.078333229 0.025046797 0.0045179138 0.99978328 -0.020321485 0
0.065085784 0.078280479 0.02469538 0.0051439838 0.99978828 -0.019921958 0
0.075921811 0.075899221 0.02449036 0.52763474 0.84899521 -0.028438577 0
0.083507694 0.072161615 0.028162576 0.66055793 0.43605912 -0.61115932 0
0.037862308 -0.060045946 0.039320357 -0.018317962 -0.99821806 -0.05679097 0
0.045838419 -0.060143784 0.038462136 -0.018414384 -0.99821144 -0.056874555 0
0.053219434 -0.060168106 0.036624547 0.0095339995 -0.99810261 -0.060830545 0
-0.044199683 -0.05546305 0.034681167 -0.82688332 -0.56230855 0.0085457899 0
-0.035337042 -0.058165301 0.034773316 -0.067526937 -0.99714506 -0.03378956 0
-0.025392046 -0.058740031 0.034447812 -0.044433139 -0.99898523 -0.0073601939 0
-0.015858717 -0.056075677 0.034920905 0.26195949 -0.9645375 -0.032321025 0
-0.0053879814 -0.055841248 0.034763433 -0.023109609 -0.99916679 -0.033640213 0
0.0050456789 -0.057037082 0.035305522 -0.18978365 -0.98028326 -0.055016603 0
0.015604789 -0.058207437 0.03521331 -0.026672516 -0.99821556 -0.053425688 0
0.024743624 -0.058424365 0.035315428 -0.021107441 -0.99943155 -0.026285948 0
0.0341128 -0.059502769 0.034724083 -0.16370398 -0.98533338 -0.048157185 0
0.044312097 -0.059808441 0.033065282 -0.018326217 -0.99821746 -0.056798141 0
0.056191616 -0.057978474 0.034190487 0.41254029 -0.90780699 -0.075477742 0
0.065328851 -0.056719232 0.035060205 -0.032878235 -0.99942249 -0.0085847396 0
0.074860163 -0.057174172 0.035054401 -0.057601146 -0.99811566 -0.021150278 0
0.083543628 -0.055191271 0.035508376 0.83779335 -0.53672683 -0.10013293 0
-0.045104373 -0.04476288 0.035757955 -0.99941266 0.030972091 0.014660154 0
0.085236311 -0.044414405 0.034315679 0.99613243 -0.073515907 0.048119489 0
-0.045724031 -0.034078807 0.035271183 -0.93961769 -0.34214664 0.0073710107 0
0.086106509 -0.03514041 0.03418367 0.95551151 -0.082508005 0.28317875 0
-0.048646625 -0.024665669 0.034611102 -0.99844134 -0.024517993 0.050137054 0
0.08667355 -0.025118086 0.034351144 0.99215961 -0.0406974 0.11816569 0
-0.0488226 -0.0154444 0.035566892 -0.99839604 -0.02424863 0.051159557 0
0.086917788 -0.01502912 0.034129024 0.98639524 -0.018443216 0.16335306 0
-0.048545104 -0.0054975934 0.034628563 -0.99422729 0.093166269 -0.05321664 0
0.087333202 -0.0051661073 0.035060879 0.99236912 -0.093953952 -0.079851635 0
-0.048050877 0.0051887529 0.035084229 -0.97684658 -0.025129898 -0.21245994 0
0.087698191 0.0049146982 0.034168743 0.99025881 -0.0090382649 -0.13894537 0
-0.048078019 0.015291325 0.034973267 -0.99789667 -0.0052064126 -0.064614907 0
0.087907255 0.014610217 0.035455592 0.9911294 -0.002456422 -0.13287778 0
-0.048336346 0.024740633 0.034602083 -0.99787766 -0.0042540128 0.064977013 0
0.087113388 0.024993856 0.035307206 0.99509537 0.0924896 -0.035084073 0
-0.048394233 0.034336481 0.034516651 -0.99326414 0.001408573 -0.11586422 0
0.086835295 0.035325296 0.03526542 0.9996323 0.012846931 -0.023881689 0
-0.048537143 0.045757856 0.0353701 -0.99345791 -0.0078752544 -0.11392693 0
0.086628795 0.044615477 0.034906041 0.99800128 0.058771484 -0.023226291 0
-0.045002922 0.05337688 0.034666799 -0.4468793 0.826796 0.34162441 0
-0.03489298 0.056429047 0.034943659 -0.36565065 0.85961163 -0.35688603 0
-0.02947703 0.058205165 0.032334685 -0.95996481 0.26031637 -0.10345533 0
0.085920863 0.055246715 0.035133444 0.9983905 0.054301549 0.01636624 0
-0.03196026 0.064799502 0.035287023 -0.97650236 -0.020025646 -0.21457423 0
-0.028367419 0.064231314 0.036390733 -0.97659945 0.039805107 0.21135043 0
0.085373349 0.065181844 0.034995239 0.99837786 0.056292333 0.0085322494 0
-0.040418383 0.075167887 0.038414888 -0.39671409 -0.90917927 -0.12653403 0
-0.034942511 0.074264772 0.03530664 -0.71376878 0.69649959 0.073637791 0
-0.024707895 0.076057047 0.035025012 -0.15853399 0.98189157 -0.10371069 0
-0.015373698 0.077569783 0.034862015 -0.094836056 0.98974478 -0.10682381 0
-0.0045386911 0.078198098 0.035122789 -0.021960171 0.99625039 -0.083683148 0
0.0051463409 0.078467302 0.034744173 -0.047343425 0.99669385 -0.066030599 0
0.015135659 0.078630462 0.03534044 0.030789509 0.99938893 -0.016547306 0
0.025180202 0.078555472 0.03519411 -0.0090543879 0.99995887 0.00046037315 0
0.035132654 0.078607917 0.035050299 -0.001812192 0.99994189 -0.010629868 0
0.045112699 0.078578323 0.034853317 0.0045179138 0.99978328 -0.020321485 0
0.054895807 0.078530639 0.034684513 0.0045576324 0.99978358 -0.020296121 0
0.064971492 0.078482531 0.035102461 0.0073042023 0.9998014 -0.018543305 0
0.07528393 0.077009954 0.035233442 0.48530915 0.8743037 0.0082523916 0
0.08383321 0.073234268 0.034797702 0.73039156 0.68281907 -0.016920943 0
0.03585352 -0.060346778 0.045254987 -0.018352564 -0.99821568 -0.056820996 0
0.044750609 -0.060486972 0.044835076 -0.018451687 -0.99820894 -0.056906924 0
0.054400932 -0.060572326 0.045089852 0.18790519 -0.97932929 -0.074872196 0
-0.044055726 -0.055708326 0.045168206 -0.80912811 -0.58759731 0.0064033 0
-0.035154119 -0.058377508 0.044946965 -0.037857603 -0.99928308 0.00015527201 0
-0.024381893 -0.058734316 0.045267686 -0.032196082 -0.99945962 0.0066225938 0
-0.015944505 -0.056390844 0.044988144 0.30599743 -0.95139301 -0.034885518 0
-0.0052859802 -0.056340273 0.045504902 -0.047211818 -0.99751008 -0.052390791 0
0.0050589642 -0.057338603 0.045460697 -0.17460957 -0.98422104 -0.028642103 0
0.014607561 -0.05847564 0.045318168 -0.020957822 -0.99942797 -0.026541147 0
0.024806473 -0.058681469 0.044808645 -0.023615014 -0.99922466 -0.03150272 0
0.031953085 -0.059338793 0.047700144 -0.49598995 -0.85644639 0.14315572 0
0.05802336 -0.057722602 0.044329073 0.81584507 -0.57397795 -0.070328653 0
0.064834639 -0.056802921 0.044105995 -0.042214233 -0.99904507 -0.011267241 0
0.07503356 -0.05725136 0.044607833 -0.034418177 -0.99937606 0.0079309344 0
0.083957955 -0.055137645 0.045494698 0.86860865 -0.49529067 -0.014353939 0
-0.044979602 -0.045377586 0.044372581 -0.99967068 0.016581407 0.019586399 0
0.08528465 -0.045293637 0.044657875 0.99873888 -0.048757628 -0.01197338 0
-0.045460079 -0.03473863 0.044801634 -0.9759289 -0.21806519 0.0032471376 0
0.08580973 -0.035296779 0.044848859 0.99810743 -0.061384156 -0.0036775938 0
-0.048123002 -0.024526641 0.044979103 -0.99838674 -0.022506183 0.052129235 0
0.086332455 -0.024885638 0.045054827 0.99929553 -0.037416123 0.0029233301 0
-0.048266068 -0.015415202 0.045737334 -0.99806786 -0.019664695 0.058939368 0
0.086726099 -0.015237622 0.044861645 0.99901813 -0.044000082 -0.0051766187 0
-0.050388619 -0.0028276409 0.047991797 -0.97740221 -0.12930423 -0.16722894 0
-0.048883863 -0.005940537 0.04474866 -0.99305403 -0.11590096 -0.0202647 0
0.088269025 -0.0051323907 0.045247775 0.94401103 -0.31642112 -0.09338522 0
-0.050382122 0.005737531 0.048103377 -0.98512518 0.0046694009 -0.17177466 0
-0.049506318 0.0046505597 0.043024834 -0.98547703 0.0027805669 -0.16978583 0
0.089144208 0.0045953542 0.044655472 0.99092144 -0.00035695566 -0.13444173 0
-0.050328575 0.013285127 0.04860805 -0.98640597 0.038895227 -0.15965749 0
-0.04936412 0.015341612 0.043265112 -0.98587799 0.033557586 -0.1640687 0
0.089188136 0.014764401 0.044983372 0.99105734 -0.0011086387 -0.13343118 0
-0.046706792 0.024189871 0.044775315 -0.96114826 -0.056112532 0.27026895 0
0.087427378 0.024538305 0.044906724 0.97553021 0.21857506 -0.023785003 0
-0.050050616 0.038280901 0.049243599 -0.99501365 -0.024184432 -0.096761853 0
-0.048876096 0.034949359 0.045093883 -0.98091584 -0.14511962 0.12940046 0
0.087121181 0.035645828 0.044902928 0.99938452 0.001516836 -0.035046466 0
-0.050115537 0.041575272 0.049333353 -0.99423939 -0.012610532 -0.10643823 0
-0.046427995 0.04633395 0.044946279 -0.84511375 0.50710773 0.16918802 0
0.086858347 0.045031145 0.044572823 0.99514538 0.094634309 -0.027022706 0
-0.042260028 0.054739144 0.044555865 -0.97579288 -0.030505391 -0.2165585 0
-0.038291574 0.054743163 0.041130308 -0.53864765 -0.073000684 -0.83936256 0
0.085747942 0.05535863 0.045074295 0.99848837 0.052788191 0.015309889 0
-0.042740319 0.064807311 0.044985984 -0.90472084 0.0078520458 -0.42593268 0
-0.035717525 0.065398797 0.041692842 -0.1717993 0.24765094 -0.95349574 0
-0.026638528 0.067840189 0.041031402 -0.40348712 0.1767699 -0.89774746 0
0.085273206 0.065189727 0.04475772 0.99905223 0.043457843 0.002483262 0
-0.042382978 0.074077949 0.045063406 -0.87823343 0.33834866 -0.33797351 0
-0.035456266 0.075187333 0.044103831 -0.12332791 0.92761463 -0.35259223 0
-0.025158657 0.076796852 0.044365354 -0.13824147 0.98722106 -0.079270072 0
-0.015006065 0.078096695 0.045223128 -0.045875702 0.99894595 0.0015435218 0
-0.0051493449 0.078440748 0.044947058 -0.032646146 0.99937487 0.013566992 0
0.0048248158 0.07875929 0.045007262 -0.031591855 0.99936956 0.016196461 0
0.015262536 0.078727178 0.044903513 0.040028144 0.9991976 0.0013855596 0
0.024497731 0.078535162 0.045085628 -0.009724482 0.99995166 0.0014866292 0
0.035206284 0.078639388 0.045030631 -0.0097244829 0.99995166 0.0014866296 0
0.045022111 0.078724965 0.045078292 -0.0065831584 0.99997282 -0.0033241741 0
0.055427622 0.078730978 0.045110181 0.003916407 0.99987751 -0.015154846 0
0.064770743 0.078662187 0.044877663 0.0080134263 0.99980432 -0.018090647 0
0.075204268 0.077166967 0.045278184 0.4142192 0.9101699 -0.0036287236 0
0.08354485 0.073495492 0.045073707 0.5850274 0.81093746 -0.011106933 0
0.036125731 -0.060525943 0.051370185 -0.13081846 -0.91016364 0.39305064 0
0.046424929 -0.060329836 0.054654583 -0.047330156 -0.99527323 0.084799781 0
0.054423388 -0.06076289 0.054769225 0.046840932 -0.99889845 0.0028054407 0
-0.043756627 -0.055853151 0.055153839 -0.83885157 -0.54418528 0.013798688 0
-0.035236824 -0.058472108 0.055105194 -0.027076367 -0.99926478 -0.027140833 0
-0.024938881 -0.058746602 0.055036206 -0.027297862 -0.99939513 -0.021547034 0
-0.01505614 -0.056673501 0.054991029 0.17963775 -0.98255879 -0.048046697 0
-0.0046507004 -0.056788132 0.054495431 -0.046905104 -0.99828732 -0.034963164 0
0.0048081973 -0.057548232 0.054479875 -0.13026755 -0.99117243 -0.024647724 0
0.014424025 -0.058772609 0.05493246 -0.0349584 -0.99871629 -0.036655109 0
0.024643783 -0.059172962 0.055574752 -0.037468143 -0.9982326 -0.04612815 0
0.034555819 -0.059562102 0.055000305 -0.048958197 -0.99850982 -0.024108578 0
0.042584952 -0.059849169 0.055023596 -0.054947831 -0.99836671 -0.01564151 0
0.058276884 -0.057995513 0.054547068 0.94787532 -0.31509677 -0.047395132 0
0.064456344 -0.056849085 0.054388851 -0.037815876 -0.9992817 -0.0024611112 0
0.074351043 -0.057161149 0.054305859 -0.029949902 -0.99954587 -0.003321273 0
0.084212512 -0.055451483 0.054773971 0.87029111 -0.49230593 -0.015107323 0
-0.044717621 -0.044539582 0.054471172 -0.99956292 0.0022428192 0.029475931 0
0.085411869 -0.044838544 0.054524541 0.99882931 -0.047759306 -0.0076891081 0
-0.045409571 -0.034592871 0.054771017 -0.95232129 -0.30496019 0.0091316151 0
0.085845456 -0.035720885 0.05541569 0.99908578 -0.042559285 -0.0040421947 0
-0.04751971 -0.025456382 0.055407956 -0.9979533 -0.01701271 0.061641872 0
0.086054035 -0.024763897 0.054646354 0.99728096 -0.0053368462 0.073499903 0
-0.0475378 -0.014185959 0.054877467 -0.99454457 0.047823049 0.092703961 0
0.086190149 -0.015279187 0.054910518 0.99184114 -0.050862662 0.11689387 0
-0.051075544 -0.0034135575 0.052297857 -0.99130046 -0.13078947 -0.014750665 0
-0.045643341 -0.0052208407 0.055835973 -0.61085492 0.17716883 0.77166539 0
-0.038750224 -0.0024860206 0.057896651 -0.86700815 0.35732406 0.34729862 0
0.087191917 -0.005551429 0.054447867 0.95035338 -0.28698194 0.12029082 0
0.090186 -0.0024965003 0.052678149 0.99753672 -0.012697029 0.068987198 0
-0.051114906 0.0041128551 0.052938856 -0.9997282 0.0046818731 -0.022836655 0
-0.044690832 0.0053241951 0.056080155 -0.17675564 -0.037050076 0.98355716 0
-0.038327135 0.0063203094 0.057835504 -0.83757073 -0.345384 0.42330286 0
0.087893851 0.0043068188 0.05553364 0.97077858 -0.063303009 0.23147711 0
0.090135157 0.0039788205 0.05230337 0.99997991 -0.0059489259 -0.0021869878 0
-0.050756682 0.015806336 0.053386107 -0.97353011 0.077025004 0.21518885 0
-0.04578384 0.015091537 0.05688636 -0.56189519 -0.18447402 0.80637652 0
-0.039354805 0.01062006 0.057153035 -0.51899183 -0.38498271 0.76317477 0
0.089035138 0.014634877 0.05593634 0.98297858 -0.16567309 0.079408072 0
0.090230927 0.016803626 0.053735122 0.99823791 -0.052602891 0.027462678 0
-0.050391417 0.020211009 0.052227084 -0.46771666 0.88386124 -0.0055157319 0
-0.046718836 0.024495348 0.053529106 -0.97107416 0.12854509 -0.20122412 0
0.088566996 0.024789117 0.054732516 0.9715187 0.2083472 -0.11288397 0
0.090174161 0.022972815 0.056775413 0.99716645 0.024421155 0.07115256 0
-0.050147407 0.038757332 0.050119828 -0.99501371 -0.024184434 -0.096761867 0
-0.047677677 0.035185713 0.054527476 -0.98240584 -0.13612539 -0.12786216 0
0.088223428 0.035009976 0.055447012 0.96853852 0.083202884 -0.23454295 0
-0.05034117 0.04310561 0.051965952 -0.97310019 0.14923871 0.1755102 0
-0.045277569 0.045970377 0.054985654 -0.85659271 0.49190319 -0.15582079 0
0.087135531 0.045002528 0.054497566 0.97798479 0.18640088 -0.093810305 0
-0.042772248 0.055016022 0.05483558 -0.99589694 -0.086086489 -0.027896613 0
0.085694999 0.055137623 0.054956447 0.99916047 0.040952656 -0.0011162161 0
-0.043189097 0.064685754 0.055537909 -0.9996801 -0.024906319 0.0044024396 0
0.085293986 0.065281682 0.054820858 0.99922514 0.039212197 -0.0034025793 0
-0.042793516 0.073956959 0.054552153 -0.88763738 0.46053192 -0.0032017285 0
-0.035107885 0.07684508 0.054257367 -0.081694618 0.9961465 -0.031908091 0
-0.024918607 0.077608757 0.055170242 -0.055408671 0.99841017 -0.010347329 0
-0.015727749 0.077948608 0.055105731 -0.030496446 0.99941611 0.015407337 0
-0.0049657784 0.078279249 0.054978814 -0.030510655 0.99939108 0.01693156 0
0.0047785551 0.078578301 0.054617058 -0.023225952 0.9995349 0.019761991 0
0.014329636 0.078605518 0.055106446 0.014153768 0.99961603 0.02382368 0
0.024908034 0.078511916 0.05494117 -0.0011005882 0.99997181 0.0074317395 0
0.034662683 0.078581892 0.054847438 -0.0070780879 0.99989796 0.012406584 0
0.045190703 0.078658201 0.054839958 -0.008479083 0.99986017 0.014415093 0
0.054893833 0.078772783 0.055011559 -0.01277321 0.99989235 0.0072218776 0
0.064769514 0.078827664 0.054882549 0.0026402932 0.99993289 -0.011284989 0
0.07522472 0.077008724 0.054554302 0.28900301 0.95723468 -0.013380425 0
0.083987586 0.073291965 0.054892018 0.84161514 0.54005116 -0.0053541451 0
0.036569867 -0.060096428 0.067691408 -0.036321398 -0.99862379 -0.03783204 0
0.045179382 -0.060308632 0.065183416 -0.037117567 -0.99866712 -0.035864346 0
0.054487474 -0.060772754 0.065006658 0.020614788 -0.99970222 -0.013056261 0
-0.043592155 -0.05564256 0.065244697 -0.82183927 -0.5696007 0.011633731 0
-0.035433538 -0.058742724 0.064128377 -0.034120303 -0.99904549 -0.027274907 0
-0.024744183 -0.059086304 0.065255657 -0.024895027 -0.99906617 -0.035312403 0
-0.015543843 -0.057253867 0.064279966 0.16877912 -0.98442191 -0.049267333 0
-0.0047365916 -0.057105232 0.065144949 -0.043767784 -0.99854457 -0.031515613 0
0.0042981543 -0.057698496 0.066135921 -0.096371606 -0.99514014 -0.020213421 0
0.01558479 -0.059009537 0.065507896 -0.074212819 -0.99723327 0.004268033 0
0.024608033 -0.059535969 0.064970732 -0.043531649 -0.99857932 -0.030730173 0
0.033796303 -0.059844591 0.063763879 -0.037048448 -0.99858677 -0.038103342 0
0.058715291 -0.058133077 0.065590478 0.95249003 -0.30255836 -0.034946915 0
0.065334693 -0.056850616 0.065038085 -0.073825471 -0.99701005 0.022817945 0
0.075736098 -0.057404507 0.06525781 -0.038533676 -0.99912947 -0.015980504 0
0.083847284 -0.055447455 0.065508895 0.75126469 -0.65977925 -0.017105294 0
-0.044407804 -0.045248486 0.065262102 -0.99956781 -0.00044854739 0.029393476 0
0.08543548 -0.0451051 0.065027244 0.99886668 -0.047558133 -0.0018867451 0
-0.044902205 -0.034864068 0.065537833 -0.98002368 -0.18914235 0.061471023 0
0.085876152 -0.035552707 0.065142065 0.99940753 -0.034374818 -0.0016992149 0
-0.046893492 -0.024561401 0.064940587 -0.99568039 -0.051458921 0.077281401 0
0.0858633 -0.025479322 0.065266378 0.99983293 0.014778239 -0.010760511 0
-0.046699021 -0.01510535 0.065224431 -0.99495077 0.060104057 0.080377385 0
0.085927241 -0.014742337 0.065009512 0.99935627 -0.03131561 -0.017504266 0
-0.043421768 -0.0057103965 0.065225571 -0.77129042 0.62966835 -0.092891335 0
-0.039297868 -0.0022302496 0.062164813 -0.908858 0.31656772 -0.27159154 0
0.087186582 -0.0054071508 0.064863525 0.97540587 -0.21317527 -0.056033652 0
-0.043946628 0.0054426584 0.065679461 -0.70416582 -0.47170916 -0.5306986 0
-0.038618676 0.0028496778 0.062277995 -0.86924672 -0.19648762 -0.45365497 0
0.088709831 0.0053694164 0.065516591 0.99090672 -0.047251821 -0.12598106 0
-0.046942059 0.015071114 0.064981952 -0.9607591 -0.19045432 -0.20166574 0
0.089074895 0.01499937 0.065099932 0.99836141 -0.045296159 -0.034970351 0
-0.048284285 0.025047721 0.064699516 -0.98725152 -0.098627962 -0.12492746 0
0.089148574 0.025396446 0.064846605 0.99295908 0.0044903988 0.11837267 0
-0.050203741 0.038874205 0.069257103 -0.98671335 -0.091734573 -0.13409571 0
-0.049256492 0.034948602 0.064972803 -0.98669344 -0.091774404 -0.13421486 0
0.089107417 0.035391591 0.064850047 0.99692941 0.02949935 0.072537094 0
-0.050291218 0.04112871 0.068358488 -0.98671329 -0.091734581 -0.13409573 0
-0.045548584 0.044464517 0.064437695 -0.53980887 0.73551393 0.40942115 0
-0.03821785 0.047023043 0.06629122 -0.9113391 -0.040523581 0.40965703 0
0.087803468 0.045285653 0.064720273 0.9661544 0.25793189 0.0041129524 0
-0.042791523 0.054906439 0.065414593 -0.9907676 -0.13543262 0.0061286581 0
0.085738413 0.054869648 0.064741366 0.99921596 0.03945462 -0.0032862211 0
-0.043126434 0.065107405 0.065346882 -0.99975038 -0.020752048 0.0082810121 0
0.085314177 0.065200694 0.064832963 0.99908394 0.042632483 0.003705713 0
-0.042725138 0.074041881 0.064774543 -0.91903406 0.39417717 -0.00093263166 0
-0.035156406 0.077078387 0.064518124 -0.088312104 0.99584949 -0.022017049 0
-0.024917407 0.077602141 0.064448923 -0.019401381 0.99980456 0.0037962955 0
-0.014319734 0.077878922 0.06474594 -0.029521335 0.99952239 0.0091385003 0
-0.0051970151 0.078143224 0.065307811 -0.029521341 0.99952239 0.0091385022 0
0.0046306159 0.078381658 0.065477028 -0.013680515 0.99972397 0.019098468 0
0.015199184 0.078383416 0.064588711 0.0092290482 0.99974382 0.02066778 0
0.025363874 0.078354925 0.065458037 -0.005595074 0.99983895 0.017048931 0
0.034747958 0.078420877 0.065002561 -0.0073877256 0.9998492 0.015716137 0
0.045249097 0.078545868 0.064753123 -0.015415414 0.99984366 0.0086679151 0
0.055074174 0.078696199 0.064887702 -0.014059054 0.99986857 0.008071675 0
0.065110713 0.078826062 0.064839303 -0.012584675 0.99988878 0.0080023473 0
0.075308979 0.077026717 0.064768612 0.32067293 0.94707537 -0.014736837 0
0.083851434 0.073228613 0.065108135 0.71368641 0.70045811 0.0032008858 0
0.029470105 -0.060049944 0.075242817 -0.075036339 -0.99716717 0.005209859 0
0.034910779 -0.060267936 0.074483521 -0.038684111 -0.99759996 0.057428252 0
0.045247633 -0.060604297 0.073881634 -0.032665603 -0.99928278 0.019151546 0
0.055029489 -0.060825411 0.074792497 0.071140289 -0.98638958 0.14823848 0
-0.043676287 -0.055465486 0.074149936 -0.93247628 -0.3606213 0.020985246 0
-0.034437649 -0.059056118 0.075138636 -0.0369654 -0.99899238 -0.025451673 0
-0.025163295 -0.059381317 0.074801244 -0.033077426 -0.99905527 -0.028183956 0
-0.015380075 -0.057918321 0.075310439 0.18110272 -0.98230565 -0.047722742 0
-0.0052520465 -0.057462547 0.074860625 -0.03237322 -0.99861437 -0.041487891 0
0.0056573842 -0.057917818 0.07553418 -0.054870803 -0.99736744 0.047407668 0
0.01514666 -0.058483507 0.075569145 -0.078507781 -0.98079717 0.17853102 0
0.024355106 -0.05932451 0.075624444 -0.074446641 -0.97259742 0.22025435 0
0.034562472 -0.059224203 0.078281254 -0.03261897 -0.96596104 0.25662291 0
0.044541463 -0.059317779 0.079036415 -0.016673114 -0.95717037 0.2890448 0
0.057639942 -0.05844494 0.076163754 0.86383128 -0.48379403 0.14049518 0
0.064808957 -0.056481924 0.075130381 -0.069736861 -0.99642932 0.047594864 0
0.075057469 -0.057287034 0.074758649 -0.070396349 -0.99272168 0.097713992 0
0.084229536 -0.055016421 0.075175732 0.87066823 -0.4905695 0.035754126 0
-0.044100765 -0.045492347 0.074402027 -0.9992817 0.0060604555 0.037407979 0
0.08543361 -0.045324016 0.075518824 0.99875897 -0.04950906 -0.0054311207 0
-0.044214886 -0.035070077 0.075067267 -0.99560648 -0.070157096 0.062014408 0
0.08595971 -0.034733351 0.076051973 0.99889779 -0.046604194 -0.0055783968 0
-0.046055898 -0.024295676 0.07487864 -0.99270111 -0.076120168 0.093542337 0
0.086482182 -0.025110239 0.075771749 0.97499788 -0.017483879 -0.22152536 0
-0.045941878 -0.015384788 0.07473518 -0.99350357 0.070360638 0.089442387 0
0.086429812 -0.014715818 0.075320758 0.96437454 -0.0070071374 -0.26444769 0
-0.045158066 -0.0048171072 0.074558295 -0.97498584 -0.087798476 -0.20419148 0
0.087949537 -0.0055841929 0.075183004 0.90819323 -0.37244532 -0.19096954 0
-0.046887547 0.004694642 0.074796766 -0.97980028 -0.1549376 -0.12643471 0
0.089518555 0.0046173413 0.075271502 0.99955535 0.021583352 -0.020572936 0
-0.04739885 0.01522142 0.074600302 -0.99771529 0.061749604 0.027406637 0
0.089125171 0.015041617 0.074530765 0.99838686 0.051020142 0.024914259 0
-0.048062012 0.025269775 0.074784905 -0.97210926 -0.21988149 0.081582703 0
0.088542663 0.025420686 0.074528426 0.99782771 0.061498068 0.023620877 0
-0.05055441 0.036231913 0.074155018 -0.99926788 -0.0073484173 0.037548926 0
-0.046501137 0.036716994 0.076643012 -0.5338437 0.76737237 0.35517663 0
-0.038588081 0.038971033 0.077618122 -0.43894085 0.846636 0.30089611 0
0.08797086 0.034829561 0.075141348 0.99768692 0.051183235 0.044734411 0
-0.050378162 0.040425528 0.071066037 -0.66088372 0.69410592 0.28539366 0
-0.043360833 0.044598151 0.074172482 -0.92988795 0.36569139 0.039726928 0
-0.038079653 0.044784535 0.074094661 -0.85497135 -0.3702431 -0.36324093 0
0.087357298 0.045148395 0.07504718 0.98792714 0.15067865 0.035997976 0
-0.042957392 0.05475802 0.074543297 -0.9956882 -0.070974015 -0.059730366 0
0.085718088 0.055674195 0.075248457 0.99728096 0.072416514 -0.01365696 0
-0.043035444 0.064650767 0.075388975 -0.99986094 -0.016330224 0.003367946 0
0.085224666 0.064775348 0.074864134 0.99878007 0.047335178 0.014062353 0
-0.042658404 0.074094556 0.074762858 -0.93619817 0.35147229 0.00033324651 0
-0.035178546 0.077276334 0.074491955 -0.072317079 0.99723136 -0.017313529 0
-0.025238566 0.077560343 0.076090343 -0.0028206178 0.99999493 0.0014690263 0
-0.015028274 0.077766262 0.074780822 -0.029521335 0.99952233 0.0091385003 0
-0.0043534958 0.078036875 0.074995413 -0.018685814 0.999654 0.018511012 0
0.0061316635 0.078191034 0.074697845 -0.0088214697 0.99968284 0.023586098 0
0.014878065 0.078177571 0.074823134 0.0070711239 0.99977207 0.020141264 0
0.024852186 0.07819014 0.075027205 -0.0063705421 0.99984181 0.016609032 0
0.034882255 0.078294396 0.075409696 -0.014690356 0.99984878 0.0093046147 0
0.045007866 0.078453146 0.075584933 -0.015990958 0.99983883 0.0081624938 0
0.054680701 0.078603789 0.075644888 -0.014244171 0.99986589 0.00808038 0
0.064504787 0.078736149 0.075180948 -0.013230445 0.99988383 0.0075625773 0
0.075633906 0.077132329 0.075079262 0.3145999 0.94868815 -0.031900395 0
0.083742917 0.073643886 0.075538166 0.74090111 0.67157346 0.0073846416 0
-0.02176119 -0.060043003 0.089682244 -0.036409285 -0.99849367 -0.041046157 0
-0.043144401 -0.056118134 0.084684797 -0.91303748 -0.40757743 0.015598993 0
-0.034643836 -0.059354514 0.084385112 -0.037463345 -0.9984827 -0.040357169 0
-0.024759259 -0.059704825 0.084452435 -0.016622283 -0.99926209 -0.034624584 0
-0.015846815 -0.05819466 0.08511325 0.2930809 -0.95574313 -0.025663309 0
-0.0053367973 -0.057785966 0.084463209 -0.031101631 -0.99914736 -0.027154261 0
0.0051804068 -0.057865109 0.084812462 0.095667519 -0.99479151 -0.035178617 0
0.015093051 -0.057381317 0.084744692 -0.07456506 -0.99672085 -0.031426206 0
0.025192343 -0.058323685 0.085007511 -0.093868881 -0.99525815 -0.025491124 0
0.034907602 -0.059158683 0.085689455 -0.054910965 -0.99787462 -0.035086218 0
0.045996696 -0.059445802 0.085061379 -0.019978594 -0.99884826 -0.043623246 0
0.056336168 -0.058962625 0.085156754 0.36803529 -0.92875004 -0.044421565 0
0.064855792 -0.056239918 0.084871687 -0.032617204 -0.99936271 -0.014503929 0
0.074265324 -0.056489263 0.085088462 -0.024355426 -0.99951738 -0.019284973 0
0.08393728 -0.055169187 0.084763609 0.7505635 -0.6600945 -0.030488156 0
-0.043683957 -0.044892378 0.084666565 -0.99905735 0.0060941358 0.042979944 0
0.085623875 -0.045409724 0.08519014 0.99839288 -0.04823431 -0.029748732 0
-0.04397437 -0.034794953 0.085160241 -0.99154586 -0.12975331 0.00089303375 0
0.086229257 -0.035301238 0.084692158 0.98507529 -0.17130797 -0.016746078 0
-0.045584869 -0.025161024 0.085370131 -0.99478626 -0.093349256 -0.041065339 0
0.088309899 -0.024935974 0.084967993 0.99484664 -0.097181208 0.028913196 0
-0.045291577 -0.015353329 0.084588736 -0.99396753 0.10957828 0.0045976695 0
0.08877188 -0.01557581 0.084813431 0.99955922 -0.029519565 -0.0031611782 0
-0.043892793 -0.0051509496 0.085540295 -0.88372791 -0.090402968 0.4591864 0
-0.035396133 -0.0032232841 0.087879233 -0.30842763 -0.016816521 0.95109922 0
-0.028757546 -0.0028057592 0.089096688 -0.38468799 0.72047836 0.5769974 0
0.088487342 -0.0048196092 0.085263647 0.99284345 0.11654519 0.026063297 0
-0.046932854 0.0041483711 0.086112916 -0.97116315 -0.17099614 0.16614018 0
-0.0364343 0.00069144747 0.089585118 -0.13590276 -0.52208155 0.8419984 0
0.087989047 0.0053729317 0.083977625 0.97780699 -0.026487119 0.20782657 0
-0.046817116 0.015206632 0.086025514 -0.9863379 0.14903443 0.070187807 0
0.087911539 0.014485208 0.083479971 0.9962883 -0.022145405 0.083181992 0
-0.050031748 0.021749945 0.089073494 -0.99724734 0.03925693 -0.062902175 0
-0.048455682 0.024408858 0.085416317 -0.92879701 -0.30827931 -0.20566966 0
0.088853553 0.025144177 0.085543051 0.99690253 -0.075674221 -0.021415282 0
-0.048447087 0.035520848 0.084737271 -0.97608334 0.11564199 -0.18408775 0
-0.038877003 0.039125461 0.080815449 -0.012699442 0.44193822 -0.89695561 0
0.088540748 0.035031155 0.084953196 0.99470079 0.066205859 -0.07865838 0
-0.045181513 0.045533046 0.084516928 -0.73914856 0.30525202 -0.60040045 0
-0.03935324 0.042111676 0.082466722 -0.96468759 -0.22318801 -0.13987471 0
0.087779328 0.044585038 0.085207082 0.98471314 0.16303672 -0.061312538 0
-0.043908317 0.054234765 0.085681058 -0.99540055 0.087559611 0.038872473 0
0.086293817 0.054418497 0.084765442 0.99277276 0.11563845 -0.032093383 0
-0.043173134 0.06493818 0.085022382 -0.99979043 0.015781844 -0.013040967 0
0.085114241 0.065459937 0.085301377 0.99742544 0.071197905 -0.0085609099 0
-0.04272921 0.074141242 0.084228083 -0.96292162 0.2697666 -0.0028081944 0
-0.034923818 0.077418968 0.085042462 -0.04961817 0.99871868 -0.0099519175 0
-0.024687195 0.077551596 0.085154817 -0.0003558246 0.9999997 0.00076101819 0
-0.014850903 0.077660225 0.084790275 -0.019305034 0.99971968 0.013708878 0
-0.0048537985 0.077802911 0.085281149 -0.012241251 0.99963498 0.024082066 0
0.0059116338 0.077935152 0.085264072 -0.01224125 0.99963492 0.024082065 0
0.015350509 0.077992953 0.084208064 0.00065115356 0.99982619 0.018634334 0
0.024727071 0.078056037 0.084870294 -0.013852963 0.99985367 0.01003993 0
0.035015393 0.078215972 0.08506202 -0.015990958 0.99983883 0.0081624929 0
0.045102932 0.078379609 0.084778436 -0.015990959 0.99983883 0.0081624938 0
0.054885045 0.078532077 0.084789492 -0.014333871 0.99986464 0.008084598 0
0.064975731 0.078730211 0.085221298 -0.03518156 0.99935359 -0.0073919077 0
0.075653635 0.077640556 0.084724799 0.32566825 0.94463098 -0.040156193 0
0.083509058 0.073543452 0.08529298 0.68655759 0.72707248 0.0020704246 0
-0.031125383 -0.060058631 0.098518148 -0.042431988 -0.99840999 -0.037108153 0
-0.025306232 -0.060132753 0.095791183 0.016957378 -0.99957538 -0.023697887 0
0.046959631 -0.060039558 0.098674297 -0.015259368 -0.99908471 -0.039961658 0
0.054722533 -0.060100492 0.097316861 0.0058634081 -0.9991768 -0.040141802 0
-0.042955361 -0.055918898 0.094689414 -0.94225067 -0.33467159 0.012600185 0
-0.03537878 -0.059703548 0.094696678 -0.050915368 -0.99820429 -0.031555496 0
-0.024595911 -0.059798799 0.094301321 0.087523773 -0.99616224 -0.00061679236 0
-0.01516239 -0.058280744 0.094782874 0.13693847 -0.9904722 -0.014585717 0
-0.0051133395 -0.058098663 0.094889827 -0.025336696 -0.99914026 -0.032815065 0
0.0046227146 -0.058258928 0.095222168 0.035863452 -0.99875087 -0.034791373 0
0.015091898 -0.057722196 0.094973966 -0.044364884 -0.99828118 -0.038293742 0
0.024932092 -0.058562957 0.094749458 -0.091205776 -0.99541712 -0.028744794 0
0.035232071 -0.059476905 0.094914049 -0.066158399 -0.99727452 -0.032659128 0
0.044570737 -0.059814934 0.094220392 -0.018649409 -0.99891853 -0.042592041 0
0.056678493 -0.058924675 0.09381026 0.56880295 -0.8215735 -0.038473222 0
0.0652069 -0.05635025 0.094960093 -0.047167569 -0.99886853 -0.0060763163 0
0.075164981 -0.056699723 0.094595402 -0.029220918 -0.99934822 -0.021197615 0
0.084203817 -0.054869365 0.095053181 0.78151637 -0.62327641 -0.027544659 0
-0.043269984 -0.044714861 0.095054314 -0.99929321 0.016205864 0.033915106 0
0.085901462 -0.04510086 0.094756283 0.99886882 -0.041071378 -0.023965491 0
-0.044003155 -0.035005715 0.094678916 -0.98046666 -0.19665729 -0.0033201776 0
0.086379185 -0.035184421 0.094530903 0.99103886 -0.13310398 -0.011194408 0
-0.046010613 -0.024924722 0.095801927 -0.99960381 -0.013694628 -0.024589518 0
0.087781802 -0.025125479 0.095422111 0.99321765 -0.10079707 0.057953842 0
-0.045668084 -0.015205865 0.094683304 -0.99687272 0.071570583 -0.03350161 0
0.088743955 -0.014668221 0.094216183 0.99815136 -0.05719972 0.020542499 0
-0.043454967 -0.0075233593 0.094662778 -0.61905307 0.78533089 0.0053454321 0
-0.034877729 -0.0031374265 0.095071554 -0.3524 0.92868096 -0.11561152 0
-0.029214634 -0.0015145383 0.094404243 -0.58634883 0.75123596 -0.30305058 0
0.08872027 -0.0045553553 0.095568232 0.99868375 0.021685267 -0.046480309 0
-0.045242473 0.0066111679 0.092514507 -0.39177686 -0.47638366 0.78712738 0
-0.035339691 0.0053069536 0.092648827 -0.11794872 -0.49904704 0.85851049 0
-0.029032109 0.0046682507 0.095839955 -0.98338109 -0.14305392 0.11179095 0
0.088760391 0.0045748726 0.095097668 0.99315137 -0.032500155 -0.11222304 0
-0.050413541 0.018874768 0.095719576 -0.83983457 -0.51808745 -0.16205968 0
-0.04507304 0.015619362 0.094409525 -0.5569067 -0.53701383 0.63361746 0
-0.035217129 0.014468924 0.097181015 -0.26503509 -0.39085013 0.88147175 0
-0.02791913 0.01336355 0.09894114 -0.42805496 -0.029037671 0.9032861 0
-0.019674972 0.019281598 0.099469103 -0.40122071 0.80034375 0.44550186 0
0.088754348 0.014929885 0.095253207 0.99639982 0.023367928 -0.081494793 0
-0.050304852 0.024746204 0.095273212 -0.99724734 0.039256923 -0.062902212 0
-0.046748377 0.022931645 0.097160853 -0.35428068 -0.4569003 0.81592107 0
-0.037660241 0.021338867 0.099688657 -0.12095181 -0.49030218 0.86311907 0
-0.017344607 0.020987924 0.099366672 -0.43122551 0.36312968 0.82594275 0
0.089189298 0.024864387 0.094593957 0.9988389 -0.048024099 -0.003806957 0
-0.050117481 0.03368587 0.097901255 -0.99712056 0.041240107 -0.063639134 0
-0.049762201 0.035359889 0.093750127 -0.9963547 0.051999379 -0.067626998 0
0.088574812 0.035188198 0.09512125 0.99668735 0.080533177 0.011338991 0
-0.046960171 0.045635723 0.094988175 -0.67422318 0.6786781 0.29123738 0
-0.035185095 0.046863586 0.096403278 0.022652309 0.79844391 0.60164297 0
-0.024700202 0.046846889 0.096216686 -0.023333997 0.72578996 0.68752038 0
-0.018956507 0.047367401 0.097944282 -0.69765919 0.61540729 0.36680448 0
0.087793209 0.044824991 0.094782203 0.99366182 0.11181598 0.011548498 0
-0.042048886 0.053774416 0.092004269 -0.57768989 0.10690407 0.8092255 0
-0.034834977 0.054704979 0.093213283 0.022957411 -0.031122509 0.9992519 0
-0.025167935 0.055494539 0.092972592 0.017908204 -0.028806625 0.99942464 0
-0.017151102 0.055023886 0.095001057 -0.87532008 0.096022405 0.47391391 0
0.08631853 0.054697115 0.094649337 0.99458283 0.10391075 0.0027530503 0
-0.042357776 0.064999267 0.09169846 -0.78328365 -0.026751509 0.62108862 0
-0.034886856 0.065151282 0.093536571 -0.11360546 -0.039596196 0.99273658 0
-0.025285514 0.06510558 0.094051525 0.0053480905 -0.13590828 0.99070698 0
-0.01662779 0.064771868 0.095418796 -0.8905074 0.035785522 0.45355913 0
0.085335791 0.065091603 0.095534489 0.99540049 0.095793672 -0.0012228047 0
-0.042041514 0.073902182 0.091941632 -0.6234988 0.28241757 0.72903335 0
-0.034117147 0.076071277 0.095048524 -0.23739065 0.58004916 0.77922302 0
-0.025191406 0.0755594 0.095604591 -0.062796548 0.6773876 0.73294103 0
-0.016028058 0.075289413 0.095373675 -0.40862119 0.85537022 0.31838736 0
-0.0047241435 0.077758864 0.094387628 -0.0055951104 0.99982107 -0.018067759 0
0.0048324685 0.077819742 0.094808392 -0.0045506889 0.99991071 -0.012558881 0
0.014986826 0.077872388 0.095356546 -0.0090817763 0.99985373 -0.014494392 0
0.024545915 0.078003868 0.094799049 -0.015037518 0.9998461 -0.0090389391 0
0.034950431 0.078171737 0.095501319 -0.01489469 0.99982172 -0.011608543 0
0.04478192 0.078307599 0.094992474 -0.014749838 0.99987441 -0.0058026719 0
0.055072337 0.078464732 0.095078513 -0.021855298 0.99976116 0.00017769171 0
0.064679042 0.0787917 0.094518587 -0.0436453 0.99904668 -0.00089248276 0
0.075598985 0.077904567 0.095256314 0.33428651 0.94240445 -0.011239043 0
0.083619006 0.073240027 0.094647706 0.82879817 0.55428857 0.076535739 0
-0.0323961 -0.060126759 0.103228 -0.056886617 -0.99821556 0.018155523 0
-0.027363718 -0.060320996 0.10270183 0.018616518 -0.99803102 0.059896372 0
-0.011579701 -0.060119811 0.10739822 0.0043400563 -0.99981618 -0.018673088 0
-0.00527036 -0.060120091 0.10738235 -0.0024063915 -0.99945331 -0.032973863 0
0.004985299 -0.060146332 0.1069511 -0.0034080415 -0.99866062 -0.051627427 0
0.011940282 -0.060171653 0.10741027 0.01923234 -0.99975818 -0.01066099 0
0.037996065 -0.0601184 0.10619124 0.0018420675 -0.9988094 -0.048747685 0
0.045694508 -0.060157698 0.10233784 -0.01479407 -0.99335229 0.1141593 0
0.054651443 -0.060261298 0.10172363 -0.014496715 -0.99587286 0.089593701 0
-0.042397082 -0.055745419 0.10386524 -0.81313992 -0.31262192 0.49098971 0
-0.035588443 -0.056308266 0.10503516 -0.0029155617 -0.33196175 0.94328839 0
-0.024584226 -0.056092609 0.10484017 0.099133439 -0.22905444 0.96835256 0
-0.01452649 -0.056386132 0.10481827 -0.57481015 -0.64231765 0.50697267 0
-0.0047547752 -0.058533154 0.10252596 -0.030965062 -0.95008135 -0.31046194 0
0.0048629362 -0.058632206 0.10250475 0.028230673 -0.93883955 -0.34319568 0
0.015535808 -0.058336779 0.10517377 0.13361001 -0.98548555 -0.10472173 0
0.024987806 -0.058889024 0.10442714 -0.090706907 -0.99490476 -0.044007376 0
0.03447783 -0.059550989 0.10426506 0.058983088 -0.99763721 -0.035228845 0
0.043609735 -0.054574747 0.10541139 0.55224639 -0.19696517 0.8100794 0
0.055820771 -0.055171248 0.10386717 0.16945584 -0.11368337 0.97895896 0
0.06489931 -0.05476417 0.10338348 -0.043713406 -0.68238783 0.72968209 0
0.075125009 -0.054892063 0.10358196 -0.0080437697 -0.61855716 0.78569865 0
0.083155319 -0.053489022 0.10320277 0.47334185 -0.37483841 0.79714715 0
-0.042527132 -0.044330776 0.10390044 -0.90451384 0.012292027 0.426267 0
-0.034973513 -0.044608347 0.10595551 0.033132527 -0.019771751 0.99925536 0
-0.025164682 -0.045067109 0.10562758 0.023890834 -0.059033453 0.99797004 0
-0.015715115 -0.045057394 0.10633056 -0.4668422 -0.15725797 0.87024611 0
0.044860873 -0.044936515 0.1061162 0.74427629 -0.14988051 0.65083683 0
0.054905225 -0.045140442 0.10452994 -0.0012980447 -0.014681855 0.9998914 0
0.064969324 -0.044982083 0.10455508 -0.0062081022 -0.014386469 0.99987721 0
0.074856743 -0.045676377 0.10455615 0.015791813 -0.0088052331 0.99983656 0
0.084317066 -0.045268685 0.10325376 0.65760672 -0.037719674 0.75241661 0
-0.043442328 -0.034485713 0.10463965 -0.76913351 -0.27564797 0.57658637 0
-0.03481558 -0.03535527 0.10649475 -0.014575016 -0.088748477 0.99594748 0
-0.025090814 -0.034573376 0.10686047 -0.031688254 -0.10976867 0.99345195 0
-0.016432218 -0.035419732 0.10754205 -0.47784987 -0.16652811 0.86251253 0
0.046125565 -0.035942815 0.10654037 0.59808815 -0.70950031 0.37269288 0
0.055382799 -0.035889935 0.10583299 -0.070163466 -0.69184607 0.71862787 0
0.063744672 -0.034942131 0.10558692 0.30198833 -0.14953834 0.94151014 0
0.074879169 -0.034830809 0.10472263 0.019927002 -0.030510137 0.99933577 0
0.084650196 -0.034830425 0.10364398 0.61002451 -0.062026482 0.78995121 0
-0.044678144 -0.024894305 0.10552712 -0.71273857 -0.019420059 0.70116097 0
-0.034996234 -0.025135081 0.10723098 -0.024050981 -0.059419721 0.99794334 0
-0.024417689 -0.025081722 0.10763232 -0.049635116 -0.078403175 0.99568534 0
-0.017386058 -0.025308765 0.10826872 -0.41915664 -0.13381153 0.89799899 0
0.064615235 -0.024613438 0.10594999 0.56945181 -0.078195259 0.81829709 0
0.075202964 -0.024472743 0.10513957 0.012158286 -0.041689951 0.99905664 0
0.085048676 -0.024892485 0.10377333 0.52641022 -0.080082312 0.84645081 0
-0.044296268 -0.015169465 0.10574734 -0.78917426 0.010781313 0.61407471 0
-0.034737296 -0.014841841 0.10774332 -0.031054936 -0.00057960255 0.99951756 0
-0.024851063 -0.015168929 0.10847105 -0.062785476 -0.087281853 0.99420315 0
-0.018464958 -0.016188836 0.10899137 -0.4306573 -0.31023329 0.8475197 0
0.065264702 -0.015620023 0.10623591 0.47604826 -0.076494962 0.876086 0
0.074879043 -0.014764276 0.10553124 -0.0029809338 -0.038465019 0.99925548 0
0.086071685 -0.014845109 0.10411765 0.55674011 -0.086370826 0.82618433 0
-0.042942379 -0.0075601293 0.10432004 -0.36330077 0.91464633 0.17729825 0
-0.034344137 -0.0046926988 0.10485477 -0.41467696 0.67600876 0.60914302 0
-0.026889514 -0.0060144616 0.10896812 -0.27830395 -0.00088005111 0.96049261 0
0.066413514 -0.0060832822 0.10732554 0.52491927 -0.39595139 0.75344688 0
0.074848846 -0.0045363191 0.10651561 0.08659216 -0.22480614 0.97054827 0
0.086422868 -0.0051506497 0.1046342 0.55208147 -0.08300253 0.82964849 0
-0.030231148 0.0023765883 0.10135346 -0.99129564 0.12496857 -0.041422196 0
-0.026606413 0.0056576887 0.10567008 -0.81650198 0.44357973 0.36954224 0
