# .PCD v0.7 - Point Cloud Data file format
VERSION 0.7
FIELDS x y z normal_x normal_y normal_z curvature
SIZE 4 4 4 4 4 4 4
TYPE F F F F F F F
COUNT 1 1 1 1 1 1 1
WIDTH 88
HEIGHT 1
VIEWPOINT 0 0 0 1 0 0 0
POINTS 88
DATA ascii
-0.040744402 -0.02455331 -3.2466676e-05 -0.019652257 -0.080422752 -0.99656713 0
-0.034950849 -0.024352299 -7.0734175e-05 -0.0015443881 0.070307672 -0.99752408 0
-0.023988623 -0.0244518 -9.9630954e-05 -0.0067357607 0.0094538238 -0.99993265 0
-0.014914777 -0.024635969 -0.0001232785 -0.0062083611 -0.18205401 -0.98326898 0
-0.0054714987 -0.02461163 -0.00012642681 -0.0026841334 -0.091869652 -0.99576741 0
0.0050695203 -0.024378384 -0.00012503716 0.007075306 0.027060345 -0.9996087 0
0.01148142 -0.022601007 -0.00010355275 0.070719123 0.12986316 -0.98900676 0
-0.047284011 -0.014779173 -7.5567805e-05 0.011128509 0.0091873519 -0.99989581 0
0.014141979 -0.015550815 -0.00012943623 0.14161751 -0.033234406 -0.98936343 0
-0.047533628 -0.00463273 -9.6960808e-05 -0.028133677 -0.0026425058 -0.99960065 0
0.014395175 -0.0055120722 -0.0001363468 0.011851643 7.0237002e-05 -0.99992979 0
-0.046129942 0.0030787385 -6.889589e-05 -0.04793996 0.019692328 -0.99865603 0
-0.033877112 0.0054075243 -9.254559e-05 -0.0016185644 0.044086613 -0.99902648 0
-0.024858983 0.0053487159 -0.00011881055 -0.00481867 -0.0093079684 -0.9999451 0
-0.014485906 0.0054543321 -0.00015299958 -0.010111459 -0.011143261 -0.99988681 0
-0.0049888068 0.0053242501 -0.00013744624 0.0015532675 0.02267063 -0.99974179 0
0.0041196467 0.0053707804 -0.00012147759 0.025877301 -0.023392735 -0.99939126 0
0.014215914 0.0024577456 -6.5760236e-05 -0.01066271 0.0099673383 -0.99989349 0
-0.044613998 -0.023241773 0.0044169812 -0.63212568 -0.41790509 -0.65251243 0
-0.035094321 -0.024374969 0.0050188447 0.46332669 0.15969008 -0.8716808 0
-0.025113288 -0.024355454 0.0048234146 0.010479505 0.3665202 -0.93035108 0
-0.015319569 -0.024057647 0.0052696783 -0.16124314 -0.32329917 -0.93245816 0
-0.0051112548 -0.024482237 0.005053476 0.22713727 -0.26522318 -0.93705136 0
0.0050630346 -0.024557585 0.00500705 -0.0034774633 -0.31953841 -0.94756699 0
0.012621633 -0.023170805 0.0044192891 0.65887958 -0.59733194 -0.4572441 0
-0.046520278 -0.015143914 0.005068975 -0.045977231 0.065155514 -0.99681538 0
-0.03479642 -0.01395963 0.0060178293 -0.51177686 -0.17914473 -0.84023297 0
-0.024960095 -0.012607818 0.0060895272 -0.014374726 -0.80208558 -0.59703606 0
-0.015033432 -0.01477979 0.0057002674 -0.010070989 -0.1472794 -0.98904365 0
-0.0044626566 -0.013572286 0.00591654 -0.031770494 -0.66272503 -0.7481885 0
0.0033578621 -0.013581631 0.0058884537 0.37662482 -0.30333292 -0.87529594 0
0.013331926 -0.01513482 0.0049488088 0.42604139 -0.025002709 -0.90435815 0
-0.046493035 -0.0050927401 0.0051464057 -0.6910376 -0.12959377 -0.7111066 0
-0.035210975 -0.0053130537 0.0060265558 -0.41633973 0.29252326 -0.86086661 0
-0.024936959 -0.0067732269 0.0059383237 0.072821379 0.73127311 -0.67818636 0
-0.014827509 -0.0048139608 0.0057902141 0.10738935 0.26057789 -0.95946163 0
-0.004574283 -0.0058962787 0.0058691902 -0.096021235 0.58433837 -0.80580926 0
0.0034569914 -0.0061594467 0.0059399065 0.40410137 0.32086441 -0.85659099 0
0.013397127 -0.005141166 0.005017628 0.49954975 -0.14411508 -0.85421371 0
-0.044779424 0.0040125754 0.0047013843 -0.74794668 0.47042829 -0.46826583 0
-0.035039563 0.0053325524 0.0050374032 0.33345312 0.014034421 -0.94266224 0
-0.024967913 0.0052230321 0.0051202555 0.041473091 -0.043679636 -0.99818432 0
-0.015251015 0.0046869167 0.0052069128 -0.3179979 -0.093575455 -0.94346225 0
-0.005017227 0.0051364223 0.0049156486 0.32042533 0.17350069 -0.9312492 0
0.0051025646 0.0049762358 0.0048609269 -0.047015853 -0.00038999398 -0.99889404 0
0.012700822 0.0035391713 0.0045854487 0.68535018 0.67597204 -0.27084485 0
-0.042348981 -0.022831136 0.012596674 -0.63450319 -0.40276891 0.659684 0
-0.034808036 -0.023398606 0.014503898 -0.32641622 -0.85462028 0.40382743 0
-0.024841271 -0.023995057 0.014648488 0.03857274 -0.99338514 0.10815798 0
-0.015187363 -0.023619015 0.015181947 -0.12038762 -0.89651853 0.42633465 0
-0.0047266972 -0.023931641 0.01484534 0.088552669 -0.97574103 0.20021941 0
0.0049325558 -0.02348279 0.013835132 0.43396795 -0.74615163 0.50490552 0
0.011253325 -0.023182036 0.011437843 0.76651841 -0.16948865 0.61945385 0
-0.042609993 -0.015028126 0.012598857 -0.80983847 0.06970901 0.58249658 0
-0.035284352 -0.014994733 0.014770782 -0.8818202 -0.11287899 0.45787719 0
-0.025024479 -0.014959424 0.015257051 0.67891705 -0.65154177 -0.33847424 0
-0.01549343 -0.014803464 0.01534247 -0.13244464 0.0076730596 0.99116075 0
-0.0046951724 -0.014837313 0.014949213 0.99587822 0.088031746 0.021840148 0
0.005306147 -0.015150633 0.014085124 0.89843351 -0.079849616 0.43178836 0
0.011136322 -0.014985225 0.011527566 0.78506815 -0.0014800365 0.61940753 0
-0.042562149 -0.0050321864 0.012528384 -0.87441331 0.0040805419 0.48516473 0
-0.035393581 -0.0051196525 0.014822756 -0.78999484 -0.038584288 0.61189824 0
-0.025059296 -0.0049298098 0.015255692 -0.19238529 0.34982941 0.91684639 0
-0.015402352 -0.0050842678 0.015463201 -0.21505769 -0.045272168 0.97555143 0
-0.0048877574 -0.0048302501 0.01551177 0.41578862 0.021472299 0.90920776 0
0.005450815 -0.0050706677 0.014069469 0.85589272 0.092367329 0.50883788 0
0.011272163 -0.0047959653 0.011456627 0.7821365 0.0030467587 0.62309963 0
-0.042393815 0.0031831365 0.012421035 -0.71456474 0.33338127 0.61502373 0
-0.034858767 0.0040431065 0.014410461 -0.28639472 0.8805604 0.37761286 0
-0.025024923 0.0045793559 0.014870055 0.0018792067 0.98829544 0.15254007 0
-0.015221472 0.0041862959 0.014964608 -0.11556148 0.92027968 0.37380591 0
-0.0046653962 0.0043629166 0.014926409 0.10744676 0.97465307 0.19623117 0
0.0049093529 0.0037201624 0.013900091 0.52701294 0.7121498 0.46378872 0
0.011061992 0.0029893427 0.01123016 0.77801055 0.20344861 0.59439737 0
-0.030202672 -0.020814754 0.02010911 -0.56710595 -0.16430436 0.8070904 0
-0.025147503 -0.02090727 0.021377156 -0.011080034 -0.67752391 0.73541731 0
-0.011161858 -0.021029906 0.021110957 -0.67460823 -0.63779193 0.37165204 0
-0.007496777 -0.021063602 0.021410169 0.37999797 -0.40113661 0.83348119 0
-0.030132737 -0.019674201 0.020404655 -0.94600832 0.24845648 0.20817706 0
-0.024859542 -0.016455516 0.021389568 -0.030254401 0.35482144 0.93444443 0
-0.011708869 -0.016618423 0.02120365 -0.22410864 0.20792222 0.95212591 0
-0.0069854441 -0.016473183 0.021185528 0.16582927 0.18372053 0.96888977 0
-0.024642585 -0.0029617911 0.021336056 -0.050177403 -0.28430307 0.95742047 0
-0.011753278 -0.0029021434 0.021120012 -0.15585585 -0.22288305 0.96230561 0
-0.0065646889 -0.0033473785 0.021254431 0.26589939 -0.30878845 0.91320705 0
-0.024422826 0.0014118048 0.021350419 0.069969587 0.48267838 0.87299818 0
-0.011272747 0.0013607063 0.021366544 -0.4434461 0.5183993 0.7311756 0
-0.0074758204 0.0014660105 0.021256099 0.39270842 0.38199091 0.83657819 0
