# .PCD v0.7 - Point Cloud Data file format
VERSION 0.7
FIELDS x y z normal_x normal_y normal_z curvature
SIZE 4 4 4 4 4 4 4
TYPE F F F F F F F
COUNT 1 1 1 1 1 1 1
WIDTH 224
HEIGHT 1
VIEWPOINT 0 0 0 1 0 0 0
POINTS 224
DATA ascii
-0.017259182 0.0042376118 -4.2387339e-05 0.62447119 0.0016148165 -0.78104615 0
-0.018233711 0.035554521 -7.1230148e-05 -0.064374983 0.20240535 -0.97718364 0
-0.023348164 -0.0032108033 0.0056865364 -0.56703848 -0.73703694 -0.36775541 0
-0.01550602 -0.0030662455 0.0056726942 0.42880806 -0.80452949 -0.41092086 0
-0.0042509404 -0.0008447853 0.0065472755 -0.034108628 -0.98323643 -0.17911647 0
0.0055666254 -0.00373754 0.0073448378 -0.35479191 -0.5695129 -0.74146998 0
0.014155636 -0.0035856038 0.0073070494 0.45218256 -0.48159203 -0.75073296 0
-0.033397995 0.0041767159 0.0097920224 -0.12739125 -0.033171747 -0.99129766 0
-0.024456758 0.0046878709 0.0052703773 -0.70113128 0.27381694 -0.6583609 0
-0.014968203 0.0050201323 0.0034767042 0.13802809 0.28481582 -0.94859278 0
-0.0052265604 0.0048275962 0.0026457952 -0.10206563 -0.083827406 -0.99123949 0
0.0051833694 0.0048134108 0.0050663473 0.28138262 -0.082244463 -0.95606458 0
0.014508893 0.0049048872 0.007583031 0.43154547 0.18274437 -0.88338727 0
0.022066547 0.0096204365 0.0081661278 0.16267808 -0.97880161 -0.12443145 0
-0.042363714 0.017474674 0.0087941727 -0.27722156 -0.45101896 -0.848369 0
-0.034124047 0.016212724 0.0071970751 -0.41989824 -0.4415305 -0.79292893 0
-0.024609191 0.014285612 0.0044480641 0.11361472 -0.4060972 -0.90673959 0
-0.015079278 0.014783775 0.0044973576 -0.31355086 -0.29049462 -0.90404576 0
-0.0051158122 0.015135179 0.0030138395 0.066347308 -0.12403639 -0.99005705 0
0.0053156423 0.014542856 0.0030954448 0.12347734 -0.13349749 -0.98332685 0
0.015174967 0.014651406 0.004804458 -0.17388231 -0.38862029 -0.90484208 0
0.025267133 0.01496369 0.0053081699 0.65699607 -0.34555203 -0.67003727 0
-0.042671084 0.022392768 0.0088842055 -0.27595863 0.33652458 -0.90033215 0
-0.034511585 0.025268055 0.0054008849 -0.58946544 -0.15978797 -0.79183227 0
-0.025043318 0.025048859 0.0035001168 0.17170618 -0.018243995 -0.98497927 0
-0.015307783 0.024878992 0.002767792 -0.2732774 -0.024778988 -0.96161604 0
-0.0046978225 0.025039325 0.001389015 0.0069981427 -0.041608915 -0.99910945 0
0.0048990557 0.025358258 0.0033656484 0.32587537 0.1737659 -0.92930651 0
0.014995026 0.025153868 0.0036778443 -0.17358896 -0.20514372 -0.96321487 0
0.023569381 0.024448611 0.0059148627 0.72544372 0.28158543 -0.62804538 0
-0.033914 0.033622544 0.0057227924 -0.51402718 0.67920649 -0.52388412 0
-0.024613043 0.034801152 0.0050615701 -0.36053118 0.59829712 -0.71558219 0
-0.015102455 0.035007417 0.0017735934 0.010095496 0.054206196 -0.99847871 0
-0.0052321362 0.035362478 0.0020417904 0.030433629 0.16304085 -0.98614991 0
0.0049023791 0.035107523 0.0029441281 0.053222071 -0.28753573 -0.95629001 0
0.01506544 0.034972116 0.0026429649 0.013300621 0.21377604 -0.9767921 0
0.024451954 0.035018366 0.0066923872 0.46046457 0.14214535 -0.87622315 0
0.031295322 0.035125684 0.0084960433 0.6928677 0.027210293 -0.72055119 0
-0.021105442 0.041490961 0.0081062047 -0.72069681 0.53678495 -0.43870035 0
-0.014807709 0.044910882 0.0052858959 -0.54514325 0.3061088 -0.78045893 0
-0.0050532031 0.045339245 0.0025239529 0.17007798 0.1294083 -0.97689664 0
0.0050346861 0.045772698 0.0040781917 -0.0084407274 0.66750056 -0.74456155 0
0.015042545 0.04567273 0.0046929289 -0.14865847 0.37356111 -0.91561604 0
0.023928331 0.045574188 0.0060081892 0.85999966 0.050800726 -0.50775969 0
-0.021111516 0.056263071 0.007799088 -0.86825812 -0.18793632 -0.45913815 0
-0.015086269 0.054732483 0.0044476097 -0.22430125 -0.39144203 -0.89244729 0
-0.0063571739 0.054270204 0.0065375599 0.655505 0.41563627 -0.63052326 0
0.00031894838 0.050264813 0.0094212275 0.54455423 0.77348316 -0.32432154 0
0.018321434 0.050749037 0.0065651722 -0.31592304 0.94774938 -0.044315107 0
0.021986933 0.050975852 0.0062717125 0.35473019 0.92062783 -0.16312812 0
-0.021158181 0.062096756 0.0075284988 -0.87893355 0.40069577 -0.25868639 0
-0.014684031 0.063782677 0.005381153 -0.0033066953 0.81083626 -0.58526367 0
-0.0086550964 0.061956044 0.0069974042 0.7275089 0.62322229 -0.28692308 0
-0.034670454 -8.3851977e-05 0.016658194 -0.44445083 -0.88801116 -0.11789637 0
-0.022746151 -0.0022552826 0.012678056 -0.55707699 -0.63468164 0.53557867 0
-0.015541717 -0.0026462281 0.013584785 0.26960203 -0.8198477 0.50513816 0
-0.0033431784 -0.0013113121 0.013100202 -0.44483122 -0.86852276 0.21861689 0
0.0042618145 -0.005940848 0.015319495 -0.56521738 -0.80800563 0.16630144 0
0.015344638 -0.0054353671 0.014877323 0.733778 -0.66789359 0.12445112 0
-0.040597521 0.0041506258 0.015681356 -0.98675448 0.023580581 -0.16049755 0
-0.035133693 0.0051435134 0.015509349 -0.42663839 -0.86809289 -0.25376081 0
-0.025938842 0.0042260508 0.014946322 -0.70663536 -0.67986059 0.19610228 0
-0.014083516 0.0026910598 0.01836122 0.19916384 -0.5345524 0.82133275 0
-0.0054186252 0.003398014 0.017436909 -0.15722315 -0.60644948 0.77942288 0
0.00051688327 0.0011532601 0.01954069 -0.7571376 -0.30103368 0.57975966 0
0.017658144 0.0054199514 0.014690064 0.9873789 -0.10401923 0.11942695 0
0.021725606 0.0095543396 0.011215689 0.28968993 -0.93670774 0.19661726 0
-0.044690773 0.015677689 0.015120901 -0.71464068 -0.69921184 -0.019787453 0
-0.036239035 0.011829545 0.014440585 -0.39425093 -0.84808487 -0.35400322 0
-0.029200412 0.010868577 0.010538228 -0.58115453 -0.43293276 -0.68907809 0
0.017032139 0.012211792 0.018978978 0.30722973 -0.40251452 0.86231774 0
0.025711648 0.013728128 0.014853642 0.55903602 -0.79843491 0.22356297 0
0.033158619 0.017508537 0.016797274 0.55049807 -0.6394434 -0.53671592 0
-0.044594027 0.023951275 0.014989568 -0.54267544 0.82339954 0.16588072 0
-0.03613463 0.026948793 0.01557645 -0.51117271 0.80083746 0.31202859 0
-0.027059626 0.02913742 0.018577257 -0.24927805 0.77960378 0.57452434 0
0.027547235 0.025313176 0.012024258 0.61418617 -0.0096317697 -0.78910244 0
0.033321373 0.024710415 0.015909836 0.79472232 0.089988247 -0.60026544 0
-0.033683274 0.032963201 0.012040826 -0.33926877 0.55881953 0.75671488 0
-0.02439419 0.034511916 0.014870069 -0.53339916 0.62825197 0.56637859 0
-0.019510157 0.038374387 0.017610382 -0.94972098 0.23831858 0.20306197 0
0.02816245 0.034176197 0.012182781 0.41090265 -0.098381072 -0.90635544 0
0.03338268 0.035153225 0.014993208 0.9899047 0.12657961 -0.063766614 0
-0.023167484 0.046549454 0.015337554 -0.72765261 -0.66580969 -0.16498254 0
-0.019454967 0.043487772 0.015134394 -0.99096996 -0.10984465 -0.076894268 0
0.005828849 0.049220573 0.015325545 0.10992835 0.99381739 -0.01557907 0
0.014295574 0.049143184 0.013294493 -0.060068846 0.9855389 -0.15844475 0
0.025555557 0.044732187 0.014889204 0.80189264 0.4314546 -0.41329786 0
0.031275056 0.042400133 0.014358357 0.49287504 0.85201138 -0.17649616 0
-0.032340989 0.055071123 0.016437011 -0.88165212 -0.14433475 -0.44928485 0
-0.025704095 0.054585833 0.012624146 -0.40180022 -0.19461036 -0.89480919 0
-0.010270101 0.059858356 0.018440608 0.61161196 0.7832045 -0.11189935 0
-0.0043682186 0.055358883 0.014915839 0.73437577 0.67809814 -0.029583059 0
0.00094565796 0.050537657 0.015009517 0.46225047 0.88494247 -0.056579452 0
0.016177706 0.051917765 0.017312136 -0.31101441 0.76849663 -0.55918068 0
0.024715396 0.052986052 0.01727495 0.18850987 0.61900532 -0.76242793 0
0.03069422 0.051249556 0.019201808 0.92879301 0.22453979 -0.29483131 0
-0.030594084 0.061157115 0.017434578 -0.7382195 0.67252463 -0.052369572 0
-0.024691036 0.061612271 0.015738387 -0.12679297 0.96864182 -0.21367384 0
-0.01492249 0.06306909 0.015139016 0.024947811 0.9708215 0.23850214 0
-0.0086524477 0.061922457 0.012849727 0.71619749 0.62651289 0.3074784 0
0.0067004147 -0.0021717122 0.024105683 -0.46767977 -0.76245826 0.44713876 0
0.013642346 -0.0026539492 0.024467796 0.43757555 -0.85508448 0.27813345 0
-0.032281473 0.0092071136 0.021698289 -0.35163864 -0.75282115 0.55642664 0
-0.024809925 0.0077858153 0.02218209 -0.053963333 -0.71078867 0.70133257 0
-0.015857864 0.0074845729 0.020874202 0.16447829 -0.30202276 0.93900436 0
-0.0039439593 0.0066043525 0.025324762 -0.66782635 -0.65384638 -0.35565823 0
0.0025097423 0.0021569456 0.025185937 -0.65914536 -0.73655128 0.15172225 0
0.014862156 0.0057166358 0.025101881 0.87534302 0.48349711 -0.0022851301 0
-0.042618476 0.017802577 0.021569261 -0.4522182 -0.28766909 0.84424233 0
-0.035549067 0.014310341 0.024953138 -0.72343624 -0.53160483 0.44049552 0
-0.023635633 0.013127115 0.027477333 0.50667298 -0.58728141 0.63117594 0
-0.015163047 0.015430094 0.023544388 0.12628184 -0.40989551 0.90334851 0
-0.0073502664 0.013029498 0.025455527 -0.77630639 -0.61374623 0.14374979 0
0.0067156148 0.014976631 0.025691591 0.83923835 0.20162195 0.50500256 0
0.014269475 0.015670238 0.022228025 0.10690261 -0.38485834 0.91676384 0
0.024757413 0.017061235 0.023343161 -0.087629579 -0.72483599 0.68332553 0
0.033369992 0.017119059 0.023068136 0.45835084 -0.70009685 0.5475207 0
-0.043427933 0.021036766 0.020742353 -0.16909179 0.54029721 0.82430995 0
-0.034640241 0.024074875 0.024606787 -0.56400508 0.73078084 0.38452253 0
-0.024745207 0.025257817 0.024810176 0.2158442 0.78789252 0.57674664 0
-0.016350707 0.024468699 0.026038272 -0.70619202 -0.26243627 0.65758651 0
0.0081418753 0.021725403 0.02790585 0.48854527 -0.73154199 0.47557306 0
0.014558977 0.022187602 0.026972167 -0.057197757 -0.7902931 0.61005354 0
0.026371764 0.023511659 0.027470721 0.40915591 -0.5684709 0.71374524 0
0.033330742 0.024737127 0.023997342 0.79282218 0.20310466 0.57461423 0
-0.020346614 0.03472425 0.02511175 -0.96787167 0.12993123 0.21527269 0
-0.018975077 0.034777179 0.024921147 -0.99725491 -0.067217566 0.031054175 0
0.028584333 0.038437564 0.025813054 0.72771901 0.68173802 0.075222127 0
0.031436574 0.033386502 0.024838248 0.9596113 0.19516015 0.20262918 0
-0.022752225 0.047912553 0.022126928 -0.55524951 -0.56204104 0.61303169 0
-0.018946774 0.044548299 0.025570897 -0.99211931 -0.054258361 0.112939 0
0.0061127301 0.047962841 0.024743147 0.3229996 0.94185627 0.092617497 0
0.014205907 0.046526294 0.027222492 -0.39460588 0.56787634 0.72235912 0
0.027094318 0.043287732 0.026342463 0.80307221 -0.34452859 0.4861843 0
0.030544423 0.047713947 0.024045676 0.98174733 -0.19011359 0.0053883167 0
-0.031929836 0.056042876 0.021948405 -0.77031159 -0.061909959 0.63465518 0
-0.024591669 0.054937504 0.024749244 -0.40781277 -0.20299904 0.89021349 0
-0.018534089 0.05337828 0.02858918 -0.67932469 -0.18033747 0.71133417 0
-0.0040576947 0.055178247 0.025166854 0.76967061 0.63454062 0.070465229 0
0.0013145334 0.050712895 0.025695365 0.49395621 0.8627159 -0.10829742 0
0.016611708 0.053555634 0.024273852 -0.65231812 0.66242814 0.36833429 0
0.025488451 0.055378463 0.025048442 0.34068319 0.91367024 0.22167882 0
0.030595209 0.051360056 0.023774866 0.94953716 0.27729094 0.14659083 0
-0.030642988 0.060379121 0.021001391 -0.6148513 0.69280517 0.37680075 0
-0.023783244 0.061548278 0.023581088 -0.49390736 0.76884806 0.40611356 0
-0.01511684 0.064251088 0.024915416 0.022508247 0.97642267 -0.21469064 0
-0.0082198502 0.061686411 0.026096387 0.7366643 0.67165256 -0.078793883 0
-0.0038678073 -0.00053239195 0.037153516 -0.043252967 -0.99903178 -0.0080456259 0
0.0083410619 -0.001078187 0.031720847 -0.48367521 -0.78695363 0.38309559 0
0.013751308 -0.0015937389 0.032338399 0.16098689 -0.85689533 0.48970765 0
-0.010197804 0.006865873 0.035304371 -0.99987578 0.015150977 0.0043333024 0
-0.0065298919 0.0031388227 0.034487225 -0.58997989 -0.79032683 -0.16524896 0
0.0048910449 0.0044783847 0.035294257 0.13970043 -0.50097811 0.85411054 0
0.014379594 0.0050582476 0.034711447 0.68104553 0.24381445 0.6904574 0
-0.032413289 0.016146017 0.03174486 -0.46908608 -0.22350384 0.85440284 0
-0.02650065 0.016210791 0.031543411 0.39908454 -0.2329244 0.88683587 0
-0.01027622 0.017414154 0.030711785 -0.87160027 -0.30339521 0.38505101 0
-0.0066963891 0.015526419 0.036162879 -0.84962571 0.079538286 0.5213539 0
0.0036479542 0.014069484 0.03419061 0.78078854 0.3887994 0.48908511 0
0.010925602 0.010322083 0.032237522 0.37594974 0.92540956 0.047737267 0
-0.032365475 0.021828512 0.031385109 -0.32883978 0.5300163 0.78163105 0
-0.027068064 0.021492939 0.03125995 0.33230704 0.62547004 0.70594561 0
-0.014393388 0.025597891 0.034991439 -0.72997546 -0.68343508 0.0072336136 0
-0.0087687187 0.020795951 0.036265209 -0.72673798 -0.68005753 0.096817978 0
0.0057418286 0.023582492 0.035557546 0.615493 -0.70869428 0.34484914 0
0.014812073 0.026942793 0.0328536 0.032851372 -0.61647439 0.78668934 0
0.024623893 0.026815087 0.032931156 0.34796903 -0.65336615 0.67233193 0
0.030258128 0.02965495 0.030244736 0.86424971 -0.38580123 0.32284635 0
-0.02091114 0.036713429 0.035527978 -0.97868824 -0.16892968 -0.11675672 0
-0.01919114 0.032112855 0.03401057 -0.91051561 -0.40077531 -0.10168839 0
0.014445562 0.035175845 0.035130799 0.57572973 0.069353901 0.81469333 0
0.025283081 0.035353895 0.034586463 0.21373016 0.38326603 0.89856917 0
0.03071188 0.033282552 0.031575795 0.92617124 -0.019088257 0.37661985 0
-0.020688435 0.042756703 0.035767857 -0.97224152 0.21243112 -0.098079398 0
-0.01879566 0.047354858 0.034188908 -0.87619787 0.46195289 -0.13739228 0
0.0084296279 0.048238698 0.033821352 0.70320117 0.63281238 -0.32412431 0
0.013641864 0.043945707 0.033728313 0.79743266 0.42247766 0.43082911 0
0.023404434 0.045633197 0.0310196 0.16897966 -0.056185395 0.98401684 0
-0.014421889 0.054388773 0.033982348 -0.61599988 0.62480944 0.47974712 0
-0.0053680269 0.055554505 0.034264766 0.065806933 0.99564296 -0.066065274 0
0.0041473005 0.052742034 0.035354368 0.52597493 0.79783183 -0.29464358 0
0.019465445 0.051096808 0.030607373 -0.70576394 0.41822478 0.57182628 0
0.02354219 0.052235644 0.030803123 0.063451439 0.32993135 0.94187009 0
-0.014385837 0.062581532 0.031098021 -0.070977613 0.30852193 0.94856548 0
-0.0093365647 0.062365979 0.030248132 0.47317123 0.13784552 0.87011927 0
-0.0043883836 0.0057187406 0.04177792 -0.071236275 -0.20172112 0.97684902 0
0.00075589499 0.0070605204 0.040646352 0.6175887 0.00063169416 0.78650105 0
-0.0043544141 0.016050657 0.042400837 -0.0039938889 -0.45782492 0.88903338 0
0.00032234934 0.010954469 0.040392451 0.68529052 0.2461527 0.68540919 0
-0.01404619 0.025770184 0.044881415 -0.70031607 -0.67664343 0.22740056 0
-0.0049264347 0.021024246 0.045685861 0.10927138 -0.98608696 0.12526935 0
0.0042100358 0.026023058 0.044726331 0.63967746 -0.72023809 0.26845834 0
0.010026376 0.029939631 0.040261388 0.79113758 -0.59233701 0.15244094 0
-0.020702923 0.03649516 0.042788185 -0.97496474 -0.11676574 0.18923403 0
-0.018509498 0.033974409 0.046829041 -0.83542377 -0.23378664 0.49740431 0
0.0081078345 0.033768184 0.047755666 0.69286442 -0.26763749 0.66955888 0
0.0111454 0.035240643 0.043255828 0.94389087 -0.21116279 0.2539295 0
-0.020599606 0.042240288 0.042261768 -0.95585942 0.20316188 0.21226881 0
-0.016912105 0.04588677 0.046182346 -0.71797127 0.40289128 0.56762296 0
-0.0086276596 0.049673796 0.04981247 -0.15397939 0.51335126 0.84425163 0
0.0073656752 0.046095084 0.046974674 0.69160652 0.4081783 0.59587818 0
0.011236041 0.04337243 0.042740904 0.91020429 0.27573803 0.30902538 0
-0.013493336 0.052255914 0.043468233 -0.49854964 0.77807641 0.38215885 0
-0.0050869724 0.053696882 0.045204129 -0.016594697 0.86442548 0.502487 0
0.0036098871 0.052485455 0.043920167 0.44570756 0.7947365 0.41199347 0
-0.0035200275 0.019052422 0.056363977 -0.21191902 -0.95009738 -0.22892189 0
0.0021317254 0.018768894 0.05780435 0.47026742 -0.77015287 -0.43094444 0
-0.011355739 0.026595553 0.054927714 -0.95496821 -0.17627946 0.2386654 0
-0.0072647105 0.022114675 0.054377832 -0.64863044 -0.76068801 0.025144394 0
0.0034315279 0.024898598 0.055004787 0.95923358 -0.10885171 -0.260811 0
-0.013124243 0.034791056 0.052112792 -0.5726825 0.0030878589 0.81977141 0
-0.0050381175 0.034760352 0.056046937 -0.065361992 0.57670277 0.81433517 0
0.0029437919 0.034365259 0.053311031 0.63821191 0.1578621 0.75350189 0
-0.012468854 0.04346681 0.051369037 -0.46730804 0.27865082 0.83903337 0
-0.0050010048 0.045111936 0.05260228 -0.055015616 0.37627703 0.92487246 0
0.0032790722 0.043628171 0.051545415 0.45752853 0.23589091 0.85733491 0
-0.0028556788 0.050299678 0.050178919 0.026849592 0.57910258 0.81481248 0
-0.0029810171 0.018601768 0.062893823 -0.30658793 -0.88983601 0.33792856 0
0.0022135817 0.018398119 0.063033849 0.37111604 -0.86049372 0.34903219 0
-0.0049124435 0.024912566 0.0644686 -0.5923239 0.14578156 0.79240143 0
0.0028297775 0.024355767 0.064685956 0.77507353 0.27089846 0.57085472 0
-0.0043817195 0.03083656 0.061131008 -0.065412216 0.78811026 0.61204851 0
0.0010420227 0.030356938 0.060676154 0.3006137 0.82097489 0.48541906 0
