# .PCD v0.7 - Point Cloud Data file format
VERSION 0.7
FIELDS x y z normal_x normal_y normal_z curvature
SIZE 4 4 4 4 4 4 4
TYPE F F F F F F F
COUNT 1 1 1 1 1 1 1
WIDTH 657
HEIGHT 1
VIEWPOINT 0 0 0 1 0 0 0
POINTS 657
DATA ascii
0.092705429 -0.11347456 0.070387967 0.029928617 -0.17903665 0.98338711 0
-0.01122112 -0.10444134 0.071053825 -0.61296672 -0.245212 0.75109452 0
-0.0057448405 -0.1049204 0.073992856 -0.21411045 -0.18564864 0.95900536 0
0.0047469456 -0.10548022 0.073991016 0.028642084 -0.17852981 0.98351753 0
0.015494053 -0.10461158 0.073835142 0.028661888 -0.18080395 0.98310137 0
0.022491947 -0.10623828 0.075421028 -0.76628751 -0.53290915 0.35890293 0
0.066699386 -0.10379858 0.074935511 0.79074061 -0.18993111 0.58194119 0
0.075309254 -0.10509713 0.072328165 0.023022097 -0.17094222 0.98501205 0
0.085284449 -0.10491597 0.072125077 0.023448935 -0.17080443 0.98502588 0
0.094846673 -0.10459958 0.071808383 0.31499219 -0.24955389 0.91569799 0
-0.012298621 -0.094576851 0.072811246 -0.79095113 -0.23850672 0.56348103 0
-0.0054670735 -0.094924606 0.075961478 -0.21953769 -0.18750863 0.9574151 0
0.0050326944 -0.094544828 0.075968102 0.028299872 -0.17884934 0.98346937 0
0.015167888 -0.095157288 0.075972736 -0.15514341 -0.20722188 0.96591383 0
0.020390969 -0.098091416 0.077438243 -0.96431285 -0.18916012 0.18525434 0
0.067565404 -0.095647894 0.076384656 0.70999461 -0.1502182 0.68799865 0
0.074568085 -0.095098637 0.07412412 0.024393717 -0.17858925 0.98362124 0
0.084528238 -0.095906682 0.073737167 0.023605868 -0.17806588 0.98373538 0
0.096075915 -0.094666407 0.07302361 0.44051969 -0.14842232 0.88538879 0
-0.013326832 -0.084857285 0.074369438 -0.83038288 -0.1953285 0.52183431 0
-0.0051449551 -0.084902383 0.077884227 -0.092778683 -0.18478724 0.97838938 0
0.0048057083 -0.084876075 0.077747062 0.024892237 -0.18202864 0.98297811 0
0.015156121 -0.084854811 0.077924207 -0.30756631 -0.22466642 0.92462313 0
0.067841522 -0.085016258 0.077461787 0.85951966 -0.11352617 0.49833488 0
0.075025037 -0.085073404 0.075938165 0.026058374 -0.17969458 0.98337728 0
0.085712306 -0.084810011 0.075717367 0.023605868 -0.17806585 0.98373538 0
0.095654115 -0.084371828 0.074088097 0.51290041 -0.07201682 0.85542202 0
-0.011787072 -0.076206975 0.07477019 -0.89812261 0.39775556 0.18752669 0
-0.0062866616 -0.073617704 0.07721512 -0.37053758 0.61345923 0.69740212 0
0.0046390793 -0.074917212 0.079061918 -0.00018226595 0.085982084 0.9962967 0
0.013354165 -0.07489796 0.079136834 -0.1301052 -0.017521162 0.99134535 0
0.068198517 -0.075957097 0.078363083 0.7134403 -0.13885283 0.68682086 0
0.07480526 -0.075121529 0.077765025 0.0264758 -0.17997164 0.98331547 0
0.085251726 -0.07471367 0.077560976 0.02543777 -0.17928253 0.98346871 0
0.095586635 -0.07497815 0.074342869 0.76484245 0.11967739 0.63300335 0
-0.003228945 -0.069167756 0.072440438 -0.10824411 0.97547007 0.1916803 0
0.0047383509 -0.068985343 0.073566899 -0.041940108 0.9882105 0.1472453 0
0.0152733 -0.066105358 0.074462861 -0.89208436 0.38082758 -0.24321975 0
0.067614011 -0.064773351 0.076157816 0.86174089 0.453161 0.2281397 0
0.074878648 -0.066235453 0.075324856 -0.035745054 0.88161355 0.47061649 0
0.084344178 -0.066101164 0.076033682 -0.0027313028 0.79122055 0.61152482 0
0.092922069 -0.06707938 0.073909827 0.68144405 0.65280646 0.33087426 0
0.015370536 -0.055202063 0.075068995 -0.94474113 -0.071676672 -0.31988531 0
0.066479608 -0.054730218 0.074743643 0.96370429 0.032722693 -0.26495889 0
0.014565077 -0.045327779 0.075157657 -0.93258435 -0.075841568 -0.35289457 0
0.065806709 -0.04501716 0.07392545 0.93200123 0.043101951 -0.35988313 0
0.013569508 -0.034219358 0.075404562 -0.92099148 -0.072781906 -0.38272381 0
0.066066101 -0.034941245 0.075524732 0.92926627 0.040684361 -0.36716345 0
0.013013 -0.025571346 0.075187728 -0.90833074 -0.062485434 -0.41355884 0
0.065354511 -0.024583312 0.075141475 0.89671874 0.053037066 -0.43941161 0
0.009914197 -0.010577269 0.079633012 -0.91664994 -0.071268275 -0.3932859 0
0.012911784 -0.014945216 0.074333623 -0.85416734 -0.02870594 -0.51920533 0
0.064614542 -0.015311345 0.074944802 0.86123532 0.065978736 -0.50390524 0
0.0096921809 -0.0029707225 0.079064973 -0.88141656 -0.036885858 -0.47089744 0
0.01316368 -0.0051512728 0.073662072 -0.78585714 0.0025235324 -0.61840296 0
0.059503227 -0.0015995747 0.070301145 0.68159765 0.11305187 -0.72294128 0
0.063529842 -0.00445191 0.074643634 0.80914712 0.082526483 -0.58178204 0
0.0094130337 0.0042364597 0.079074062 -0.8699829 -0.027005106 -0.49234185 0
0.012955955 0.0052861483 0.074058801 -0.76096147 0.011367562 -0.64869744 0
0.05904201 0.0051354817 0.070919506 0.68159753 0.11305187 -0.72294122 0
0.063085534 0.0048582228 0.075127266 0.78707963 0.088487647 -0.61047161 0
0.0095125204 0.014961812 0.078229718 -0.85761124 -0.030508768 -0.51339287 0
0.013604647 0.015549065 0.073673256 -0.69707716 0.029595017 -0.71638507 0
0.057754803 0.015286896 0.072308071 0.7730636 0.17623228 -0.60935599 0
0.063041188 0.014370194 0.077196456 0.68397301 0.28547022 -0.67133284 0
-0.076535322 0.029818196 0.070035055 0.011563518 -0.16466621 0.98628157 0
0.0087696929 0.026127994 0.078940898 -0.80841225 -0.011180715 -0.58851045 0
0.013523526 0.024910524 0.073860861 -0.79657757 -0.013615811 -0.60438305 0
0.057728589 0.025132619 0.073991269 0.91797978 0.0385594 -0.3947483 0
0.061382022 0.024532177 0.078803986 0.75550264 0.14332725 -0.63927555 0
-0.081732623 0.035426084 0.070947342 -0.15890282 -0.19161132 0.96852207 0
-0.075500943 0.034313451 0.07077343 0.011563512 -0.16466612 0.98628157 0
-0.064777188 0.034871679 0.070740901 0.011563516 -0.1646661 0.98628157 0
-0.054616399 0.03597853 0.070806749 0.011399506 -0.16439857 0.98632812 0
-0.044218153 0.035917185 0.070680805 0.010395274 -0.16276006 0.98661089 0
-0.035353538 0.035580207 0.070534036 0.010032705 -0.16216835 0.9867121 0
-0.025687987 0.036235034 0.070543386 0.010032704 -0.16216835 0.9867121 0
-0.014822245 0.036705386 0.070512325 0.0091492329 -0.162242 0.98670858 0
-0.0054592411 0.0370179 0.070482612 0.0075583775 -0.16300353 0.98659652 0
0.0065228655 0.036009524 0.07336852 -0.50772542 -0.20541787 0.83667105 0
0.012141084 0.035215694 0.07392291 -0.98429304 -0.17336038 0.033367898 0
0.058107432 0.035142448 0.074411213 0.99533045 -0.047768917 -0.083877258 0
0.062782891 0.035947878 0.075144023 0.96438938 -0.024875024 0.26331419 0
0.071412884 0.039767899 0.070058256 0.012370405 -0.16376203 0.98642236 0
-0.083890289 0.044485312 0.071940772 -0.3758983 -0.21614839 0.90109956 0
-0.074467041 0.04545759 0.072621897 0.011563513 -0.16466612 0.98628163 0
-0.065222785 0.044897448 0.072419994 0.011563515 -0.16466612 0.98628163 0
-0.054569423 0.045287319 0.072360188 0.011563512 -0.16466613 0.98628157 0
-0.04393933 0.044550117 0.072112471 0.011535168 -0.16461988 0.98628962 0
-0.034661081 0.044952299 0.072072677 0.010945314 -0.16365758 0.98645651 0
-0.024723586 0.044324107 0.071863547 0.010219393 -0.16247304 0.98666006 0
-0.01484681 0.044725344 0.071830958 0.0089449324 -0.1623888 0.98668629 0
-0.0056200656 0.044782221 0.071769997 0.0060477857 -0.16413674 0.98641908 0
0.0064739543 0.045448929 0.073583543 -0.38553438 -0.20977464 0.89853096 0
0.011124372 0.044378731 0.075299397 -0.98590207 -0.16098802 -0.045605581 0
0.05874373 0.044347703 0.07514292 0.98876047 -0.093344666 0.11678838 0
0.06557823 0.04500252 0.07102295 0.04828738 -0.16581956 0.98497319 0
0.075060166 0.044802159 0.070848279 0.012370405 -0.16376205 0.98642236 0
0.08508601 0.045042779 0.070763163 0.011601502 -0.16410491 0.98637468 0
0.095008627 0.04534848 0.070717365 0.0082182409 -0.16561213 0.98615676 0
0.10425504 0.046217144 0.070792489 0.0063681593 -0.16464105 0.98633301 0
0.11520649 0.045643564 0.070632257 0.0057301922 -0.16430603 0.98639274 0
0.12402268 0.045495328 0.070556358 0.0057301926 -0.16430604 0.9863928 0
0.13471077 0.046340004 0.070634961 0.0057301917 -0.16430601 0.98639274 0
0.14515801 0.04712728 0.070696227 0.01858235 -0.16081697 0.98680931 0
0.15096423 0.046615209 0.07048519 0.048947074 -0.15245657 0.98709738 0
-0.085902251 0.055193231 0.073133692 -0.52936769 -0.20692743 0.8227703 0
-0.074891515 0.054997303 0.074219592 0.011563515 -0.16466612 0.98628163 0
-0.064842366 0.055078145 0.074115284 0.011563513 -0.16466612 0.98628157 0
-0.054793 0.055129986 0.074006096 0.011563512 -0.16466612 0.98628157 0
-0.044770438 0.054406986 0.073767878 0.011563511 -0.16466612 0.98628157 0
-0.035232246 0.054789972 0.073720001 0.011563515 -0.1646661 0.98628157 0
-0.024468029 0.054885376 0.073611714 0.01113785 -0.16580477 0.98609573 0
-0.014542173 0.055152863 0.073557891 0.0073731532 -0.16601625 0.98609543 0
-0.0053287731 0.054718237 0.073432386 0.0049059689 -0.16600393 0.98611283 0
0.0061926036 0.054497369 0.074849248 -0.49022081 -0.22431864 0.84223795 0
0.010363064 0.053525694 0.077507988 -0.98521382 -0.17015614 0.020016428 0
0.059283495 0.054528188 0.076245025 0.97345376 -0.098095857 0.20679696 0
0.064329512 0.055180483 0.072869651 0.16124929 -0.17090084 0.97200388 0
0.074415155 0.055345695 0.07260678 0.012370404 -0.16376203 0.9864223 0
0.084441639 0.054942712 0.072421245 0.010118407 -0.16476591 0.9862808 0
0.094981439 0.054711606 0.072289996 0.0082182391 -0.16561215 0.9861567 0
0.10570335 0.05552974 0.072339863 0.007355046 -0.16515917 0.98623949 0
0.11492889 0.055244017 0.072233044 0.0057301903 -0.164306 0.9863928 0
0.1251474 0.055117305 0.07215257 0.0057301917 -0.16430604 0.98639274 0
0.13543384 0.055479731 0.072153203 0.0057301931 -0.16430604 0.9863928 0
0.14550784 0.054630894 0.071915969 0.024020148 -0.15933187 0.98693287 0
0.1526275 0.055136524 0.071421482 0.28968716 -0.16537218 0.94272655 0
-0.09051653 0.06613116 0.071201265 -0.92697775 -0.15081879 0.34346157 0
-0.085461296 0.063934714 0.07499066 -0.36419648 -0.19804367 0.91002172 0
-0.076191932 0.064902253 0.075888537 0.011563514 -0.16466612 0.98628157 0
-0.065230414 0.06508635 0.07579124 0.011354116 -0.16535647 0.9861685 0
-0.055123404 0.064521961 0.075580008 0.011178035 -0.16593695 0.98607308 0
-0.044835046 0.06552697 0.075637124 0.010651591 -0.16767196 0.98578531 0
-0.0353158 0.064806141 0.075411983 0.01040663 -0.16847901 0.9856503 0
-0.025405223 0.065001197 0.075340845 0.010385594 -0.16854829 0.98563868 0
-0.015024845 0.065609172 0.075336553 0.009609025 -0.16821927 0.98570281 0
-0.0057093822 0.06456513 0.075093605 0.0048384997 -0.1661956 0.98608094 0
0.0051952377 0.064888842 0.076501153 -0.47465271 -0.22751771 0.85025907 0
0.059730489 0.063642614 0.077333495 0.98392075 -0.078519024 0.16042016 0
0.064243466 0.065608054 0.074800946 0.26028472 -0.17235209 0.9500246 0
0.074508987 0.064926684 0.07419648 0.012135382 -0.16386683 0.98640788 0
0.085450903 0.065279171 0.074144185 0.0083810715 -0.16553967 0.98616755 0
0.09560363 0.065123059 0.074033268 0.0082182381 -0.16561216 0.98615676 0
0.10511756 0.065420851 0.074004002 0.0082182409 -0.16561213 0.98615676 0
0.11525162 0.064769126 0.073818564 0.0062633473 -0.16458601 0.98634285 0
0.12450053 0.065844826 0.07394325 0.0057301903 -0.16430601 0.98639274 0
0.13527769 0.065060362 0.073749974 0.0057301908 -0.16430603 0.98639274 0
0.1449737 0.064819403 0.073561281 0.030803518 -0.1574719 0.98704296 0
0.15357541 0.06507802 0.07260409 0.40015596 -0.16649167 0.90119684 0
-0.091326281 0.075276658 0.072773039 -0.94277698 -0.13380115 0.30539966 0
-0.08572033 0.075247794 0.077479333 -0.20997134 -0.12599395 0.96955532 0
-0.075288653 0.074441746 0.077482052 0.010704375 -0.16765088 0.98578829 0
-0.064800635 0.075184159 0.077497289 0.010385594 -0.16854832 0.98563868 0
-0.054338343 0.075320922 0.07741043 0.010385595 -0.16854824 0.98563868 0
-0.045026872 0.074787706 0.077221133 0.010385594 -0.16854833 0.98563874 0
-0.034851748 0.074779443 0.077112503 0.010385594 -0.16854823 0.98563868 0
-0.02524825 0.074755259 0.077007182 0.010385594 -0.16854833 0.98563874 0
-0.015286768 0.07440383 0.076842129 0.010385594 -0.16854826 0.98563862 0
-0.0050415648 0.075310498 0.07690344 0.0067245387 -0.16699618 0.98593462 0
0.0032386573 0.075051822 0.077529728 -0.42116803 -0.21777591 0.88044941 0
0.028784275 0.074023396 0.072755471 0.92868102 0.03262607 -0.36944163 0
0.0335402 0.075526819 0.076932624 -0.72916669 0.679901 -0.077785052 0
0.059892856 0.071274742 0.079664685 0.98517001 -0.044676412 0.16566259 0
0.064466916 0.075386889 0.076675907 0.34094051 -0.16906406 0.92475772 0
0.075306363 0.07519082 0.075897969 0.010161832 -0.16474654 0.9862836 0
0.084433176 0.075565085 0.075879954 0.0082182391 -0.16561215 0.9861567 0
0.095310807 0.074621923 0.075630926 0.0082182409 -0.16561213 0.98615676 0
0.10567313 0.075472914 0.075687483 0.0082182391 -0.16561215 0.9861567 0
0.11486854 0.074964754 0.075526558 0.0076089255 -0.1652924 0.98621523 0
0.12461368 0.074979194 0.075464129 0.0057301922 -0.16430603 0.98639274 0
0.13491358 0.075250983 0.075449564 0.0057301912 -0.16430604 0.98639274 0
0.14562167 0.07441885 0.075039931 0.042649943 -0.15420394 0.98711807 0
0.15406932 0.074573696 0.073486283 0.50370765 -0.15647919 0.84958398 0
-0.091198817 0.083338089 0.072864436 -0.80819368 0.46039429 0.3672331 0
-0.085532628 0.084958009 0.076894417 -0.5246287 0.3005183 0.7965259 0
-0.074764624 0.085152976 0.07918708 0.0020655484 -0.061824709 0.99808484 0
-0.06517648 0.085762553 0.079256713 0.0024989154 -0.067419969 0.99772161 0
-0.055746924 0.085140958 0.079104267 0.0096128127 -0.15740107 0.98748791 0
-0.045566387 0.084659927 0.078916393 0.010506219 -0.16914722 0.98553473 0
-0.035310805 0.085609093 0.078970022 0.010485243 -0.16904305 0.98555291 0
-0.02540287 0.084547184 0.078683324 0.010402059 -0.16862999 0.98562455 0
-0.014735776 0.085087806 0.078663327 0.010389462 -0.16856754 0.98563534 0
-0.0045835553 0.084380902 0.07843899 0.0082777338 -0.16765495 0.98581094 0
0.0043382789 0.08467976 0.075557053 -0.85538703 -0.38765192 0.34356821 0
0.015108714 0.085934713 0.070575558 0.035459049 -0.021735899 -0.99913472 0
0.02523981 0.085430391 0.070883997 0.11421735 -0.0022293935 -0.99345326 0
0.033338368 0.084190562 0.073187232 -0.20761287 -0.52195936 -0.82731813 0
0.046038885 0.085343659 0.070161819 0.037737638 -0.040783849 -0.99845511 0
0.05412358 0.088271417 0.070187874 -0.031158242 0.10983448 -0.99346131 0
0.065459438 0.085433915 0.07806363 0.22526328 -0.17816848 0.95786864 0
0.075665109 0.084770791 0.077499263 0.0086695701 -0.1654112 0.98618656 0
0.085306205 0.085105017 0.077474803 0.0082182381 -0.16561216 0.98615676 0
0.094460398 0.085193083 0.077413298 0.0082182437 -0.16561212 0.98615676 0
0.10486253 0.08528737 0.077342451 0.0082182381 -0.16561218 0.98615676 0
0.1144157 0.084843159 0.077188246 0.0082182381 -0.16561218 0.9861567 0
0.12464117 0.085796334 0.077268369 0.0067254147 -0.16482863 0.98629928 0
0.1347727 0.084436305 0.076970614 0.014164987 -0.16201951 0.98668593 0
0.14501671 0.085447192 0.076777659 0.048947062 -0.15245655 0.98709732 0
0.15594766 0.085719608 0.073979512 0.78861517 -0.13035178 0.60091138 0
-0.083080642 0.092041023 0.074442677 -0.69122863 0.68165112 0.2399056 0
-0.075837165 0.093928054 0.076173708 -0.12897332 0.68961751 0.71259642 0
-0.06483674 0.095224723 0.075883508 -0.051718712 0.81402439 0.57852364 0
-0.055102039 0.094942369 0.076308429 -0.047798522 0.73399609 0.67746967 0
-0.045225661 0.09512651 0.076663919 -0.042906072 0.68768311 0.72474205 0
-0.035196207 0.095779873 0.076446913 -0.04257999 0.70028198 0.71259534 0
-0.024992948 0.09571103 0.0775114 -0.029664207 0.56179398 0.82674521 0
-0.014703411 0.095415831 0.078014076 -0.022572836 0.44439939 0.89554429 0
-0.0048398413 0.095740043 0.078203119 -0.016205462 0.40785366 0.91290355 0
0.0020539248 0.097041816 0.07803259 -0.39234486 0.57180262 0.72049093 0
0.057833023 0.090926468 0.070372686 0.1021329 -0.18262129 -0.97786415 0
0.066312984 0.09502326 0.079107851 0.018696429 -0.027515426 0.99944645 0
0.075374871 0.095754243 0.07923577 -0.0037868803 -0.0079591218 0.99996114 0
0.08501821 0.094958097 0.079129532 0.0068215788 -0.14734618 0.98906147 0
0.094687998 0.094808705 0.079026222 0.0082182391 -0.16561216 0.98615676 0
0.10514718 0.094850905 0.078946158 0.0082182381 -0.16561215 0.9861567 0
0.1141607 0.095601454 0.078997076 0.0082182381 -0.16561216 0.98615676 0
0.1247206 0.094434425 0.078713708 0.0077418089 -0.16536215 0.98620254 0
0.1352627 0.094713055 0.078632697 0.026707942 -0.15866186 0.98697168 0
0.14488459 0.095027775 0.078109346 0.08792194 -0.0335241 0.99556309 0
0.15515056 0.095392421 0.075286604 0.7435683 0.25345176 0.61876363 0
-0.014794568 0.10022001 0.070970982 -0.049487971 0.9917208 0.11849381 0
-0.0037435794 0.10047757 0.073305376 -0.052128736 0.98847967 0.14209321 0
0.0053846887 0.10090201 0.074155204 -0.079853222 0.99129522 0.10467713 0
0.014806114 0.10217807 0.075786918 -0.21004084 0.95593548 -0.20511018 0
0.025107423 0.10527761 0.075158581 -0.14215463 0.79845804 -0.5850271 0
0.035030697 0.10556332 0.07490427 -0.011510293 0.80445176 -0.59390652 0
0.045247518 0.10500914 0.075981326 0.17342801 0.84497905 -0.50589836 0
0.054878365 0.1036512 0.074880071 0.030455921 0.99278075 0.11601245 0
0.063916057 0.103526 0.074515067 0.067662872 0.91627699 0.39478874 0
0.074888498 0.10336699 0.07547342 -0.053229235 0.82867706 0.5571903 0
0.085859045 0.1038942 0.075716995 -0.051873092 0.81973928 0.57038289 0
0.095289364 0.104677 0.075397797 -0.05275194 0.88880759 0.45523432 0
0.10566515 0.10478067 0.07590241 -0.052718967 0.87397182 0.48310861 0
0.1148449 0.10544393 0.075385921 -0.050942186 0.8857156 0.46142474 0
0.12373196 0.10533912 0.076362722 -0.045364946 0.7825135 0.62097877 0
0.13558222 0.10587557 0.075899996 0.083838642 0.82313079 0.56162864 0
0.14390709 0.10494389 0.074382372 0.32065108 0.80590558 0.49769378 0
0.15308741 0.1023711 0.072064951 0.68769091 0.71242303 0.13976587 0
0.026748857 0.11047775 0.079393491 -0.18321346 0.62646949 -0.75760734 0
0.035485812 0.11080252 0.079225399 0.028778005 0.59599131 -0.80247504 0
0.041689985 0.11023528 0.079459712 0.14685309 0.63642567 -0.75722957 0
-0.022043925 0.12677771 0.079623207 -0.21619983 0.24207987 -0.945862 0
0.04477692 -0.12035363 0.086624436 -0.21329428 -0.97177094 -0.10083026 0
0.028167089 -0.11228699 0.083135866 -0.70638174 -0.67271113 0.22019206 0
0.03575141 -0.11487864 0.08529935 -0.47718313 -0.79783052 0.36845979 0
0.044391017 -0.11868783 0.085064426 0.035185128 -0.99522144 -0.091083974 0
0.054053597 -0.11381018 0.084603719 0.5587917 -0.74088722 0.37260965 0
0.060129024 -0.11224091 0.080980018 0.60405451 -0.55458486 0.57232314 0
0.025030473 -0.10499967 0.085589819 -0.82497483 -0.39883658 0.40043205 0
0.031166071 -0.10902859 0.089508638 -0.36346722 -0.56129313 0.74353319 0
0.05842723 -0.10729108 0.087110281 0.65563363 -0.48288751 0.58048606 0
0.062913224 -0.10402148 0.083977528 0.79651064 -0.42505872 0.42999518 0
0.019781848 -0.090806313 0.081706263 -0.96431285 -0.18916011 0.18525429 0
0.021537168 -0.095227189 0.084963433 -0.92923969 -0.20253271 0.30902112 0
0.065111592 -0.094097212 0.085446864 0.92706949 -0.12412948 0.35374278 0
0.019073775 -0.084631428 0.083913215 -0.95723271 -0.18700726 0.22075732 0
0.020837871 -0.08830981 0.087754965 -0.89788067 -0.20539573 0.38938782 0
0.066253081 -0.084902413 0.084548943 0.97492683 -0.071365453 0.21077162 0
-0.0064228722 -0.073498696 0.080098607 0.012404259 0.10104406 0.99480462 0
0.00040845358 -0.073107883 0.080041304 0.024107289 -0.18276033 0.98286194 0
0.017458504 -0.074846245 0.085056618 -0.95896763 -0.18209365 0.21730864 0
0.066890746 -0.07491041 0.084954821 0.9781298 -0.06930653 0.19610889 0
0.015613277 -0.065202214 0.084767006 -0.97384238 -0.16930643 0.15154697 0
0.067567036 -0.065322906 0.084517054 0.99013627 -0.05176447 0.13019478 0
0.014037916 -0.055724092 0.08479242 -0.98356873 -0.15636161 0.09024132 0
0.067784287 -0.055661689 0.085328169 0.99799132 -0.034589507 0.053074766 0
0.012372291 -0.044544205 0.084885865 -0.99042612 -0.13752998 0.011891931 0
0.067991517 -0.045339983 0.084592834 0.9995302 -0.019186616 -0.023900351 0
0.011063555 -0.03509932 0.085473754 -0.9910537 -0.12654868 -0.042402133 0
0.06815812 -0.035127982 0.084666878 0.99450004 -0.002901321 -0.10469541 0
0.0095626023 -0.023648327 0.086276241 -0.99082994 -0.12375499 -0.054229815 0
0.010306195 -0.026072843 0.083308846 -0.98237425 -0.10414013 -0.15522745 0
0.06818559 -0.024542894 0.084820047 0.99290144 0.00062227307 -0.11893816 0
0.0089092879 -0.015455308 0.084864482 -0.97583634 -0.099203147 -0.19468498 0
0.068188272 -0.014817084 0.085120097 0.98663181 0.0079684183 -0.16276985 0
0.0080058891 -0.0050302204 0.084443673 -0.96358067 -0.090516269 -0.25163272 0
0.067791872 -0.0048517981 0.08379107 0.96579176 0.022686131 -0.25832456 0
0.0068498603 0.0053133988 0.085267454 -0.95432913 -0.087665819 -0.28560576 0
0.067701824 0.0051713591 0.084519029 0.95704675 0.027288327 -0.28864649 0
0.0058854986 0.015542725 0.085399866 -0.93418521 -0.072804809 -0.34928122 0
0.067273602 0.01533166 0.084542297 0.930242 0.070028991 -0.36020228 0
0.005407034 0.02484484 0.085089073 -0.91096234 -0.055559743 -0.40873066 0
0.065992065 0.0250897 0.084331982 0.78154111 0.092891946 -0.61689919 0
0.0046546017 0.035029214 0.085509278 -0.89617264 -0.047507733 -0.44115481 0
0.06565585 0.035025708 0.084894113 0.84090877 0.046044361 -0.53921455 0
0.00442028 0.045229658 0.08513242 -0.85786146 -0.028259968 -0.51310349 0
0.059506036 0.047602441 0.080326818 0.73906255 0.043091819 -0.67225713 0
0.064658351 0.044997785 0.085437834 0.73215872 0.13919093 -0.66676044 0
0.0047682282 0.054917004 0.084554441 -0.8027755 -0.0053207059 -0.59625763 0
0.059314668 0.056548931 0.080670677 0.86101592 0.025231 -0.50795174 0
0.063442998 0.054602101 0.085373424 0.76209301 0.039000053 -0.64629197 0
0.004652841 0.064945363 0.084696703 -0.80332237 -0.0067767296 -0.59550583 0
0.033267658 0.069694966 0.085023269 0.92473078 0.13599066 -0.355499 0
0.059610303 0.065366365 0.080851741 0.97564733 -0.0064987633 -0.21924879 0
0.063304722 0.064466387 0.085743971 0.75885791 0.035533626 -0.65028614 0
0.0046392069 0.075334877 0.084520303 -0.85895747 -0.043564882 -0.51019037 0
0.033698518 0.07341744 0.082052052 -0.36166066 -0.39783838 -0.84316444 0
0.059778359 0.076960415 0.081878915 0.98517001 -0.044676412 0.16566259 0
0.063087836 0.075453073 0.08610604 0.74946278 0.040973369 -0.66077739 0
0.0032222448 0.084848218 0.085494794 -0.9468655 -0.078003258 -0.31202769 0
0.059982885 0.083684042 0.082475863 0.98517001 -0.044676412 0.16566259 0
0.062433504 0.085581221 0.085437477 0.8931157 0.029122138 -0.44888332 0
0.0029281073 0.095244087 0.084449768 -0.95832175 0.047713306 -0.28167871 0
0.062113754 0.094527423 0.085434183 0.93729407 0.05336133 -0.34443054 0
0.0061907177 0.10433125 0.085430533 -0.67971915 0.45417491 -0.57594019 0
0.014216539 0.10682633 0.081381276 -0.3723948 0.51591635 -0.77146125 0
0.020747731 0.10919955 0.08029145 -0.27290013 0.63806146 -0.72000223 0
0.049989656 0.10728846 0.0801 0.53206009 0.24765857 -0.8096773 0
0.055901114 0.10569768 0.084252819 0.63499171 0.51617861 -0.57475674 0
0.06098837 0.10144714 0.085709624 0.81023157 0.54252303 -0.22179629 0
0.11672999 0.10179844 0.080016367 0.0082182409 -0.16561207 0.98615676 0
0.12492247 0.10225719 0.080025136 0.0082182409 -0.16561207 0.98615676 0
0.13034 0.1024624 0.080014452 0.0082182409 -0.16561207 0.98615676 0
0.0083292881 0.1110952 0.087977536 -0.60958624 0.66689932 -0.42854384 0
0.015609112 0.11436652 0.086673282 -0.28220204 0.62307298 -0.72948068 0
0.024230717 0.11550672 0.084513195 -0.25281227 0.62382215 -0.73954839 0
0.03491972 0.11601024 0.08328405 0.092217535 0.64563096 -0.75806111 0
0.045243558 0.11477292 0.084882669 0.24215052 0.75905353 -0.6043185 0
0.05230663 0.11257703 0.086763456 0.60873359 0.66611272 -0.43097246 0
-0.023253346 0.12787709 0.084946766 -0.80677885 -0.4818663 -0.34192508 0
-0.015372402 0.1276307 0.08587449 0.18341364 -0.13178904 -0.97416174 0
-0.0055348957 0.12839 0.087736592 0.44429949 -0.35818884 -0.82115692 0
0.0033123451 0.1263642 0.089125216 0.11367515 -0.34362692 -0.93220085 0
0.019490987 0.12007346 0.089931071 -0.25424826 0.59793091 -0.7601555 0
0.025533769 0.12064572 0.088732749 -0.16489874 0.84915513 -0.50174093 0
0.033806648 0.12081063 0.088656902 0.050240409 0.95392591 -0.29580629 0
0.040322989 0.1200911 0.089956418 0.28256738 0.80384141 -0.52344501 0
-0.023586938 0.13028406 0.088325314 -0.042305488 0.99090201 -0.12776285 0
-0.019031869 0.13012861 0.088326186 0.046569511 0.9989149 -0.00045654384 0
0.067429289 0.13334258 0.089253791 -0.37660936 -0.17671844 -0.90936017 0
0.075649559 0.13435589 0.086578041 -0.25258818 -0.15251723 -0.95547771 0
0.084570736 0.13359363 0.085766569 0.41373181 -0.54647118 -0.72814506 0
0.044831343 -0.12091563 0.095372267 0.020910796 -0.99646616 -0.081351057 0
0.039290279 -0.11346903 0.094043598 -0.95856088 -0.21171649 0.19062302 0
0.044929862 -0.11893437 0.095401995 0.07532116 -0.99658394 -0.033871107 0
0.050571851 -0.11339083 0.094254047 0.98376036 -0.1065379 0.14444794 0
0.027849995 -0.10252719 0.091809519 -0.54009306 -0.34546959 0.76743084 0
0.035499074 -0.10523839 0.094544247 -0.59569573 -0.42597479 0.68094933 0
0.049824193 -0.10575233 0.098458305 0.99359512 0.037288912 0.10666841 0
0.053739578 -0.10494868 0.094020784 0.67151678 -0.38396791 0.63374591 0
0.060193643 -0.10056896 0.090347677 0.64190263 -0.2441179 0.7268889 0
0.026143987 -0.094286084 0.093160674 -0.67891914 -0.2532703 0.68914652 0
0.034375861 -0.095174983 0.098130152 -0.47946018 -0.2691485 0.83527058 0
0.049547777 -0.097396486 0.099544346 0.58004057 -0.15246044 0.80019289 0
0.055483576 -0.094704278 0.096275851 0.5800333 -0.22532967 0.78280765 0
0.061426859 -0.094122186 0.091350943 0.67025506 -0.21887518 0.70912039 0
0.024448905 -0.084681094 0.094608031 -0.70863897 -0.247879 0.66059589 0
0.03101016 -0.088046715 0.09859433 -0.46788788 -0.27477959 0.83998632 0
0.056866806 -0.085194007 0.098064601 0.57350498 -0.20498011 0.79314262 0
0.061944678 -0.0853462 0.093282156 0.73109597 -0.16366652 0.66235346 0
0.019124899 -0.073454358 0.091680832 -0.87534219 -0.20500825 0.43788996 0
0.023164688 -0.075844765 0.096636921 -0.72625148 -0.24309638 0.6430108 0
0.058912549 -0.076198861 0.098777406 0.68978232 -0.17275956 0.70310348 0
0.063078195 -0.07474117 0.094432682 0.78487432 -0.1455318 0.60232282 0
0.017867459 -0.063788801 0.093533106 -0.90241045 -0.20238298 0.38039008 0
0.021097573 -0.067072347 0.097769633 -0.79617465 -0.23141129 0.55906594 0
0.037010483 -0.060482524 0.099075407 0.38901237 0.74545199 0.54126769 0
0.059430439 -0.069846287 0.099831209 0.72764134 -0.16286197 0.66634381 0
0.063916594 -0.064719312 0.095391788 0.83165693 -0.13259663 0.53922617 0
0.016519684 -0.054826088 0.09481021 -0.90332174 -0.20221642 0.37830991 0
0.037591308 -0.056550376 0.09634015 0.5655548 -0.054213859 0.82292694 0
0.042797972 -0.054333169 0.097801104 -0.61894202 0.13501129 0.77374595 0
0.065179996 -0.055026349 0.09575633 0.88694733 -0.1081922 0.44902009 0
0.014506826 -0.045082152 0.095234573 -0.91622478 -0.19680712 0.34899735 0
0.066391759 -0.044954095 0.095380425 0.92659831 -0.089509241 0.36524463 0
0.012696304 -0.035220794 0.095833138 -0.92637467 -0.19221187 0.32385874 0
0.067435846 -0.034568261 0.094684623 0.95745796 -0.074006706 0.27892154 0
0.0095067238 -0.022485716 0.092262395 -0.98026371 -0.15446587 0.12338265 0
0.010637651 -0.02540998 0.095793277 -0.9521668 -0.17919883 0.24752027 0
0.068046771 -0.02578029 0.095091887 0.97784162 -0.059884131 0.20059855 0
0.008550263 -0.014709627 0.094300807 -0.97664136 -0.15911324 0.14441182 0
0.010142996 -0.018888369 0.099242225 -0.92399806 -0.19475824 0.32908487 0
0.068576597 -0.014811779 0.095073767 0.99098963 -0.044318214 0.12639406 0
0.007290489 -0.0054564145 0.095858395 -0.98361576 -0.15476623 0.092452191 0
0.068903208 -0.0056896759 0.095421657 0.9970873 -0.033257499 0.06863638 0
0.0056450246 0.0049296315 0.09534844 -0.98804057 -0.14844991 0.041693304 0
0.069180474 0.0051630358 0.09447892 0.99966282 -0.017954031 -0.018759627 0
0.0041628121 0.014997278 0.095288128 -0.9904449 -0.13786165 -0.0036183649 0
0.069336236 0.015255059 0.09470094 0.9949246 -0.0024629224 -0.10059283 0
0.0027549276 0.025027685 0.095361173 -0.99119198 -0.13113704 -0.018481016 0
0.069224931 0.023702536 0.094281942 0.99184531 0.020754632 -0.12574621 0
0.0013527967 0.034858346 0.09552151 -0.9855774 -0.11859819 -0.12071346 0
0.067721806 0.03558673 0.094692662 0.99531943 0.079837702 0.054453645 0
-0.00039854849 0.047116853 0.097784586 -0.98518097 -0.10227353 -0.13768966 0
0.00077357708 0.044096261 0.09392675 -0.96841246 -0.090913899 -0.23218971 0
0.068670675 0.045234758 0.095209733 0.98902649 -0.14362267 -0.034629524 0
-0.0010212584 0.055696473 0.096698076 -0.97602004 -0.09490867 -0.19590108 0
0.00081323634 0.053930283 0.091279924 -0.91055948 -0.049942572 -0.41035017 0
0.069198385 0.055312138 0.094770372 0.96359181 -0.0085640848 -0.26724023 0
-0.0015855487 0.064997345 0.09589649 -0.95199335 -0.07541912 -0.29668248 0
0.00060412794 0.06336391 0.09074159 -0.90105557 -0.044256203 -0.43143961 0
0.069171779 0.065748587 0.094966739 0.95901608 0.018828968 -0.28272551 0
0.070038155 0.063697919 0.099870346 0.99569428 -0.0084513342 -0.092312172 0
-0.0024032311 0.076194733 0.095975317 -0.93022931 -0.061511796 -0.36178702 0
0.00018148194 0.075147651 0.09041553 -0.90105563 -0.044256203 -0.43143967 0
0.06877102 0.075577006 0.094472304 0.92937863 0.043964002 -0.3665005 0
0.070059411 0.07449922 0.099110849 0.99569422 -0.0084513342 -0.092312172 0
-0.0025757153 0.086099148 0.095384009 -0.89196485 -0.024661291 -0.45143169 0
0.00017945876 0.083653554 0.090304539 -0.86823374 0.0033218388 -0.49614429 0
0.067994468 0.085144654 0.094256282 0.87676001 0.069899149 -0.47582129 0
0.070161134 0.085204624 0.099227831 0.99569422 -0.0084513342 -0.09231218 0
-0.0023039661 0.095082827 0.095024288 -0.87253296 0.11194128 -0.47555792 0
0.00024073399 0.09572196 0.09031941 -0.87181664 0.10441293 -0.47857457 0
0.067277409 0.095244668 0.094719619 0.85217333 0.10121547 -0.51337719 0
0.070183083 0.095307276 0.099771246 0.94267815 0.038465708 -0.33147895 0
-0.0011694391 0.10157613 0.096753277 -0.81955194 0.47013399 -0.32758 0
0.0029180825 0.10651509 0.093975551 -0.79965276 0.52359402 -0.29394674 0
0.058527619 0.10874361 0.091406263 0.68559861 0.62031668 -0.38100097 0
0.064997792 0.10410515 0.096087821 0.73101336 0.51674312 -0.44564122 0
0.0076545049 0.11324766 0.095413402 -0.73475081 0.63730073 -0.23235524 0
0.012269113 0.1174172 0.093361728 -0.67976385 0.67432928 -0.28844592 0
0.046862982 0.11866965 0.091303974 0.28256738 0.80384141 -0.52344501 0
0.054927733 0.11455234 0.094648123 0.66759211 0.64092773 -0.37885687 0
0.060433388 0.11127887 0.098963343 0.68559861 0.62031668 -0.38100097 0
-0.023134278 0.12844785 0.091752745 -0.62419879 0.20129828 0.75488728 0
-0.014004393 0.12751123 0.094740562 -0.53734535 -0.33302352 0.77482599 0
-0.0045462884 0.12718184 0.094929196 0.41134542 0.49602041 -0.76469517 0
0.0049120616 0.12637995 0.094763145 -0.11297701 -0.4801901 -0.86985844 0
0.014087314 0.12310143 0.095742017 -0.17202754 0.56432295 -0.80743176 0
0.025895836 0.12316472 0.095604144 -0.043101925 0.83024198 -0.55573422 0
0.034744795 0.12344851 0.095298663 0.0016939647 0.76735473 -0.64122063 0
0.045716688 0.12374203 0.09703242 0.033793103 0.64044231 -0.76726252 0
0.054098967 0.12635031 0.097312652 0.28709781 -0.68823105 -0.66626781 0
0.065246254 0.12838 0.096146435 0.011883507 -0.93648148 -0.35051575 0
0.073770255 0.12879303 0.09602996 0.12034684 -0.98079628 -0.1534768 0
0.083302319 0.12964717 0.093562469 0.25518385 -0.95914894 0.12212542 0
-0.021551002 0.1302471 0.090643793 0.046569515 0.99891496 -0.00045654387 0
-0.018283699 0.1300952 0.091594912 0.046569519 0.99891496 -0.0004565439 0
0.029128928 0.13187359 0.099597856 -0.29080576 0.25621468 -0.9218384 0
0.033092633 0.13271694 0.099394165 0.11928057 0.27988744 -0.95259392 0
0.047682244 0.13029662 0.099617243 -0.51137835 0.23855892 -0.82557976 0
0.055478409 0.13223255 0.096309341 -0.45975053 0.70546573 -0.53939557 0
0.064665474 0.13366248 0.094307996 -0.13229337 0.98908961 0.064808525 0
0.075226769 0.13290526 0.093836136 0.18341257 0.79241019 0.581761 0
0.084174506 0.13249512 0.092522398 0.50400448 0.2015228 0.83986193 0
0.044519633 -0.12110665 0.10467339 -0.18453792 -0.98216099 0.036133803 0
0.039864052 -0.11252443 0.10487979 -0.99720544 -0.065912567 0.035168506 0
0.043489359 -0.11657085 0.1060805 -0.68781734 -0.72561979 0.019578638 0
0.050153952 -0.11468168 0.10475714 0.9999252 -1.744375e-05 0.012229193 0
0.039405257 -0.10523482 0.10466613 -0.99702513 -0.060699254 0.047503158 0
0.049712725 -0.10585799 0.10367239 0.99815106 0.058749489 0.015585328 0
0.038607497 -0.09499082 0.10450602 -0.98587465 -0.095281869 0.13774104 0
0.049045179 -0.09538155 0.10458619 0.99465007 0.049297981 0.090779953 0
0.050674889 -0.091466092 0.10017324 0.44007021 -0.18170053 0.87938792 0
0.029985998 -0.081932597 0.10002393 -0.46788794 -0.27477962 0.83998638 0
0.036546078 -0.084951237 0.10417268 -0.82605487 -0.19053504 0.53040528 0
0.0484749 -0.085406162 0.10569839 0.97561258 0.015292971 0.21896622 0
0.052067209 -0.083236277 0.10119901 0.43726596 -0.19550346 0.87782508 0
0.028084587 -0.074016742 0.10152315 -0.48981565 -0.27065063 0.82875139 0
0.035323974 -0.075201184 0.10532241 -0.60867542 -0.12146211 0.78406709 0
0.046594337 -0.074549131 0.1068636 0.63215971 0.49509698 0.59603113 0
0.054415703 -0.075510964 0.10191786 0.45780373 -0.21885727 0.8616944 0
0.025343984 -0.064751983 0.10266428 -0.57464105 -0.26010111 0.77597368 0
0.035305962 -0.064546771 0.10471128 0.12543732 0.23640537 0.96352375 0
0.04521035 -0.064810939 0.10455751 0.1066716 0.049655844 0.99305362 0
0.054940917 -0.064546116 0.10361922 0.32283473 -0.083623677 0.94275379 0
0.060429979 -0.06308458 0.10039236 0.72764134 -0.16286197 0.66634381 0
0.019558793 -0.052320253 0.10175195 -0.80942446 -0.22914258 0.54067147 0
0.024792647 -0.054875556 0.1053467 -0.52570254 -0.26246902 0.80916435 0
0.034851775 -0.053744275 0.10569184 0.56594855 -0.50773627 0.64954299 0
0.045858741 -0.054454785 0.10500918 -0.48635766 -0.32115912 0.8125965 0
0.054379355 -0.055057168 0.10523909 0.27082816 -0.30794409 0.91204304 0
0.061575919 -0.053456575 0.10149419 0.72764128 -0.162862 0.66634381 0
0.017848641 -0.044555403 0.10229634 -0.82658494 -0.2212806 0.51748645 0
0.024044652 -0.046436343 0.10768496 -0.53928524 -0.25225294 0.803455 0
0.036856011 -0.047421999 0.10770663 0.28924993 -0.61458695 0.73390549 0
0.044634271 -0.047267847 0.1076428 -0.33635956 -0.74477786 0.57634032 0
0.05624608 -0.045276985 0.10786098 0.50583148 -0.21207437 0.83615732 0
0.062889226 -0.045084339 0.10201619 0.78351557 -0.14477852 0.60427034 0
0.016984908 -0.034100708 0.1050937 -0.7988891 -0.22673677 0.55710566 0
0.021009548 -0.037391584 0.10863667 -0.63954955 -0.24984908 0.72701561 0
0.058337435 -0.035348382 0.10905451 0.66485822 -0.17348845 0.72654343 0
0.062913463 -0.034314018 0.10419258 0.7970807 -0.13774517 0.58795291 0
0.014474358 -0.025240943 0.10467774 -0.83596933 -0.21694741 0.50407243 0
0.059336524 -0.029177647 0.10957092 0.69666362 -0.16882159 0.69725108 0
0.063657627 -0.024530895 0.10548774 0.81716001 -0.13304843 0.56084555 0
0.0097366404 -0.012047303 0.10166284 -0.87534225 -0.20500828 0.43788993 0
0.012359694 -0.015997119 0.10505608 -0.87408072 -0.20555508 0.4401477 0
0.065617926 -0.014496625 0.10460268 0.88898206 -0.11132308 0.44420496 0
0.0087745544 -0.0053629619 0.10283905 -0.89580065 -0.19875219 0.39754093 0
0.011233082 -0.0061421767 0.10742075 -0.87532586 -0.20522459 0.43782106 0
0.0662136 -0.0048465231 0.10577377 0.90510368 -0.1051541 0.41198298 0
0.0078405449 0.0049315006 0.10535859 -0.91341847 -0.1875667 0.36122772 0
0.010108619 0.0018755761 0.10893203 -0.87532121 -0.20528944 0.43780023 0
0.067154787 0.0047654752 0.10580669 0.93365246 -0.086406231 0.34760195 0
0.0059810849 0.014319778 0.10528122 -0.93657964 -0.17389148 0.30427009 0
0.068028249 0.015204343 0.1053219 0.95066649 -0.033354316 0.30841666 0
0.0042088293 0.025249247 0.1057106 -0.96321774 -0.16103226 0.21512823 0
0.06789235 0.025359543 0.10504267 0.90356058 0.10258011 0.41599956 0
0.070008375 0.025260342 0.10013245 0.99200785 0.0028132417 -0.12614474 0
0.0021007529 0.034892518 0.10501338 -0.95972151 -0.22666681 0.16600254 0
0.066772506 0.035031091 0.1047479 0.97916013 0.013208566 0.20265971 0
-0.00043328863 0.046862286 0.10365706 -0.98303598 -0.15886067 0.091670893 0
0.00048816091 0.043471295 0.10661697 -0.97731173 -0.17327312 0.12181243 0
0.068517037 0.045119517 0.10423516 0.96863323 -0.24457526 0.043960899 0
-0.0015409994 0.055334818 0.10545558 -0.98733091 -0.1476182 0.058192987 0
0.069771245 0.050766885 0.10657684 0.97797668 -0.20830214 0.013103249 0
0.070331722 0.055866607 0.10540172 0.99856812 -0.051848926 -0.013167638 0
-0.0027066753 0.063989833 0.10442254 -0.99261844 -0.11814565 -0.027388832 0
0.070398964 0.063913226 0.10451233 0.99919128 -0.0013077866 -0.040187445 0
-0.0039600381 0.074844696 0.10486115 -0.99264252 -0.10986751 -0.0508927 0
0.070330158 0.075208567 0.10462589 0.99981022 0.0015345638 -0.019423841 0
-0.0050412063 0.084338866 0.10549435 -0.99245059 -0.10950936 -0.055222798 0
0.069997713 0.087580711 0.10935065 0.99638903 0.015591448 0.083461598 0
0.070314266 0.084820375 0.10381968 0.99999046 0.0042940676 0.00074746518 0
-0.0057634362 0.095309123 0.10454798 -0.99056697 0.10823905 -0.084032789 0
0.069916815 0.095550269 0.10882761 0.99638903 0.015591448 0.08346159 0
0.070300847 0.095095083 0.10381398 0.99932379 0.0090626581 0.035634711 0
-0.0026728653 0.10390021 0.10515676 -0.83605182 0.49748054 -0.23136628 0
0.0010586195 0.1084812 0.1036821 -0.75216919 0.62254357 -0.21605779 0
0.067019731 0.1056627 0.10500021 0.84379196 0.53631169 -0.019617584 0
0.070200682 0.10002689 0.10460243 0.99638903 0.015591448 0.083461598 0
0.0059810993 0.11484088 0.10528604 -0.74494714 0.64117074 -0.1842657 0
0.010782018 0.11947127 0.10260773 -0.71542192 0.65432721 -0.24500486 0
0.056962945 0.11775893 0.1045543 0.60934472 0.75213003 -0.25099671 0
0.062021621 0.11334243 0.10592838 0.766954 0.60079646 -0.22544461 0
-0.0043947608 0.12687168 0.10177112 -0.45295987 -0.1427459 0.88002896 0
0.0052952613 0.12644275 0.10422567 -0.49104792 0.11120811 0.86400503 0
0.013220313 0.12600526 0.10553214 -0.56630641 0.8092255 -0.15636858 0
0.021907561 0.12854639 0.10099497 -0.33149862 0.32468596 -0.88582605 0
0.038403388 0.12954405 0.10024771 0.36981404 0.27047676 -0.88886446 0
0.04619281 0.12775494 0.103477 0.261282 0.6810382 -0.68404585 0
0.054304969 0.12479037 0.10508905 0.8925485 -0.26039261 0.36817482 0
0.065136246 0.12720756 0.1022971 0.40190101 -0.6705243 0.62359667 0
0.071735464 0.12771277 0.10025855 0.47754592 -0.35541251 0.80351222 0
0.017783586 0.13283524 0.10733478 -0.65646392 0.58240366 -0.4794383 0
0.024671104 0.13435753 0.10464685 -0.23255903 0.90020335 -0.36817151 0
0.035338949 0.13442585 0.10488434 0.29103652 0.94103986 -0.17245805 0
0.04485957 0.13154668 0.10532262 0.19569632 0.97987652 -0.039306652 0
0.05398418 0.13154927 0.10336529 0.095619738 0.85451919 0.51054275 0
0.063926943 0.13153727 0.1012575 0.20799007 0.67352211 0.70930111 0
0.070195392 0.13030222 0.10012858 0.26720995 0.48406032 0.83323735 0
0.045941934 -0.12040363 0.11348547 0.14603056 -0.98563504 0.084844671 0
0.039971989 -0.11046334 0.11013928 -0.99722856 -0.055106122 0.049985517 0
0.044050224 -0.11559517 0.11556701 -0.65699822 -0.74175882 0.13471188 0
0.050071973 -0.11604939 0.1153197 0.99869674 0.048902065 0.014607506 0
0.039811965 -0.10384132 0.11446106 -0.99685013 -0.061707642 0.049820375 0
0.046885032 -0.10529377 0.1154524 0.99637687 0.066971377 0.052420322 0
0.039128244 -0.094351552 0.11473586 -0.99607247 -0.078396797 0.041151643 0
0.048789382 -0.094491825 0.11488967 0.99757999 0.067944273 0.014754352 0
0.038372256 -0.085160546 0.11448485 -0.9960041 -0.084915452 0.027660806 0
0.048136592 -0.08521083 0.1148138 0.99736273 0.070306323 0.018016253 0
0.038259339 -0.076884963 0.11604048 -0.94543087 0.28960106 0.14930429 0
0.044793218 -0.075518206 0.1145957 0.53717369 0.81768256 0.20697743 0
0.032958977 -0.050653592 0.11042449 -0.29475135 -0.25101638 0.92201543 0
0.028385464 -0.04361628 0.11073652 -0.33165467 -0.23645864 0.91328663 0
0.035353906 -0.044709858 0.11259154 -0.099556699 -0.44689775 0.88902807 0
0.044832077 -0.044394538 0.11237136 0.11425999 -0.49896461 0.85905707 0
0.052289523 -0.04248118 0.11074185 0.34772077 -0.22198792 0.91093993 0
0.025815712 -0.034325454 0.11217498 -0.36587957 -0.24072964 0.89898908 0
0.034678545 -0.03445413 0.11603066 -0.31902725 -0.52485746 0.78914267 0
0.044000037 -0.034193933 0.11618225 0.31249523 -0.35898179 0.87947649 0
0.053435132 -0.035066228 0.11197891 0.40374094 -0.20424901 0.89178228 0
0.018828088 -0.023465049 0.11147656 -0.66672498 -0.24580421 0.70360357 0
0.024535351 -0.026021123 0.11511047 -0.59795868 -0.37094098 0.71052676 0
0.036856283 -0.02653916 0.11699937 0.72089279 0.069358923 0.68956727 0
0.044400789 -0.026665187 0.11684187 -0.30457997 -0.28859481 0.90771365 0
0.054624718 -0.024892258 0.11400457 0.56656438 -0.24741341 0.78599715 0
0.060916733 -0.020545628 0.11008206 0.69666362 -0.16882159 0.69725108 0
0.017154347 -0.01417342 0.11343151 -0.76344359 -0.21682203 0.60839307 0
0.02298468 -0.01589004 0.11751554 -0.67043215 -0.26069114 0.69466603 0
0.039344944 -0.019925885 0.1196835 -0.4309864 -0.68999022 0.58151895 0
0.05644463 -0.015341681 0.11583906 0.66106904 -0.37957823 0.6472311 0
0.06119227 -0.014159149 0.11135368 0.69953614 -0.16829334 0.69449735 0
0.015663 -0.0051609934 0.1153689 -0.83841181 -0.20587073 0.50466114 0
0.059108566 -0.0092378203 0.11826877 0.9686166 -0.2350435 -0.08084888 0
0.061535027 -0.0044171112 0.11514728 0.93071592 -0.1058803 0.35008183 0
0.009700818 0.0084388303 0.11113449 -0.85441226 -0.19866139 0.48011816 0
0.013156182 0.004782394 0.11512966 -0.8182596 -0.18225965 0.54519045 0
0.062496386 0.0051542213 0.11454915 0.87114149 -0.074746877 0.48530954 0
0.0084982086 0.015966738 0.11197823 -0.83949739 -0.19150139 0.50849909 0
0.012357543 0.014837041 0.11710003 -0.7891382 -0.15889962 0.59330589 0
0.063273333 0.015777668 0.11458911 0.86538976 0.0044537499 0.50107956 0
0.0077002365 0.026025631 0.11503848 -0.81111914 -0.36972538 0.45319855 0
0.011022696 0.023285229 0.11808355 -0.80204713 -0.33712694 0.49301699 0
0.062825933 0.025583467 0.11497986 0.92017365 -0.041264784 0.38932985 0
0.004220976 0.034822214 0.11551447 -0.91255707 -0.33170959 0.23918268 0
0.063852333 0.034960087 0.11533491 0.9388082 -0.2239234 0.26172042 0
-5.538977e-05 0.049606856 0.11088468 -0.9788816 -0.16737948 0.11736704 0
0.0013446048 0.044378154 0.11428495 -0.97807866 -0.18569039 0.094239667 0
0.067423381 0.044513039 0.11523152 0.91039664 -0.37499535 0.17480442 0
-0.00088837335 0.056022659 0.11251649 -0.9702239 -0.17127009 0.17126596 0
0.00094627112 0.053588513 0.11744926 -0.91696846 -0.15761472 0.36650574 0
0.069430634 0.055463199 0.11610112 0.99359936 -0.011533107 0.11237135 0
0.07018622 0.055218522 0.11180363 0.99282122 -0.026239948 0.11669418 0
-0.0018731544 0.06467095 0.11509753 -0.95813519 -0.17477274 0.22678523 0
0.00041047516 0.060940456 0.11996302 -0.82526731 -0.24474682 0.50895274 0
0.069246106 0.065446772 0.11595854 0.97455561 -0.04326161 0.21993119 0
0.070165299 0.065702572 0.11143694 0.99638903 0.015591448 0.083461598 0
-0.0037351102 0.074910305 0.11478678 -0.96986574 -0.16552305 0.17878121 0
0.069569975 0.075337112 0.11563518 0.99220616 -0.0049929419 0.12450652 0
0.070089161 0.072731122 0.11103284 0.99638903 0.015591448 0.083461598 0
-0.0052695465 0.084890917 0.11525752 -0.98233712 -0.14819384 0.11424671 0
0.069541566 0.085502528 0.11518452 0.99638897 0.015591449 0.083461598 0
0.070025519 0.08209075 0.11004417 0.99638903 0.015591448 0.083461598 0
-0.005782885 0.095281169 0.114879 -0.98474324 0.14493074 0.096311711 0
0.069289073 0.095121391 0.11544998 0.99002832 0.098866522 0.100346 0
-0.0027864438 0.10383914 0.11484242 -0.86665797 0.45388755 0.20709915 0
0.0009105691 0.10819493 0.1182618 -0.79702818 0.5546726 0.23892339 0
0.066063769 0.10467904 0.1153248 0.86563599 0.46811301 0.17760776 0
0.0061924844 0.11506415 0.115206 -0.65915626 0.72877318 0.18547936 0
0.011512079 0.11831342 0.11692025 -0.50163484 0.75673383 0.41918546 0
0.056234747 0.11788011 0.11514451 0.60257077 0.75695992 0.25282434 0
0.061655715 0.11297655 0.11420997 0.83094829 0.50574601 0.2318316 0
0.0098709622 0.12004988 0.11107711 -0.73582834 0.66573256 0.12392294 0
0.012773888 0.12447711 0.11486059 -0.98192316 0.1426404 0.12442084 0
0.047593955 0.12567379 0.11544536 0.80070126 0.53359109 0.27231976 0
0.052137911 0.12077225 0.11350416 0.50736856 0.83307093 0.22038601 0
0.015991125 0.13283534 0.11472917 -0.60472828 0.7963236 -0.013133141 0
0.025421266 0.13326663 0.11580066 -0.010377405 0.98782879 0.15519851 0
0.034881338 0.13387413 0.11505641 0.037710171 0.99682587 0.070115253 0
0.042510077 0.13173521 0.11485989 0.56664783 0.80765605 0.16310082 0
0.048295733 -0.12003792 0.12272679 -0.27694538 -0.95098728 0.13756612 0
0.045391247 -0.11559053 0.12484995 -0.1229981 -0.96917737 0.21346354 0
0.050039176 -0.11786973 0.12365583 0.99869674 0.048902061 0.014607503 0
0.039959185 -0.10068373 0.12394556 -0.99589026 -0.088074505 0.021106565 0
0.04568138 -0.10500679 0.12493753 0.99293327 0.079411291 0.088189572 0
0.039526552 -0.095582634 0.12481852 -0.99589026 -0.088074461 0.021106552 0
0.048722576 -0.095828228 0.12554169 0.99755991 0.068215482 0.014860516 0
0.038675949 -0.084606946 0.12537853 -0.99816638 -0.016135935 0.058339775 0
0.04797272 -0.085673399 0.12537052 0.99682027 0.077071421 0.020229189 0
0.039079938 -0.078043498 0.12447438 -0.92510617 0.32615605 0.19442457 0
0.045394041 -0.078005329 0.12498765 0.58667684 0.7833885 0.20521399 0
0.037440661 -0.031344045 0.12123647 0.074132279 0.11999464 0.99000293 0
0.042509772 -0.032281116 0.12152679 -0.12530968 -0.012254038 0.99204195 0
0.028792562 -0.022950199 0.12148259 -0.70312566 -0.19404118 0.68407774 0
0.033677239 -0.025725018 0.12169575 0.47048846 -0.29968604 0.82995713 0
0.046425991 -0.024629449 0.12145346 0.075363956 -0.13250828 0.9883126 0
0.050379585 -0.020256246 0.12048128 0.74028188 -0.26816979 0.61649626 0
-0.070110396 -0.010699725 0.12590507 -0.68049353 -0.70159465 -0.21140854 0
-0.065132298 -0.011855093 0.12516917 -0.20095001 -0.95154965 -0.23274945 0
-0.054362547 -0.012205325 0.12443343 -0.013419976 -0.84859681 -0.52886987 0
-0.045097537 -0.012387447 0.12531962 0.040543009 -0.89965791 -0.43470904 0
-0.035497505 -0.011899337 0.12506755 0.041183304 -0.92094386 -0.38751307 0
-0.024598712 -0.011765753 0.12601347 0.041346062 -0.94331771 -0.32930559 0
-0.01474712 -0.011337762 0.12604405 0.048445769 -0.93884408 -0.34091747 0
-0.0051612044 -0.011364394 0.12771438 0.076314896 -0.92221415 -0.3790741 0
0.0036655688 -0.010623264 0.12808369 0.10457216 -0.91718519 -0.38449448 0
0.017082842 -0.010790301 0.12537299 -0.62760329 -0.77805322 -0.027336976 0
0.024789069 -0.012910449 0.12362521 -0.25889322 -0.78241563 0.56639212 0
0.035427611 -0.01489816 0.12397471 0.08887542 -0.3049719 0.94820529 0
0.045574553 -0.015277635 0.12333172 0.20149267 -0.27364457 0.94048893 0
0.053500921 -0.01211419 0.12200706 0.42009071 -0.75660986 0.50106418 0
-0.074545667 -0.0048781661 0.12594299 -0.68132693 -0.48363811 -0.54944313 0
-0.06482777 -0.005218978 0.12279569 -0.010994103 0.20532167 -0.97863281 0
-0.055012144 -0.0049379659 0.12274434 -0.010994093 0.20532154 -0.97863281 0
-0.044937987 -0.0050079133 0.12261642 -0.011018569 0.2052471 -0.97864813 0
-0.034607477 -0.0052485694 0.12244941 -0.011081638 0.20505491 -0.97868776 0
-0.024707066 -0.0048914426 0.12241156 -0.011168137 0.20479144 -0.97874194 0
-0.015631044 -0.0057898592 0.12217493 -0.0056915022 0.10264929 -0.99470127 0
-0.0053707822 -0.0058410433 0.12249079 0.022459384 -0.20867267 -0.97772765 0
0.0053333705 -0.0060385833 0.12299128 0.040556073 -0.37731951 -0.92519468 0
0.015375745 -0.0060311235 0.12352637 -0.28701445 -0.39427635 -0.87302285 0
0.026276657 -0.0056365235 0.12825492 0.28663632 -0.30381861 0.90858895 0
0.035186518 -0.0049168547 0.12685236 0.023845002 -0.25582179 0.96642983 0
0.04470849 -0.0043971678 0.12681836 0.017807007 -0.26332816 0.96454197 0
