# .PCD v0.7 - Point Cloud Data file format
VERSION 0.7
FIELDS x y z normal_x normal_y normal_z curvature
SIZE 4 4 4 4 4 4 4
TYPE F F F F F F F
COUNT 1 1 1 1 1 1 1
WIDTH 111
HEIGHT 1
VIEWPOINT 0 0 0 1 0 0 0
POINTS 111
DATA ascii
0.0090922592 -0.081961222 -2.5928141e-05 -0.05567003 0.0017749576 -0.9984476 0
0.013309391 -0.081321567 -0.00015425486 -0.00047417785 -0.080046646 -0.99679101 0
0.016303103 -0.075901166 -0.00014405994 -0.0003245096 0.023647623 -0.99972034 0
0.020269709 -0.0707132 -4.4339693e-05 0.10742738 -0.032415394 -0.99368435 0
0.049741667 -0.070192948 -0.00018411955 -0.21759968 -0.54708791 -0.80829775 0
0.052883878 -0.070573084 -0.000172853 0.0065432517 -0.46725813 -0.88409674 0
0.019512679 -0.069404557 -4.807517e-05 -0.050932586 0.082577117 -0.99528235 0
0.020667892 -0.069367811 -4.799624e-05 0.067325749 0.016105229 -0.99760109 0
0.037652873 -0.060117863 -5.2612511e-05 0.24310617 -0.29489562 -0.92408657 0
0.046570607 -0.064268589 -0.0016167569 -0.33115393 -0.22543323 -0.91625154 0
0.052518554 -0.065349974 -0.0013267598 0.38201353 -0.069056951 -0.92157304 0
0.036971688 -0.05484391 -0.00038259476 -0.065538295 -0.0092093349 -0.99780756 0
0.045107163 -0.05537083 -0.0010305308 -0.066334933 0.16901921 -0.98337799 0
0.051245883 -0.057738177 -0.00098551309 0.53649467 0.3352882 -0.77443868 0
0.035494294 -0.049496267 -0.00012533279 -0.021911358 0.21626301 -0.97608924 0
-0.061225232 0.059406862 -7.3110248e-05 -0.13848245 -0.20089634 -0.9697749 0
-0.062841058 0.064625524 -0.00016863277 -0.0135758 -0.017025091 -0.99976289 0
-0.061024778 0.07170108 -0.00011600402 0.015623822 -0.010189311 -0.99982595 0
-0.058532435 0.074614458 -6.1040257e-05 0.084824793 -0.028679501 -0.99598306 0
0.019560769 -0.10009593 0.0068243295 -0.29861379 -0.95423561 -0.016254447 0
0.025450412 -0.10109006 0.0057369107 -0.16010751 -0.98709929 0.0008295849 0
0.033336092 -0.10100745 0.0062209223 0.23282976 -0.97241712 -0.013977095 0
0.0082314247 -0.092435688 0.0048804516 -0.80804312 -0.58761084 -0.042187858 0
0.015176171 -0.0951012 0.005569872 -0.28736633 -0.95609647 0.057447087 0
0.024879837 -0.095084153 0.0058181458 0.40297616 -0.88603944 0.22922547 0
0.03468186 -0.095323548 0.006039815 0.93747294 0.34787658 0.011240725 0
0.040536419 -0.097686559 0.006398275 0.95769703 -0.10335708 0.2685771 0
0.0060643987 -0.084718876 0.0047766557 -0.97620338 -0.16603586 -0.13949573 0
0.01578206 -0.086055636 0.0037016706 0.21938451 -0.21490964 -0.9516744 0
0.024472682 -0.085108534 0.0053618145 0.98100418 0.18966265 -0.040729582 0
0.031064367 -0.08945062 0.0054605203 0.47602931 0.87754315 -0.057568002 0
0.0061878567 -0.075096428 0.0047595366 -0.98278618 0.16706313 -0.078875236 0
0.013380636 -0.07388705 0.005399629 -0.64297909 0.55483282 0.52795684 0
0.025352661 -0.075184152 0.0048781186 0.81888252 -0.44143605 -0.36683193 0
0.031049799 -0.071132988 0.0046494785 0.73911476 -0.65257806 -0.16688709 0
0.048961785 -0.070838876 0.0029781987 -0.6368221 -0.76948142 0.04853908 0
0.054575093 -0.072953425 0.0036582041 0.22181036 -0.97360718 0.053750295 0
0.0065325117 -0.065063991 0.0048425877 -0.98932427 0.14169936 0.03404282 0
0.014975447 -0.064859495 0.0047624419 -0.3106617 0.94265401 -0.12203578 0
0.024942456 -0.064536057 0.0050263498 -0.21788645 0.97426701 0.057700336 0
0.034632847 -0.064431354 0.0047606784 0.74625033 -0.66545498 -0.016735582 0
0.044900347 -0.064884439 0.0044219163 -0.6193912 -0.52548432 0.5832845 0
0.054564849 -0.065125182 0.0046870564 0.7845332 0.14034902 0.60399485 0
0.006625053 -0.054963104 0.0044020251 -0.98087597 0.097577676 -0.16840698 0
0.014796356 -0.05596941 0.0045812326 0.036382739 0.9991501 -0.01937525 0
0.025078923 -0.054956734 0.0047630351 -0.79130191 -0.59850478 -0.12503313 0
0.034162257 -0.055186991 0.0065979254 -0.48013985 -0.097306333 0.87177819 0
0.044845749 -0.054880101 0.0061351848 0.40306941 -0.056192853 0.91344267 0
0.052391037 -0.05634604 0.0037406983 0.86150998 0.4803603 0.16448247 0
-0.00016566935 -0.040147673 0.0041878689 -0.88039744 -0.46194795 0.10725889 0
0.0053993026 -0.044722058 0.0041380743 -0.94885683 -0.30392206 -0.085452825 0
0.014677086 -0.044702969 0.0042848946 0.60919487 -0.76473337 0.20991543 0
0.025150951 -0.044949088 0.0048159095 -0.70785171 0.70531142 0.038494274 0
0.035037212 -0.045884296 0.0050347862 0.13742644 0.9866854 0.086983003 0
0.043601874 -0.046006281 0.0045961011 0.62655073 0.77779758 0.049650319 0
-0.0021186629 -0.033850145 0.0036704883 -0.92796129 -0.37264931 -0.0044980021 0
0.0048789494 -0.0349911 0.0039131166 -0.41023189 0.91073376 -0.047683783 0
0.014467801 -0.035707805 0.0041795014 0.63344747 0.77179313 -0.055493798 0
0.02245163 -0.038783148 0.0047136927 0.34704852 0.93780911 -0.0084514339 0
0.043719534 -0.039414499 0.0045562722 -0.035006549 0.99934882 0.0087490221 0
-0.010833457 -0.021163899 0.0035540664 -0.83643872 -0.54627013 0.044263471 0
-0.0046508163 -0.024725737 0.003651927 -0.54391426 -0.56816846 0.61752886 0
0.0050523346 -0.025071621 0.0039628567 -0.5064171 0.80924934 0.29775351 0
0.011443418 -0.027697729 0.0041123172 0.8183971 0.57047653 -0.069156617 0
-0.013403073 -0.014018629 0.003121245 -0.82063073 -0.56510508 0.08497937 0
-0.0050152815 -0.014905654 0.0035303754 -0.72840464 -0.20390436 0.65410227 0
0.0028915643 -0.015816828 0.0038063922 0.88420111 0.46687585 0.014676118 0
-0.021829467 -0.0029233445 0.0029663851 -0.83918959 -0.53195655 -0.11306241 0
-0.015139828 -0.0048315446 0.0030408071 0.78196782 0.31601042 -0.53727436 0
-0.0054521426 -0.0053799241 0.0033417323 0.81857812 0.56302077 -0.11374336 0
0.00056189043 -0.0090013985 0.0035392626 0.85649455 0.51597029 -0.01384617 0
-0.030423583 0.0091837877 0.0027104702 -0.82945365 -0.55702478 -0.041594811 0
-0.024487911 0.0053567877 0.0028371161 -0.69706994 -0.4648349 -0.54591405 0
-0.014941074 0.0049495781 0.00299523 -0.91432536 -0.40272349 0.042697076 0
-0.0080628712 0.0037726478 0.0033787407 0.89083153 0.45141393 0.051426169 0
-0.032818023 0.015978182 0.002635303 -0.848028 -0.52420759 -0.077814408 0
-0.025064856 0.014957688 0.0027153804 0.52357596 0.80952322 -0.26559424 0
-0.01564474 0.01442405 0.0031163609 0.84684259 0.5286836 -0.057889696 0
-0.0097857416 0.010504687 0.0032885964 0.89767349 0.43977362 0.027953334 0
-0.04147682 0.02772495 0.0023883944 -0.83355719 -0.52385992 -0.17536579 0
-0.035040259 0.024966128 0.0023656834 0.19734192 0.91397828 0.35454187 0
-0.024944434 0.025085215 0.0026545529 -0.86770707 -0.48825324 0.093237221 0
-0.018314125 0.023092708 0.0029859671 0.87875909 0.47060326 -0.079467997 0
-0.050212801 0.039835744 0.001996462 -0.79784352 -0.58211035 0.15682264 0
-0.044276066 0.035727412 0.0022276989 -0.51652855 -0.52999985 -0.67253137 0
-0.035044275 0.035018906 0.0023243953 0.1211513 0.99245632 0.018782284 0
-0.026255962 0.034495663 0.0026774523 0.74497807 0.62713462 0.22739781 0
-0.052544873 0.046070985 0.0018403701 -0.770217 -0.63681954 -0.035024695 0
-0.045116846 0.044884399 0.0019590184 0.62441635 0.75893945 -0.18470277 0
-0.034858115 0.044821441 0.0021901811 -0.77260894 -0.40197554 -0.49141735 0
-0.028535698 0.042497478 0.0026828914 0.88230288 0.45884052 0.10491401 0
-0.061243698 0.057708669 0.0016612587 -0.91103792 -0.40491548 0.077803954 0
-0.055005804 0.054874498 0.0016972617 0.30965614 0.94809979 0.0722491 0
-0.04556518 0.054863084 0.0016304486 0.10038067 -0.89318991 0.43833265 0
-0.036753152 0.054157607 0.0020869938 0.6682933 0.74375874 0.01439176 0
-0.063159436 0.065151423 0.0012395467 -0.10818609 -0.028670935 0.99371713 0
-0.059849955 0.060238808 0.0012781511 0.81805778 0.55861998 0.13684024 0
-0.043923035 0.064495623 0.0019184892 -0.38044396 0.73161662 0.56568497 0
-0.03937364 0.06152476 0.00173901 0.92026848 0.38467801 -0.07161507 0
-0.061808601 0.072441973 0.001403357 -0.7357797 0.50894535 0.44676933 0
-0.055070292 0.075204842 0.0013659649 0.507438 0.17574164 0.84357661 0
-0.0470527 0.072621405 0.00169255 0.71156031 0.68186539 0.16953291 0
0.0094301812 -0.090747654 0.010083877 -0.050043438 -0.11761477 0.99179757 0
0.01101807 -0.091108762 0.010023412 0.041798856 -0.019548457 0.99893481 0
0.0090316767 -0.085723341 0.010173955 -0.14350761 0.007121807 0.98962361 0
0.013359452 -0.083650671 0.010154421 0.055547889 -0.012899861 0.99837267 0
0.017055605 -0.076180242 0.01007666 -0.0070855846 0.0088688461 0.99993563 0
0.02607692 -0.072827354 0.010135873 -0.039263602 -0.010175918 0.9991771 0
0.03083864 -0.070942335 0.010405372 0.22973184 -0.2087817 0.95059639 0
0.029477131 -0.069529086 0.0101656 -0.18289733 0.19996476 0.96258128 0
0.031147804 -0.068726055 0.010287337 0.001396517 0.21162862 0.97734916 0
