# .PCD v0.7 - Point Cloud Data file format
VERSION 0.7
FIELDS x y z normal_x normal_y normal_z curvature
SIZE 4 4 4 4 4 4 4
TYPE F F F F F F F
COUNT 1 1 1 1 1 1 1
WIDTH 50
HEIGHT 1
VIEWPOINT 0 0 0 1 0 0 0
POINTS 50
DATA ascii
-0.021110281 -0.02091259 -6.7517482e-05 -0.024203975 -0.027849795 -0.99931914 0
-0.016334999 -0.022122547 -8.7727778e-05 0.0084943846 -0.020044234 -0.99976295 0
-0.031843774 -0.012334546 -8.082149e-05 -0.03018602 -0.021308972 -0.99931711 0
-0.024594847 -0.014508026 -0.00010015078 -0.0025252562 -0.013491032 -0.99990577 0
-0.01506952 -0.01495902 -8.093506e-05 0.0016602218 -0.005103989 -0.99998558 0
-0.0084433733 -0.012452355 -7.8519115e-05 0.028295564 -0.021058312 -0.99937779 0
-0.031437207 -0.0078387642 -0.00011073815 -0.067864992 0.037212461 -0.99700034 0
-0.024835939 -0.0051762233 -0.00014401502 -0.0070403479 -9.2970899e-05 -0.9999752 0
-0.015022798 -0.0050410982 -0.00012484124 0.0043287273 -0.0016285648 -0.99998927 0
-0.0072065429 -0.0058741444 -9.5011208e-05 0.020934062 0.0083254818 -0.99974626 0
-0.022861104 0.0030029414 -0.00015589669 -0.021542247 0.025127042 -0.99945211 0
-0.01658389 0.0021561591 -0.00013551131 0.032836553 0.042347055 -0.99856323 0
-0.0099660233 6.4310101e-05 -7.1499794e-06 0.28414485 0.33885685 -0.89690453 0
-0.022488689 -0.021567659 0.0048701828 -0.54371947 -0.83791244 -0.047665231 0
-0.014953031 -0.023757925 0.0049372646 0.37223944 -0.92575783 -0.066410325 0
-0.033796877 -0.013700077 0.0047829337 -0.80641878 -0.58143562 -0.10780255 0
-0.027459364 -0.018338991 0.0048491997 -0.54376644 -0.83703721 -0.060719434 0
-0.010536746 -0.019106129 0.0046574045 0.83989257 -0.53986549 -0.055909183 0
-0.007333972 -0.014166575 0.0048827492 0.83652163 -0.54438633 -0.062250782 0
-0.032408938 -0.0063932855 0.0049028066 -0.83709359 0.54506785 -0.046641529 0
-0.029137511 -0.0013685556 0.0050005368 -0.83746976 0.5445686 -0.045710281 0
-0.0044146082 -0.0044590388 0.0048746048 0.90458345 0.41248399 -0.1076374 0
-0.024509218 0.005117442 0.0049434123 -0.65395761 0.75442004 -0.05647907 0
-0.015066211 0.0038864217 0.0049251174 0.54688889 0.83520091 -0.057896603 0
-0.0095482832 0.00029212551 0.0048980322 0.54693532 0.83666837 -0.029117901 0
-0.022482393 -0.021541955 0.015004179 -0.53602618 -0.84419537 -0.0031622336 0
-0.014878245 -0.023789283 0.014915056 0.33677325 -0.94154495 -0.0087694256 0
-0.03378693 -0.013686856 0.015065359 -0.82528615 -0.56462979 0.0097946487 0
-0.027462356 -0.01835284 0.01506018 -0.54532415 -0.8382225 0.0021223824 0
-0.010426836 -0.019283371 0.014652467 0.84416312 -0.53591096 -0.013714968 0
-0.0072313882 -0.014303768 0.015022826 0.84012359 -0.54230422 -0.0099326251 0
-0.032361183 -0.0064753271 0.01488798 -0.83483291 0.55040783 0.010264228 0
-0.029089075 -0.0014606426 0.015049313 -0.83940119 0.54332185 0.014390958 0
-0.0044020498 -0.0043387036 0.015038626 0.89192688 0.45212072 -0.0073004928 0
-0.024470026 0.0051095281 0.015065352 -0.6649043 0.74687636 0.0088378377 0
-0.015062628 0.0039385059 0.015034697 0.54832977 0.83625978 -0.0020006774 0
-0.0095197735 0.00030726896 0.014956197 0.54877156 0.83597231 -0.00033567337 0
-0.022289919 -0.021484436 0.023015741 -0.52803206 -0.81567508 0.23633935 0
-0.015299283 -0.023339851 0.023564734 0.24697213 -0.75874728 0.60274982 0
-0.033224933 -0.013376367 0.023522606 -0.67938125 -0.51604968 0.5216645 0
-0.025481448 -0.015604532 0.024624335 -0.19559094 -0.30121699 0.93328053 0
-0.014665504 -0.015270242 0.025189491 0.065544888 -0.036192179 0.99719304 0
-0.0074728085 -0.013908528 0.023353999 0.77783823 -0.50100815 0.37941867 0
-0.032120373 -0.0068671042 0.023296928 -0.78173703 0.52358496 0.33874184 0
-0.0255045 -0.004552416 0.024927765 -0.16288923 0.11499576 0.97991991 0
-0.015079129 -0.0049544428 0.02532831 0.0058185952 0.0085198805 0.99994677 0
-0.0053646653 -0.005001097 0.023684101 0.62361771 0.31701067 0.71456647 0
-0.023811143 0.0043095089 0.023614343 -0.52880269 0.5872491 0.61278552 0
-0.015606201 0.0033568963 0.023537077 0.46744493 0.71099323 0.52534169 0
-0.0095119402 0.00031393504 0.022372775 0.55244511 0.83320355 0.024004929 0
