# .PCD v0.7 - Point Cloud Data file format
VERSION 0.7
FIELDS x y z normal_x normal_y normal_z curvature
SIZE 4 4 4 4 4 4 4
TYPE F F F F F F F
COUNT 1 1 1 1 1 1 1
WIDTH 462
HEIGHT 1
VIEWPOINT 0 0 0 1 0 0 0
POINTS 462
DATA ascii
-0.04096612 0.019116331 -0.00015693092 -0.22601566 -0.17997248 -0.95735407 0
-0.036782604 0.01794252 -0.00019556675 0.02095094 -0.057832669 -0.99810642 0
-0.042210851 0.022051506 -9.3349023e-05 -0.034523245 0.037169438 -0.99871248 0
-0.037331033 0.021499516 -0.00014614122 0.036107115 0.084540702 -0.99576563 0
-0.072990522 0.053683784 -4.0974024e-05 -0.0090724276 -0.0038030392 -0.9999516 0
-0.081182197 -0.080785573 0.0083490266 -0.5216915 -0.7956937 -0.30774903 0
-0.07633242 -0.081755362 0.0076610129 0.022262046 -0.80561453 -0.59202164 0
-0.091599345 -0.071402356 0.0064334697 -0.65449184 -0.72794247 -0.20430414 0
-0.0849379 -0.074971877 0.0043955343 -0.39420536 -0.64200467 -0.65759569 0
-0.074523643 -0.07549601 0.0053940509 0.41485694 -0.31691164 -0.85291308 0
-0.067496061 -0.073088765 0.0079110526 0.53772068 -0.41296202 -0.73506379 0
-0.10186322 -0.061913852 0.0067282617 -0.68664211 -0.67868853 -0.26058522 0
-0.095314547 -0.065312237 0.0034988308 -0.5160619 -0.54402745 -0.6615997 0
-0.084808469 -0.064654738 0.0019697442 0.18757993 0.066747978 -0.9799788 0
-0.074673176 -0.064974822 0.0036733709 0.16160201 -0.032743637 -0.98631257 0
-0.065030567 -0.065076232 0.0063873506 0.39701551 -0.2482793 -0.88359267 0
-0.058318242 -0.061948448 0.0086802077 0.58020645 -0.38636652 -0.71699464 0
-0.10372495 -0.055360418 0.0058947816 -0.73759001 0.12011888 -0.66447902 0
-0.0955524 -0.054869238 0.0022916987 -0.12081871 0.299586 -0.94638848 0
-0.084951997 -0.054968104 0.0024560406 0.081601717 0.073763661 -0.99393159 0
-0.074972786 -0.0549771 0.0034438239 0.12593521 0.023564404 -0.99175858 0
-0.064880118 -0.055142473 0.0050655762 0.19839591 -0.035306562 -0.97948587 0
-0.055802424 -0.054382689 0.0077174385 0.43130791 -0.20494205 -0.87861955 0
-0.04985242 -0.050245862 0.0097623011 0.57498777 -0.32004404 -0.75296807 0
-0.10158715 -0.04807952 0.0080775013 -0.60344565 0.60375738 -0.52089387 0
-0.094906285 -0.045254316 0.0058643832 -0.38921311 0.45389462 -0.80155659 0
-0.085238725 -0.044809569 0.003826865 -0.043354854 0.18700957 -0.98140091 0
-0.075041957 -0.045164455 0.0040337546 0.06637574 0.09315335 -0.99343681 0
-0.064915627 -0.045229688 0.0051432974 0.14807978 0.029675402 -0.9885301 0
-0.054943334 -0.045147356 0.0071512377 0.26982838 -0.027160341 -0.96252537 0
-0.048504483 -0.043751009 0.0092284931 0.42422274 -0.11066777 -0.89877015 0
-0.091723323 -0.038645979 0.008318712 -0.5172835 0.59286743 -0.61719203 0
-0.084462963 -0.035152365 0.0068508601 -0.32469922 0.46601185 -0.82304513 0
-0.075243622 -0.035040617 0.0055068745 -0.019573167 0.21061973 -0.97737211 0
-0.064877599 -0.03484939 0.0057783928 0.078837924 0.13152474 -0.98817295 0
-0.054859351 -0.034824632 0.007448379 0.20872436 0.079479992 -0.97473943 0
-0.047349378 -0.035028726 0.00921374 0.28313285 0.0091418847 -0.95903713 0
-0.081335738 -0.028938796 0.0091830716 -0.45394671 0.58704197 -0.67030895 0
-0.074678816 -0.026351921 0.0080773169 -0.26633859 0.43628117 -0.85948968 0
-0.064911284 -0.024989795 0.0077156331 0.020369658 0.22217853 -0.9747932 0
-0.05462883 -0.025102673 0.0085094823 0.15063553 0.13023391 -0.97997344 0
-0.047978055 -0.026073588 0.0096508004 0.18927723 0.074289612 -0.97910935 0
-0.063971207 -0.017997885 0.0093683638 -0.052757502 0.28582063 -0.95682973 0
-0.055668995 -0.018024389 0.0095972894 0.049495887 0.20766649 -0.97694665 0
-0.049576469 -0.019285869 0.0099175004 0.18691468 0.10158179 -0.97711009 0
-0.041813567 -0.0010390052 0.009491886 -0.27469864 -0.48303208 -0.83139682 0
-0.034848802 -0.0024567605 0.0083321407 -0.1773819 -0.53405929 -0.82662952 0
-0.025044836 -0.0028884236 0.007651906 -6.4275599e-05 -0.59394407 -0.80450636 0
-0.015569539 -0.0021176839 0.0082434304 0.18776123 -0.62392002 -0.75859714 0
-0.0081513282 -0.0007746655 0.0092062932 0.2462167 -0.67001539 -0.70032609 0
-0.050972451 0.0081935599 0.009166671 -0.62196261 -0.422988 -0.65897173 0
-0.044871237 0.0055185091 0.0067908219 -0.36122295 -0.456433 -0.81313401 0
-0.035038553 0.0050878138 0.0039965115 -0.2010285 -0.44074672 -0.87483132 0
-0.024899293 0.0046946858 0.0030104329 0.0025156632 -0.39710701 -0.9177689 0
-0.015176043 0.004640501 0.0041908938 0.2081925 -0.39345133 -0.89546192 0
-0.0052056308 0.0051919399 0.0074085593 0.44389942 -0.31455091 -0.83905369 0
5.6866353e-05 0.0095614251 0.0099555869 0.63370514 -0.08250808 -0.76916212 0
-0.060401618 0.019505484 0.0093663512 -0.53299046 -0.49414805 -0.68683249 0
-0.053748313 0.015901886 0.0066386499 -0.543531 -0.43948737 -0.71513981 0
-0.045253661 0.015105129 0.0025281496 -0.31574687 -0.31260398 -0.89586973 0
-0.034070577 0.014112674 0.00064749306 -0.056943525 -0.2165004 -0.9746204 0
-0.024997115 0.014689391 0.00088707329 0.11678062 -0.041991431 -0.99226958 0
-0.01492968 0.015298687 0.002719779 0.25696811 0.085157141 -0.96266073 0
-0.0050101075 0.014940476 0.0068830675 0.51086259 0.23802629 -0.82605261 0
0.00013280821 0.013649702 0.0098163607 0.57936972 0.25008959 -0.77574855 0
-0.063798651 0.02633206 0.0072994735 -0.53877175 -0.4805232 -0.69196993 0
-0.055235628 0.024847955 0.0031158291 -0.37309042 -0.32368031 -0.86950248 0
-0.045536395 0.025372332 0.0004993999 -0.10533097 -0.040832609 -0.99359852 0
-0.034410767 0.025447795 0.00053859886 0.079271503 0.11975834 -0.98963332 0
-0.024998959 0.02520426 0.0017610972 0.22235054 0.20125511 -0.95396888 0
-0.014777697 0.024861882 0.005504935 0.42057505 0.35830468 -0.83350724 0
-0.0076859733 0.023496302 0.0086161876 0.4488484 0.35994712 -0.81790781 0
-0.073111422 0.036425568 0.0072152168 -0.54410434 -0.5047068 -0.67023993 0
-0.065090299 0.034742832 0.0034611491 -0.37389785 -0.37763444 -0.84710842 0
-0.054786894 0.034946449 0.0010653711 -0.049300436 -0.0022867804 -0.99878138 0
-0.045042899 0.035088852 0.0012548649 0.05185502 0.12678625 -0.9905737 0
-0.035080731 0.034845635 0.0018343074 0.09685722 0.1617551 -0.98206615 0
-0.02499493 0.035088509 0.0044871727 0.39096171 0.29915777 -0.87043297 0
-0.016819483 0.034177065 0.008338918 0.47271702 0.38653913 -0.79191297 0
-0.082290478 0.046564065 0.0076698535 -0.63869983 -0.4244076 -0.64182609 0
-0.075537838 0.045360789 0.0037117545 -0.41771135 -0.3649931 -0.83204401 0
-0.064965799 0.044847641 0.00082360517 0.0087364698 -0.066547625 -0.99774504 0
-0.054899208 0.045049049 0.0016749713 0.095047623 0.059480112 -0.99369419 0
-0.045138609 0.044917613 0.0024640027 0.072871171 0.11132918 -0.9911083 0
-0.03485579 0.045393813 0.0039762063 0.27938166 0.25543973 -0.92557907 0
-0.02583446 0.043593831 0.0075498037 0.49082959 0.40968475 -0.76892436 0
-0.019715834 0.040684789 0.009949578 0.50480133 0.43473879 -0.74577338 0
-0.082303628 0.054658711 0.0068896003 -0.79992664 0.18477994 -0.57094103 0
-0.075937957 0.054998204 0.0017976122 -0.41161999 0.10857156 -0.90486538 0
-0.064936206 0.055393718 0.00079740991 0.1198946 0.039795641 -0.99198872 0
-0.054885451 0.054707386 0.0021259389 0.13401349 0.050949086 -0.98966891 0
-0.044795349 0.055071175 0.0037520321 0.2244039 0.17755707 -0.95818388 0
-0.03565985 0.054166075 0.0071250135 0.49690458 0.44642439 -0.74417138 0
-0.02929423 0.050748069 0.0093626166 0.56845188 0.51007235 -0.64551431 0
-0.082055487 0.064726144 0.008188582 -0.66381061 0.12967773 -0.73657256 0
-0.075042076 0.064953968 0.0048484667 -0.36288041 0.28913659 -0.88584298 0
-0.065410085 0.065441772 0.0020804422 -0.070612654 0.26172376 -0.96255624 0
-0.054789096 0.065029524 0.0031459695 0.24010138 0.17290011 -0.955226 0
-0.045832213 0.064627953 0.0067271655 0.49059826 0.45786318 -0.74140042 0
-0.039069723 0.06094224 0.0091579072 0.56541139 0.53301179 -0.6294508 0
-0.080329143 0.070064008 0.0093188295 -0.71333027 0.67150664 -0.20059629 0
-0.074541308 0.073115379 0.0074910661 -0.24250469 0.604985 -0.75840926 0
-0.064731382 0.073789842 0.0061269994 -0.31095341 0.66107947 -0.68284851 0
-0.055933248 0.073676847 0.0066080252 0.45864928 0.62592471 -0.63076067 0
-0.048795432 0.070857376 0.0089531755 0.58682936 0.58709615 -0.55762827 0
-0.082186855 -0.081822798 0.015737727 -0.65939838 -0.73676592 -0.14956532 0
-0.074718587 -0.0839663 0.014777245 0.24076709 -0.93526769 -0.259433 0
-0.06927409 -0.08077538 0.016358707 0.72966641 -0.68032295 -0.068903275 0
-0.092492893 -0.072382741 0.015263416 -0.66646796 -0.73294002 -0.13645247 0
-0.087308541 -0.076993518 0.014716014 -0.66565537 -0.73335463 -0.13818085 0
-0.07229507 -0.078586012 0.010397974 0.14527708 -0.17768933 -0.97330421 0
-0.064658262 -0.075181782 0.014924956 0.74483323 -0.63865471 -0.19324498 0
-0.059794895 -0.070253395 0.017005986 0.75553417 -0.64844942 -0.093174711 0
-0.10313321 -0.062682532 0.015349286 -0.67510068 -0.72343707 -0.14449149 0
-0.097675689 -0.06754797 0.014641585 -0.66733015 -0.73141533 -0.14036414 0
-0.060864221 -0.068951339 0.011284772 0.67901647 -0.53189433 -0.50598913 0
-0.055827305 -0.064647242 0.015160387 0.7559666 -0.60324657 -0.25418133 0
-0.10778705 -0.054863729 0.014955861 -0.97987133 0.0060566599 -0.19953853 0
-0.051605124 -0.057467114 0.013029895 0.71397728 -0.48631471 -0.5037207 0
-0.047408417 -0.053782564 0.016013481 0.78275919 -0.53806275 -0.31269237 0
-0.1029437 -0.046558723 0.015213207 -0.72420895 0.67851186 -0.12305685 0
-0.098157972 -0.041845564 0.014242248 -0.70057791 0.69463551 -0.16331615 0
-0.043744698 -0.045597646 0.01406752 0.73052937 -0.38252753 -0.56568491 0
-0.039144333 -0.041782796 0.017587814 0.80638129 -0.46568111 -0.36454129 0
-0.093333386 -0.036706161 0.015250683 -0.69890678 0.69447511 -0.17097841 0
-0.088156857 -0.03200008 0.013923733 -0.66707003 0.69214547 -0.27559444 0
-0.04234685 -0.035621129 0.01138945 0.49432331 -0.13742392 -0.85834676 0
-0.036706723 -0.034515679 0.015780794 0.71719217 -0.34196183 -0.60720468 0
-0.082794875 -0.02588233 0.015756061 -0.78398228 0.56283909 -0.26188549 0
-0.076649979 -0.022293804 0.012244252 -0.48927915 0.58365488 -0.64803773 0
-0.043472856 -0.024767622 0.010702976 0.23998956 0.053202637 -0.96931648 0
-0.034524206 -0.025199443 0.014721505 0.55015814 -0.17789489 -0.8158918 0
-0.028913246 -0.02277836 0.018106706 0.7784546 -0.37957552 -0.49993086 0
-0.081513062 -0.014829453 0.016923668 -0.90622425 0.15693863 -0.39259124 0
-0.074985772 -0.015297521 0.014831904 -0.082855158 0.25846294 -0.96246141 0
-0.065547757 -0.013402632 0.012851866 -0.39598492 0.58150113 -0.71067035 0
-0.054974649 -0.013056407 0.010733434 0.030577062 0.23088276 -0.97250098 0
-0.044941984 -0.015142621 0.011305178 0.14772931 0.12076915 -0.98162663 0
-0.034252837 -0.01471458 0.013628049 0.36527053 -0.13178305 -0.92152631 0
-0.026041523 -0.013747901 0.016487854 0.30506659 -0.54288769 -0.78243679 0
-0.017695015 -0.011167218 0.017877614 0.4042612 -0.81961679 -0.40595719 0
-0.080278136 -0.0098158401 0.018179184 -0.71266139 0.68930489 -0.13027841 0
-0.074589342 -0.0067707673 0.017211303 -0.38335925 0.64053041 -0.66539949 0
-0.065016367 -0.0053590806 0.016900115 -0.095362753 0.30134091 -0.94873577 0
-0.054988343 -0.0047471584 0.013896082 -0.35994783 0.41474757 -0.83571643 0
-0.045252223 -0.0053689545 0.011421755 -0.12223032 -0.13975489 -0.98261303 0
-0.035048436 -0.0074539757 0.01124418 -0.0012201271 -0.40888655 -0.91258442 0
-0.024847485 -0.0080325156 0.011708606 0.046574738 -0.65798944 -0.75158542 0
-0.014470489 -0.0069565275 0.013834568 0.30489495 -0.76962179 -0.56100035 0
-0.0053030257 -0.003594789 0.015265075 0.47778112 -0.76517862 -0.43153995 0
0.0012112288 -0.00095936825 0.018936625 0.63099474 -0.62263906 -0.46278089 0
-0.063134 0.0022704431 0.018771725 -0.29810777 0.56304169 -0.77078909 0
-0.055061605 0.0049474384 0.015267984 -0.67187482 -0.26376015 -0.69210893 0
-0.048641145 0.0015710535 0.010677459 -0.55245018 -0.38530627 -0.73914665 0
-0.0013840069 0.0017381726 0.011960425 0.6309523 -0.57718015 -0.51842296 0
0.0033138914 0.0052881856 0.015553358 0.78705704 -0.36019945 -0.50079685 0
-0.062789485 0.016646719 0.016130419 -0.70837283 -0.60164261 -0.36909896 0
-0.057731058 0.01250707 0.013300277 -0.66649598 -0.55404681 -0.49881384 0
-0.00074848341 0.0166751 0.010860907 0.56628817 0.31140327 -0.7631157 0
0.0040714676 0.015084147 0.014682578 0.78649491 0.12203501 -0.60541987 0
-0.080346614 0.029307188 0.019184433 -0.61963677 -0.37678882 -0.68853503 0
-0.073166497 0.027540168 0.016773459 -0.6170817 -0.65966487 -0.4290134 0
-0.066905946 0.023099063 0.013660542 -0.67073965 -0.58140963 -0.46051177 0
-0.0034622464 0.026251746 0.013143051 0.57365292 0.48095977 -0.66302335 0
0.002752797 0.023388976 0.017116904 0.70005924 0.48954529 -0.51986772 0
-0.081687741 0.0368727 0.017413348 -0.77104378 -0.49899504 -0.3955951 0
-0.076595604 0.033867948 0.013657714 -0.65194571 -0.56938112 -0.50077134 0
-0.013097565 0.036708202 0.012713498 0.57584053 0.52456456 -0.62708813 0
-0.0066955853 0.033371925 0.016368112 0.63778371 0.59556878 -0.48839515 0
-0.085782789 0.044980969 0.014649139 -0.85572159 -0.36157715 -0.37013859 0
-0.079671368 0.040299907 0.010104598 -0.65449512 -0.55760056 -0.51060528 0
-0.022562958 0.047070868 0.01298284 0.60766053 0.58781385 -0.53406322 0
-0.016309334 0.043204136 0.016104445 0.63829243 0.62581301 -0.44826433 0
-0.090286724 0.059432875 0.019438462 -0.93750566 0.054383766 -0.34369385 0
-0.08659447 0.055045009 0.014680234 -0.90361309 -0.038006801 -0.42666003 0
-0.032681037 0.057591707 0.013010138 0.63666815 0.59945935 -0.48507941 0
-0.026662081 0.053445343 0.015791655 0.64587718 0.63879865 -0.41806585 0
-0.090547338 0.067861184 0.018392378 -0.9016003 -0.28064013 -0.32917795 0
-0.086740129 0.065094993 0.014123917 -0.81188512 0.018437268 -0.58352607 0
-0.042272646 0.067562185 0.013006703 0.62914383 0.63020509 -0.45499393 0
-0.03640325 0.063520499 0.01589093 0.65859985 0.64467055 -0.38813156 0
-0.10025986 0.079688415 0.017430112 -0.66905493 -0.74046451 -0.063857287 0
-0.094603576 0.07581871 0.015593942 -0.55204564 -0.62362498 -0.55347764 0
-0.084807709 0.07465829 0.012692001 -0.15907568 0.1143446 -0.98062241 0
-0.075667843 0.07679227 0.012930687 -0.21018429 0.72955775 -0.65082103 0
-0.064602472 0.078247726 0.013488752 -0.0096916687 0.89339125 -0.44917494 0
-0.053959839 0.07721971 0.012891914 0.37641257 0.71653628 -0.58727282 0
-0.046456888 0.07332772 0.015757846 0.64954847 0.68041635 -0.33929387 0
-0.10236297 0.084879443 0.015870577 -0.9286682 0.037631594 -0.36899757 0
-0.095159099 0.084869087 0.012485755 0.029369233 0.0059370967 -0.99955094 0
-0.085489862 0.085226476 0.015405599 0.57781291 0.57890087 -0.57533109 0
-0.075116068 0.081155941 0.017623752 0.037314188 0.93607372 -0.34981942 0
-0.066168636 0.080967925 0.017351041 0.11605501 0.9377979 -0.32720992 0
-0.056551486 0.081152581 0.017191805 0.086366214 0.94019157 -0.3295159 0
-0.10018969 0.090188637 0.018362779 -0.73545778 0.66711271 -0.11858547 0
-0.094814844 0.092239909 0.01593449 -0.095244914 0.90354848 -0.417766 0
-0.089787401 0.090269513 0.017200427 0.60435224 0.79542547 -0.045349799 0
-0.082793966 -0.082549691 0.025151363 -0.60906506 -0.79235286 0.034880843 0
-0.075309567 -0.083240494 0.024385832 0.42663759 -0.80034888 0.42121485 0
-0.06941773 -0.080510899 0.021455226 0.66635555 -0.68563187 0.29305154 0
-0.093451589 -0.07325159 0.025241245 -0.68229872 -0.7301203 -0.037318297 0
-0.08785595 -0.078269824 0.024806732 -0.65699798 -0.75296783 -0.037324533 0
-0.072914734 -0.078272626 0.028464967 0.37884825 -0.47554293 0.79393506 0
-0.065500908 -0.074768201 0.024972849 0.6552633 -0.67110699 0.34676418 0
-0.059784342 -0.070357308 0.020029008 0.76343358 -0.64563799 0.017910765 0
-0.10315531 -0.063676678 0.024829298 -0.75744492 -0.64073277 0.12545428 0
-0.098423965 -0.068469524 0.024531968 -0.68643832 -0.72717482 -0.0043837903 0
-0.061222993 -0.069013484 0.027884316 0.64359581 -0.61792713 0.45160875 0
-0.055983875 -0.064646423 0.024784438 0.72634536 -0.64514923 0.23707573 0
-0.10488793 -0.055126481 0.025244735 -0.69888085 0.22294654 0.6796031 0
-0.098267436 -0.053749986 0.029030057 -0.35840732 0.18197156 0.91565853 0
-0.051320024 -0.058685269 0.026600393 0.73148435 -0.61154479 0.30156872 0
-0.046936516 -0.053750779 0.024726406 0.78349888 -0.59398252 0.18252207 0
-0.10220844 -0.047403928 0.023550969 -0.7027961 0.57107341 0.4242084 0
-0.096564129 -0.043878112 0.026624536 -0.61398822 0.45821667 0.64269435 0
-0.042193927 -0.047081925 0.025463764 0.79601961 -0.57702726 0.18273556 0
-0.038508832 -0.042151231 0.024316251 0.83160245 -0.54878396 0.085285246 0
-0.092844889 -0.037115581 0.024400847 -0.69976479 0.61389095 0.36533177 0
-0.087690406 -0.03274776 0.026469857 -0.6650508 0.57628548 0.4749763 0
-0.033855747 -0.034694728 0.025026634 0.8482306 -0.52461898 0.072661422 0
-0.082998224 -0.026040742 0.02442427 -0.78364491 0.55874532 0.27148539 0
-0.07785558 -0.021970708 0.027709058 -0.62715703 0.55421394 0.54728508 0
-0.030615488 -0.028861273 0.025299942 0.87129807 -0.49026081 0.021998612 0
-0.027689211 -0.024306864 0.025048411 0.86780834 -0.49661389 -0.016835893 0
-0.081624217 -0.015020269 0.022401985 -0.87677407 0.050587229 0.47823438 0
-0.075108744 -0.015045566 0.026029572 -0.41941553 0.26484004 0.86830312 0
-0.06829264 -0.011688184 0.028019564 -0.63465822 0.52884418 0.56350046 0
-0.022817533 -0.017306222 0.024777807 0.68885303 -0.71581042 -0.11444148 0
-0.01605331 -0.012381147 0.025422605 0.50465566 -0.85810524 -0.094752938 0
-0.080548659 -0.0095570479 0.022265736 -0.70395303 0.69584763 0.142289 0
-0.074073762 -0.0058944593 0.023700912 -0.57689357 0.62042511 0.53128755 0
-0.065867022 -0.0038539127 0.026738472 -0.46787724 0.33208749 0.81902915 0
-0.059487257 -0.0010331199 0.02933133 -0.85794079 0.12687436 0.49783581 0
-0.011248762 -0.009502735 0.023309717 0.44779879 -0.87541038 -0.18202454 0
-0.0050969529 -0.0065582609 0.025043849 0.47051081 -0.87682611 -0.09897244 0
0.0022969355 -0.0021007301 0.025030965 0.66417873 -0.74031186 -0.10394683 0
-0.063187197 0.0031300932 0.025123762 -0.70966196 0.65651482 0.25567162 0
-0.059197187 0.0075168954 0.025401577 -0.99979585 0.011979225 -0.016270986 0
0.0067178309 0.0048794281 0.025089702 0.90993869 -0.37893131 -0.16859034 0
-0.063975565 0.015032449 0.024760168 -0.77043402 -0.63166213 -0.086222291 0
-0.059665646 0.01048064 0.021480918 -0.74983513 -0.63546193 -0.18421526 0
0.0087207248 0.015030839 0.025150601 0.97586149 0.029363504 -0.21640737 0
-0.08052703 0.029522058 0.020495052 -0.65929848 -0.69929838 0.27623791 0
-0.073879682 0.026424669 0.024554145 -0.70369035 -0.70511132 0.087394945 0
-0.06907773 0.021153534 0.024626747 -0.76323646 -0.64452529 -0.045357596 0
-0.00018696807 0.02970092 0.020732265 0.68437469 0.65522581 -0.31986001 0
0.005120514 0.02529267 0.024910169 0.7969175 0.54777288 -0.25469095 0
-0.082041837 0.036145262 0.024246193 -0.82145721 -0.55407256 0.13495041 0
-0.078334875 0.031957623 0.025921868 -0.78198725 -0.56192827 0.26968965 0
-0.010165159 0.03987243 0.020603346 0.66536266 0.67795616 -0.31251875 0
-0.0047425437 0.035828717 0.02459038 0.68724602 0.69357777 -0.21596944 0
0.0009950425 0.030962439 0.02696757 0.69175887 0.70137477 -0.17188089 0
-0.090013802 0.048136268 0.025232621 -0.98284179 -0.17257236 0.06512168 0
-0.087742016 0.044826273 0.024954602 -0.91657704 -0.39969051 0.011576138 0
-0.02028379 0.049738742 0.020446643 0.67129213 0.67810553 -0.29923204 0
-0.014459641 0.045357406 0.024875715 0.68374449 0.71424323 -0.14949952 0
-0.0091982177 0.04071128 0.026281837 0.68597299 0.71962595 -0.10760842 0
-0.090802819 0.058758598 0.023734258 -0.93368816 -0.35391667 0.054491833 0
-0.088678464 0.054087464 0.025165327 -0.99862677 -0.051324666 0.010502284 0
-0.030333199 0.059854075 0.020565301 0.67985678 0.66879767 -0.30083972 0
-0.024955636 0.055369973 0.024883656 0.68433148 0.72324163 -0.0928002 0
-0.019481389 0.05055524 0.027200237 0.68324029 0.72950107 -0.031793632 0
-0.090726219 0.065104336 0.023650667 -0.99105281 -0.10094046 0.087323323 0
-0.089151546 0.065218762 0.027259896 -0.93487507 0.031408869 0.35358453 0
-0.040406346 0.06954103 0.025571223 0.68498242 0.72678304 0.050846592 0
-0.034691799 0.064433321 0.024943536 0.67549294 0.7373662 0.00060846983 0
-0.029888542 0.060199618 0.025785912 0.67900646 0.734088 -0.0080633676 0
-0.10051127 0.07957761 0.023425259 -0.65663159 -0.75344515 0.033990566 0
-0.094636254 0.075217925 0.025249185 -0.70074064 -0.56140924 0.44020715 0
-0.088062949 0.076650426 0.028920153 -0.45296171 0.25232053 0.85507894 0
-0.076502055 0.079224393 0.029115675 -0.019016452 0.75121641 0.65978199 0
-0.063518822 0.079937309 0.020507775 0.67851281 0.71861464 -0.15235928 0
-0.051028848 0.079197556 0.025471181 0.63533217 0.77075297 0.047884211 0
-0.045353621 0.074257687 0.024934592 0.66987568 0.74187613 0.029772609 0
-0.10275014 0.084908232 0.023889296 -0.90576887 0.10452627 0.41067857 0
-0.094936386 0.084767826 0.027215425 -0.14824711 0.061681855 0.9870249 0
-0.085015289 0.085023291 0.025594076 0.41955283 0.73259056 0.53599119 0
-0.07455603 0.0816193 0.025168389 0.010380466 0.99233848 0.12311204 0
-0.065061845 0.081576072 0.024956381 0.013421505 0.99946237 -0.029914701 0
-0.05593022 0.082126439 0.024723431 0.22044444 0.97490835 -0.03095164 0
-0.1005525 0.090410225 0.022641692 -0.74541801 0.66617876 -0.023620555 0
-0.095186852 0.092752747 0.023970148 0.024448898 0.909724 0.41449314 0
-0.089716345 0.090236522 0.021001546 0.664967 0.74093997 0.09395048 0
-0.081943884 -0.081239484 0.03060885 0.010636862 -0.48807541 0.87273663 0
-0.079380222 -0.081044927 0.030270183 0.3407678 -0.19978324 0.91867512 0
-0.0922876 -0.072483741 0.031177044 -0.45495194 -0.42909959 0.78031546 0
-0.084810868 -0.074852005 0.032050021 -0.073775463 -0.20694876 0.97556615 0
-0.075919367 -0.07396359 0.031493388 0.17707728 -0.31098181 0.93377405 0
-0.067541085 -0.071494155 0.030942461 0.28129244 -0.46723992 0.83818942 0
-0.1010386 -0.062440589 0.030729761 -0.57949376 -0.12768574 0.80491197 0
-0.094696715 -0.064536691 0.031596951 -0.13929269 0.00061626598 0.99025112 0
-0.084880918 -0.065287113 0.032741886 -0.097833097 -0.046369348 0.99412203 0
-0.074834906 -0.064801455 0.033705577 -0.057250965 -0.17237136 0.98336691 0
-0.064968191 -0.065144032 0.032933637 0.23078229 -0.38831005 0.89216298 0
-0.05778506 -0.062093563 0.031761359 0.51735532 -0.54881543 0.65661639 0
-0.10054091 -0.058966804 0.030203104 -0.15134022 0.38505313 0.91040117 0
-0.093795985 -0.055558808 0.031070402 -0.2721298 0.1086482 0.9561072 0
-0.08523652 -0.055005811 0.033041406 -0.18081644 -0.011525207 0.98344934 0
-0.074947499 -0.055112448 0.034583092 -0.14593951 -0.055609629 0.98772931 0
-0.064871602 -0.055267125 0.035727691 -0.019950172 -0.151189 0.98830348 0
-0.055132918 -0.055082921 0.034116797 0.35535666 -0.40671322 0.84160918 0
-0.04859468 -0.052156545 0.031784199 0.66644251 -0.53136158 0.52298111 0
-0.092037037 -0.046593942 0.030752584 -0.34810227 0.13966352 0.92699456 0
-0.084828161 -0.044913605 0.032813579 -0.27683762 0.081989467 0.95741248 0
-0.074931487 -0.044963449 0.035102233 -0.18341692 -0.017497806 0.9828794 0
-0.065439649 -0.045466121 0.036557864 -0.11539562 -0.057740178 0.99163997 0
-0.055139542 -0.045094751 0.036975034 0.085025348 -0.13931461 0.98659116 0
-0.045292903 -0.044441044 0.033807449 0.54444629 -0.42986593 0.72027326 0
-0.039315294 -0.040833026 0.030769488 0.7226457 -0.5536387 0.41384476 0
-0.083567083 -0.035959549 0.03187741 -0.4196603 0.25309369 0.87168157 0
-0.075218476 -0.034765996 0.034570873 -0.26679495 0.10627065 0.95787632 0
-0.064953245 -0.034922138 0.036797065 -0.15609978 0.026997531 0.98737222 0
-0.054904435 -0.035111528 0.037871268 -0.051768046 -0.04936929 0.99743807 0
-0.044812243 -0.03497988 0.037155062 0.23052092 -0.22470732 0.94676644 0
-0.036767818 -0.034109574 0.033323675 0.64870584 -0.45528349 0.60983402 0
-0.080893233 -0.028771011 0.030569419 -0.55405462 0.45194617 0.69911951 0
-0.074288331 -0.025380082 0.03284239 -0.44748104 0.32159597 0.83446789 0
-0.065432027 -0.024883242 0.035991456 -0.25018302 0.12354349 0.96028399 0
-0.055000894 -0.024866616 0.038024802 -0.13261528 0.030370411 0.99070227 0
-0.045091011 -0.02480064 0.038667176 0.0025458524 -0.065312609 0.99786168 0
-0.034600884 -0.025168739 0.036154285 0.47329566 -0.34386638 0.81101614 0
-0.028284108 -0.022663733 0.032578763 0.75767553 -0.50176895 0.4173196 0
-0.071378231 -0.018148527 0.031348985 -0.57031357 0.47007641 0.67362499 0
-0.064875878 -0.014951298 0.03368343 -0.46569899 0.36071399 0.80809021 0
-0.055031136 -0.014877271 0.037218664 -0.21970592 0.10556705 0.96983755 0
-0.045398496 -0.015244575 0.038954526 -0.16345018 -0.065719463 0.98436028 0
-0.034424774 -0.017367089 0.038974427 0.18092604 -0.32702714 0.92753386 0
-0.024409968 -0.015899206 0.035694778 0.47391737 -0.74436724 0.47044644 0
-0.016469738 -0.011835877 0.034673192 0.42147267 -0.88346213 0.20458601 0
-0.061941899 -0.0076642814 0.031768885 -0.59531665 0.5127129 0.6186465 0
-0.055482335 -0.0046160948 0.035696615 -0.61285895 0.068143345 0.78724867 0
-0.048539225 -0.0071118111 0.039300214 -0.48110446 -0.21693456 0.84939849 0
-0.011621677 -0.0093514547 0.036799055 0.38601428 -0.90251231 0.1909571 0
-0.0053018066 -0.0066836951 0.035188366 0.45097116 -0.8867079 0.10185352 0
0.0019258837 -0.0020678276 0.034420602 0.70601332 -0.69766945 0.12166584 0
-0.060489692 0.0077995732 0.031557452 -0.83822632 -0.48094574 0.25703663 0
-0.057157595 0.004672348 0.035564799 -0.84645218 -0.33496755 0.4139027 0
0.0068536992 0.0047629555 0.035142738 0.86647195 -0.47929448 0.13965341 0
-0.063466422 0.01552593 0.03489868 -0.80109692 -0.54930896 0.23770458 0
-0.059481706 0.010994671 0.037951164 -0.79827225 -0.47473678 0.37065667 0
0.0090927584 0.015621444 0.035568636 0.97071445 0.080548406 0.22633046 0
0.010112929 0.013985301 0.032794174 0.99988818 -0.0097706541 -0.011322408 0
-0.072281271 0.026973892 0.034098897 -0.75660676 -0.59072673 0.28033587 0
-0.068071872 0.022381378 0.035767358 -0.7596975 -0.56798291 0.31663075 0
0.0058505507 0.025439892 0.034937531 0.81316894 0.56055146 0.15664706 0
-0.081366993 0.038008247 0.032979213 -0.75482279 -0.58671254 0.29327625 0
-0.076890998 0.033933975 0.035657994 -0.73826605 -0.5576663 0.37943593 0
-0.010340574 0.039568566 0.03928753 0.60191888 0.71383715 0.35795265 0
-0.0045155445 0.035803515 0.035205413 0.65897125 0.72990096 0.18166304 0
0.00095805613 0.03103121 0.034284417 0.67510545 0.7240203 0.1415173 0
-0.085331805 0.044856206 0.035176799 -0.75585932 -0.50581986 0.41571975 0
-0.079340614 0.04067101 0.039439727 -0.64141369 -0.4644514 0.61063361 0
-0.021173174 0.049225807 0.038408153 0.60999179 0.70857418 0.35472885 0
-0.014776015 0.045007803 0.034967117 0.64369088 0.72872043 0.23372734 0
-0.009205509 0.040635075 0.033176232 0.66240472 0.73438931 0.14796035 0
-0.087184861 0.055090763 0.034886144 -0.94221652 0.16609028 0.29093304 0
-0.031372763 0.058577947 0.037016883 0.60198832 0.70240986 0.37977675 0
-0.025335955 0.05424523 0.034947742 0.62989181 0.72685182 0.27372009 0
-0.019573383 0.050304886 0.031888034 0.65599483 0.73790568 0.15863769 0
-0.085510746 0.065236159 0.035416137 -0.78986704 0.16144562 0.59164625 0
-0.079516456 0.069424085 0.039911557 -0.052270316 0.14811309 0.98758811 0
-0.042086035 0.068123229 0.036006648 0.59377337 0.70889276 0.3806628 0
-0.035858002 0.063484065 0.034691736 0.62249905 0.72353542 0.29831424 0
-0.083306208 0.074040815 0.033507925 -0.49850798 0.44255689 0.745408 0
-0.075682871 0.076517396 0.035704412 -0.30736092 0.75923353 0.57366681 0
-0.065909043 0.078566 0.036630038 -0.2655499 0.89195609 0.36592025 0
-0.053639267 0.077404268 0.036256518 0.50678563 0.71511644 0.48143202 0
-0.046696953 0.073055163 0.034218051 0.61331743 0.70713902 0.35184681 0
-0.081575267 0.080139525 0.030129571 -0.030411348 0.56036091 0.82769001 0
-0.07227347 0.080812447 0.031740706 -0.35833511 0.89484227 0.26618281 0
-0.06402681 0.080918297 0.032643419 -0.14600235 0.95122099 0.27177566 0
-0.057023469 0.081327453 0.032978818 0.31319395 0.87565076 0.36762118 0
-0.041425698 -0.010872767 0.040402763 -0.20102936 -0.26716599 0.94244868 0
-0.034797575 -0.012362318 0.041301653 -0.13250971 -0.48057625 0.86688387 0
-0.025790021 -0.011814259 0.041982293 0.14328653 -0.76839501 0.62372917 0
-0.018190261 -0.010478855 0.040898871 0.2069082 -0.88899118 0.40851402 0
-0.050560329 -0.00066239352 0.040430836 -0.5852825 -0.53022212 0.61344022 0
-0.044227477 -0.004602639 0.042580817 -0.42130286 -0.4729059 0.77386296 0
-0.03529739 -0.0056240251 0.046178184 -0.29042608 -0.61686575 0.7315253 0
-0.024918826 -0.0075957123 0.047037598 -0.033139501 -0.76929343 0.6380356 0
-0.014581745 -0.0073080203 0.045448352 0.22147623 -0.86397213 0.45221734 0
-0.0049189599 -0.0035831782 0.044966415 0.4739005 -0.77658081 0.41513908 0
0.00064312614 -0.0011065021 0.041671265 0.69742298 -0.62824112 0.34483942 0
-0.05301363 0.0058722948 0.043254469 -0.6585744 -0.4771485 0.58190119 0
-0.045989331 0.0036310027 0.047575526 -0.49962074 -0.52153683 0.69164908 0
-0.038975541 0.00027531269 0.049580012 -0.38477209 -0.56878591 0.72693396 0
-0.00095189142 0.0018212217 0.048770715 0.61308211 -0.49536288 0.61542338 0
0.0034412832 0.0050069629 0.044527985 0.79431307 -0.36288735 0.48721609 0
-0.061497953 0.017431399 0.042021293 -0.72224951 -0.48552957 0.49256143 0
-0.055972062 0.014373294 0.046048954 -0.6506654 -0.41674611 0.63478911 0
-0.049555752 0.010515397 0.049637847 -0.50613683 -0.42552736 0.75016791 0
0.0046469322 0.014783557 0.045175552 0.82569057 0.016457928 0.56388319 0
-0.07054355 0.029148227 0.040626194 -0.70171964 -0.51490515 0.49240458 0
-0.064444706 0.02560295 0.04458062 -0.65616363 -0.40766194 0.63502842 0
-0.058401052 0.023321118 0.048885163 -0.55278295 -0.30830243 0.77419674 0
-0.0032881396 0.027182886 0.047393184 0.51276857 0.60721123 0.60692918 0
0.0029448653 0.024025934 0.043866504 0.72155321 0.4454405 0.53004128 0
-0.073060267 0.035959084 0.042812683 -0.63752103 -0.42728418 0.64108902 0
-0.065158188 0.034814857 0.047421873 -0.38102496 -0.11999737 0.91674459 0
-0.05857449 0.036206871 0.049595423 -0.25326374 0.058801427 0.96560848 0
-0.020759799 0.038972206 0.049033016 0.42453644 0.57600808 0.69855821 0
-0.014139866 0.036569536 0.04667617 0.46916327 0.6059463 0.64242893 0
-0.0062986123 0.033194296 0.043531939 0.54611456 0.65855765 0.51774585 0
-0.081873879 0.047066461 0.041776951 -0.62013811 -0.45336595 0.64022493 0
-0.074968442 0.044913776 0.04522543 -0.41521129 -0.20933862 0.88531178 0
-0.065081887 0.045044307 0.047933981 -0.18638372 -0.010067956 0.98242545 0
-0.057329036 0.045454226 0.04947494 -0.2168816 0.02144118 0.9759624 0
-0.033022698 0.048180539 0.048806645 0.33698943 0.47328374 0.81390452 0
-0.02433995 0.045226622 0.046048675 0.45468855 0.58365434 0.67276001 0
-0.017001128 0.042585552 0.042890128 0.53762764 0.65117282 0.5356589 0
-0.083227791 0.05435095 0.04258956 -0.62862092 0.064421937 0.77503902 0
-0.075311407 0.054988746 0.046090722 -0.25022918 -0.0079121012 0.96815431 0
-0.065079726 0.055089455 0.04809469 -0.183716 -0.021560557 0.98274291 0
-0.055883918 0.05570922 0.049508706 -0.08789286 0.068461724 0.99377453 0
-0.044534359 0.057010286 0.048217677 0.29454485 0.44548297 0.84545153 0
-0.035201397 0.054618292 0.045183595 0.43290079 0.56896764 0.69919431 0
-0.027374748 0.051786851 0.042180609 0.52368975 0.64224917 0.55970085 0
-0.080927514 0.06277056 0.041269757 -0.70488608 0.43941224 0.55682361 0
-0.075297303 0.064993545 0.044599287 -0.50497121 0.31051975 0.80534565 0
-0.064901017 0.064732827 0.048157267 -0.11038398 0.061824333 0.99196434 0
-0.054739997 0.065178342 0.047268689 0.24669147 0.40368077 0.88101369 0
-0.045570575 0.064166777 0.04381166 0.42241025 0.56649834 0.70756567 0
-0.038610768 0.061525106 0.04152387 0.49947244 0.6285429 0.59620553 0
-0.072323956 0.071793921 0.04268413 -0.53558809 0.63179356 0.56034118 0
-0.064646892 0.07431443 0.044386592 -0.08650028 0.70209217 0.70681274 0
-0.055764362 0.073115155 0.042730372 0.40632823 0.59205711 0.69596386 0
-0.049300842 0.070587173 0.040791757 0.45969918 0.59805065 0.65651506 0
-0.032554466 -0.0013480762 0.050968166 -0.27779657 -0.5956108 0.75370878 0
-0.024676384 -0.002745972 0.052140396 -0.1232826 -0.62261993 0.77275211 0
-0.01481377 -0.0023363901 0.05244397 0.15060627 -0.66487461 0.73161429 0
-0.0083016045 -0.0011970049 0.051070224 0.38346812 -0.630557 0.67479628 0
-0.043183643 0.0067195101 0.051543072 -0.45090431 -0.42359936 0.7856518 0
-0.035018768 0.0049005318 0.054191355 -0.30620602 -0.42341256 0.85261929 0
-0.024967534 0.0055276584 0.056522828 -0.068273932 -0.33768225 0.93878084 0
-0.015052196 0.0046592508 0.056339003 0.085326135 -0.31981331 0.9436307 0
-0.0054684062 0.0052185501 0.0534162 0.48095322 -0.33440658 0.81046665 0
0.00019870058 0.0079412386 0.050174173 0.66848552 -0.19223112 0.71845275 0
-0.051839083 0.017226599 0.051052082 -0.51439923 -0.31573302 0.79731178 0
-0.045004737 0.015095812 0.053752728 -0.38624221 -0.2229753 0.89504141 0
-0.035035301 0.014964571 0.05676889 -0.1917402 -0.056071129 0.97984272 0
-0.024983803 0.014682184 0.058008876 -0.033591162 0.023409436 0.99916148 0
-0.014846444 0.014974535 0.057179023 0.18226032 0.18609448 0.9654792 0
-0.0045632552 0.015022125 0.053958867 0.46997064 0.11911127 0.87460858 0
0.00052825245 0.014839868 0.050442237 0.65958768 0.030444264 0.75101084 0
-0.053797454 0.025285963 0.051392049 -0.32929087 -0.017625665 0.94406402 0
-0.044939123 0.024857959 0.054168358 -0.2729356 0.092048123 0.95761865 0
-0.034792807 0.025196925 0.05636473 -0.11037163 0.13242187 0.98502922 0
-0.02492227 0.025042171 0.055905733 0.15019856 0.29947576 0.9422074 0
-0.014861893 0.025238005 0.053970728 0.21852036 0.35683423 0.90825009 0
-0.0064154756 0.023561366 0.052125379 0.37225813 0.43208811 0.82141566 0
-0.053659156 0.034711529 0.050979789 -0.25594383 0.059083641 0.9648844 0
-0.044808306 0.035135798 0.053233169 -0.21803133 0.088958442 0.97187895 0
-0.034849763 0.034791835 0.054265372 0.06797719 0.26222733 0.96260887 0
-0.025134386 0.034981236 0.052650623 0.21774869 0.36030585 0.90706408 0
-0.017000932 0.032473691 0.05146642 0.31500378 0.45825377 0.83112937 0
-0.052449826 0.044411093 0.050706159 -0.25393248 0.057130542 0.96553314 0
-0.045233302 0.045174368 0.052020162 -0.079399899 0.16147916 0.98367679 0
-0.035479382 0.044104949 0.051483795 0.21488059 0.35837534 0.9085117 0
-0.028319167 0.041435059 0.050775241 0.26949522 0.42086315 0.86616772 0
-0.052578345 0.05318189 0.050273485 -0.093547001 0.077805303 0.99257004 0
-0.046109337 0.052080385 0.050636772 0.065047979 0.28173125 0.95728582 0
-0.039470416 0.050110303 0.050077714 0.2695511 0.41132578 0.87072003 0
