# .PCD v0.7 - Point Cloud Data file format
VERSION 0.7
FIELDS x y z normal_x normal_y normal_z curvature
SIZE 4 4 4 4 4 4 4
TYPE F F F F F F F
COUNT 1 1 1 1 1 1 1
WIDTH 248
HEIGHT 1
VIEWPOINT 0 0 0 1 0 0 0
POINTS 248
DATA ascii
-0.010563822 -0.050052546 -2.1022788e-06 -0.058601446 -0.069664918 -0.99584776 0
-0.0087199109 -0.050667394 -3.9725099e-05 0.0056837099 -0.045370553 -0.99895406 0
-0.011082219 -0.047607601 -7.1346876e-05 -0.034281034 0.017558683 -0.99925798 0
-0.0089536132 -0.048166342 -5.310788e-05 0.04183029 0.01602307 -0.99899632 0
-0.020821108 -0.070323162 0.009526765 -0.35394406 -0.61855364 -0.70150912 0
-0.014036192 -0.071960084 0.0084694577 -0.23988137 -0.64614934 -0.72453296 0
-0.0058564725 -0.072010919 0.0082835108 0.19870943 -0.61605012 -0.76223153 0
0.00087995298 -0.070633277 0.0095088221 0.36934897 -0.57077503 -0.73334646 0
-0.03079457 -0.061330713 0.0094284937 -0.61308473 -0.39686385 -0.68310034 0
-0.024453519 -0.064352795 0.0071649686 -0.41686848 -0.47093987 -0.77745503 0
-0.01515262 -0.065329418 0.0044476492 -0.16131958 -0.45522714 -0.87563938 0
-0.0049823588 -0.065265052 0.0043888502 0.16042168 -0.43226781 -0.88736093 0
0.0043815332 -0.064455807 0.0071778381 0.40978277 -0.4481737 -0.79449248 0
0.010794353 -0.061302081 0.0093818037 0.56438911 -0.36733884 -0.73927474 0
-0.032215912 -0.05451927 0.0079065198 -0.61997169 -0.22161327 -0.75267696 0
-0.025086414 -0.055023994 0.0037902726 -0.40838978 -0.18109335 -0.89466363 0
-0.015300119 -0.05513984 0.00099736417 -0.12233312 -0.15469055 -0.98035985 0
-0.0047658957 -0.055193875 0.0010685285 0.12784588 -0.18611182 -0.97417545 0
0.005028612 -0.055042662 0.0040088478 0.41765246 -0.17786001 -0.89102876 0
0.012268592 -0.054226175 0.0079841223 0.59027267 -0.18766353 -0.78508639 0
-0.032734651 -0.045309074 0.007819891 -0.60105336 0.13669541 -0.78743207 0
-0.025278546 -0.044999886 0.0035837537 -0.40952376 0.12919022 -0.90310585 0
-0.015204241 -0.044829719 0.00061524136 -0.13453296 0.095485322 -0.98629785 0
-0.0046127895 -0.044789564 0.00063527044 0.1320357 0.094902076 -0.98669147 0
0.0051296335 -0.044914786 0.003484518 0.40517449 0.073878296 -0.91124946 0
0.012612692 -0.044945456 0.0077610016 0.60425663 0.088996612 -0.79180408 0
-0.031486508 -0.037573457 0.0090901311 -0.5603022 0.31686416 -0.76528329 0
-0.024989104 -0.035102818 0.0063412255 -0.41688812 0.35896462 -0.83507401 0
-0.015239335 -0.034854654 0.0032161959 -0.1475569 0.37446928 -0.91542333 0
-0.0048740339 -0.034791935 0.0031148896 0.12486975 0.38367397 -0.91498739 0
0.0050303503 -0.034906667 0.005921945 0.39627713 0.36429241 -0.84276658 0
0.011593485 -0.037082773 0.0088278353 0.59717 0.31832269 -0.73624629 0
-0.022559736 -0.028255071 0.0087627992 -0.35326663 0.57490307 -0.73803055 0
-0.014487359 -0.026896857 0.0075128237 -0.13670249 0.58783507 -0.79734707 0
-0.0051365513 -0.026474496 0.0076229894 0.11436691 0.57745785 -0.80837041 0
0.0028078533 -0.028066989 0.0084878113 0.32307738 0.54075015 -0.7766661 0
-0.012038883 -0.080497243 0.019214442 -0.15175691 -0.89858091 -0.41173074 0
-0.0061904765 -0.080556192 0.018762086 0.082781315 -0.88359416 -0.4608781 0
-0.031213745 -0.071325973 0.018217705 -0.60050762 -0.6381793 -0.48178601 0
-0.024423596 -0.073938154 0.015668016 -0.40316224 -0.72013253 -0.56468517 0
-0.015389762 -0.076522574 0.01432254 -0.21516326 -0.78808975 -0.5767315 0
-0.0046693375 -0.076942757 0.014081592 0.17334111 -0.78039134 -0.60078466 0
0.0045992429 -0.073913172 0.015412486 0.43661743 -0.70289361 -0.56152093 0
0.011421394 -0.071260117 0.018254366 0.58203465 -0.66696823 -0.4651764 0
-0.040019024 -0.060291409 0.019998055 -0.85320681 -0.35784894 -0.37945005 0
-0.034356598 -0.064654171 0.015508214 -0.68318063 -0.46191469 -0.5655961 0
-0.02762278 -0.068025485 0.011609441 -0.48078388 -0.56795216 -0.6680398 0
0.0075309589 -0.068378031 0.011743063 0.5118497 -0.56484836 -0.6472683 0
0.014678296 -0.064457625 0.015391015 0.66586578 -0.47791421 -0.57290554 0
0.020162735 -0.06055383 0.019584505 0.85193628 -0.28168499 -0.44142744 0
-0.040968213 -0.053821534 0.018264115 -0.84722918 -0.18399434 -0.49834612 0
-0.03720469 -0.05554558 0.013561585 -0.76541454 -0.23577695 -0.59879029 0
0.01740793 -0.055410694 0.013190744 0.74692643 -0.20223147 -0.63340622 0
0.020949939 -0.054297835 0.018067928 0.88285595 -0.12564884 -0.45252386 0
-0.041329827 -0.045287661 0.017741114 -0.85961562 0.073471114 -0.50563115 0
-0.037754852 -0.044788223 0.012915109 -0.76411384 0.12005325 -0.63381171 0
0.01766027 -0.045007579 0.012957424 0.79546529 0.12267698 -0.5934521 0
0.021020038 -0.045848075 0.017967856 0.88239872 0.072449118 -0.46489093 0
-0.040619098 -0.038535044 0.019025089 -0.84812152 0.26828024 -0.45685399 0
-0.035345882 -0.034699783 0.014565303 -0.69655269 0.39348239 -0.59998834 0
-0.029210851 -0.031062875 0.010754576 -0.5626896 0.48564386 -0.66897708 0
0.0094625624 -0.03069669 0.01062759 0.52703667 0.49002609 -0.69433922 0
0.015603728 -0.034808088 0.014712784 0.7276845 0.37613818 -0.5735811 0
0.020522442 -0.03862346 0.019271497 0.85887003 0.22250272 -0.46134025 0
-0.032477133 -0.027452139 0.017129645 -0.612827 0.58321106 -0.53320533 0
-0.025404783 -0.024203569 0.014408263 -0.43089202 0.67000252 -0.60450703 0
-0.015769096 -0.021810688 0.012245811 -0.18033299 0.72346896 -0.66638774 0
-0.0047260602 -0.021798898 0.011759694 0.12047482 0.72730225 -0.67566049 0
0.0057808459 -0.02398636 0.014063305 0.46165147 0.65746057 -0.59550267 0
0.012371738 -0.027093047 0.017106064 0.63948685 0.5680992 -0.51799595 0
-0.021992795 -0.018925797 0.01857896 -0.37604707 0.79204202 -0.48089299 0
-0.014432482 -0.017974293 0.016743114 -0.13816176 0.82713705 -0.54475284 0
-0.0050897393 -0.017806508 0.016764803 0.10815337 0.83133543 -0.54514611 0
0.0026118278 -0.018874612 0.018239623 0.35125372 0.78869504 -0.50456017 0
-0.022117384 -0.080801278 0.027026882 -0.33213094 -0.91237682 -0.23928556 0
-0.014960365 -0.082106352 0.025188319 -0.18734749 -0.93839198 -0.29038152 0
-0.0048618326 -0.082529955 0.025145015 0.14317366 -0.95459908 -0.26123148 0
0.00204188 -0.08093711 0.026527619 0.40266567 -0.88949293 -0.21601543 0
-0.03358848 -0.072926581 0.025409101 -0.65772861 -0.69946361 -0.27954191 0
-0.026102437 -0.077932931 0.024338497 -0.4555963 -0.83089924 -0.31943449 0
-0.018983193 -0.079709411 0.021002771 -0.27051228 -0.89056212 -0.36568063 0
-0.00049755123 -0.079788141 0.020210411 0.37890938 -0.82436663 -0.42053214 0
0.006186082 -0.077992134 0.024114404 0.47087923 -0.82386005 -0.3154797 0
0.013444147 -0.073206373 0.025492897 0.65286636 -0.70180207 -0.28502518 0
-0.041365117 -0.06251768 0.026328336 -0.87389714 -0.41059843 -0.2602168 0
-0.038074765 -0.066920176 0.024024971 -0.80073452 -0.51027018 -0.31376517 0
0.017965451 -0.067428105 0.023837779 0.75399631 -0.57279116 -0.32155845 0
0.021684425 -0.062962554 0.026055574 0.85847592 -0.43764442 -0.26736942 0
-0.043512423 -0.054848496 0.025019482 -0.93192542 -0.22068346 -0.28777394 0
0.02361935 -0.055099815 0.024766706 0.94087535 -0.14082602 -0.30809343 0
-0.044409633 -0.04503122 0.024780305 -0.94823027 0.059953798 -0.31187335 0
0.0238814 -0.045218706 0.024885222 0.94440943 0.086520903 -0.31718296 0
-0.042356305 -0.03570145 0.025654212 -0.87036407 0.3904011 -0.30008909 0
-0.038964242 -0.03180936 0.022029651 -0.79009026 0.45738894 -0.40810856 0
0.019054117 -0.031769443 0.022319729 0.81875604 0.44389403 -0.36413816 0
0.021986788 -0.035686299 0.025686886 0.89671814 0.33687705 -0.28707188 0
-0.040095951 -0.029788768 0.028539648 -0.80141652 0.55749506 -0.21663511 0
-0.034867696 -0.024875358 0.025066318 -0.6860407 0.66318244 -0.2992276 0
-0.028647702 -0.020831103 0.021887308 -0.52023488 0.75926739 -0.39098424 0
0.0089760097 -0.020772608 0.021501075 0.56511629 0.74702334 -0.35014236 0
0.014940574 -0.024841106 0.025067886 0.70190912 0.6467427 -0.29840833 0
0.020361986 -0.029791709 0.029407233 0.86123705 0.46837261 -0.19722545 0
-0.030482709 -0.01952309 0.028947176 -0.58937687 0.78443271 -0.19313298 0
-0.024513541 -0.017316351 0.025164237 -0.41894522 0.8642298 -0.27855295 0
-0.015060104 -0.014389833 0.024842525 -0.16199385 0.94379878 -0.28810051 0
-0.0048759752 -0.013931852 0.024992783 0.094310224 0.94402915 -0.31609246 0
0.0046962681 -0.016837614 0.025043432 0.44742703 0.84609258 -0.28971785 0
0.010646528 -0.019494295 0.028240893 0.60154396 0.77047896 -0.21096712 0
-0.023340147 -0.081447683 0.034958966 -0.38285828 -0.92283964 -0.042267501 0
-0.015053965 -0.083841361 0.035024304 -0.17155172 -0.98434311 -0.040479682 0
-0.0049435175 -0.083937854 0.035133284 0.16973886 -0.98548174 0.0037957581 0
0.0032408626 -0.081413969 0.035069879 0.39028189 -0.92047924 -0.019953389 0
-0.034414243 -0.074226178 0.035022147 -0.69275886 -0.7203539 -0.034284033 0
-0.028394828 -0.078943826 0.034788571 -0.50514203 -0.86232072 -0.035136741 0
0.0082096234 -0.078985736 0.034877095 0.51286501 -0.85832375 -0.015806561 0
0.014527431 -0.074131049 0.035211299 0.67872083 -0.73437327 -0.0058251768 0
-0.042093463 -0.063785493 0.03505211 -0.89731348 -0.44097376 -0.019251734 0
-0.039227236 -0.068665817 0.035339497 -0.83921719 -0.54349911 -0.017974265 0
0.019253615 -0.068973795 0.034144562 0.79291534 -0.60799348 -0.040364079 0
0.022463471 -0.064157411 0.035197075 0.87563026 -0.481783 -0.034010332 0
-0.045052845 -0.055004481 0.034884762 -0.97642392 -0.21429394 -0.025971459 0
0.025459286 -0.055117108 0.034877531 0.98658794 -0.15680566 -0.045345087 0
-0.045983337 -0.045106992 0.034965679 -0.99954885 0.030019496 -0.00095062581 0
0.02571157 -0.044805177 0.035096984 0.99436212 0.10149254 -0.030712793 0
-0.04386482 -0.034982435 0.03502208 -0.91799593 0.39349765 -0.049427513 0
0.023324901 -0.034929506 0.035180882 0.933393 0.35770246 -0.028747259 0
-0.040698688 -0.028984042 0.03542744 -0.83795035 0.54249424 -0.059490804 0
-0.036148887 -0.023685254 0.034946904 -0.7072401 0.70574033 -0.041738424 0
0.016520577 -0.023874747 0.034933642 0.73931003 0.67206126 -0.04188519 0
0.020618452 -0.029073205 0.035328325 0.84228277 0.53778785 -0.03666079 0
-0.031080678 -0.019289376 0.035492774 -0.55673218 0.83031833 -0.024912473 0
-0.025004914 -0.01610199 0.035054799 -0.4146556 0.90991157 -0.011030607 0
-0.014888593 -0.01278527 0.034921046 -0.20389341 0.97875458 -0.021606468 0
-0.004998019 -0.012250903 0.034930956 0.12262513 0.99242663 -0.0072459425 0
0.0052104951 -0.015440148 0.035149295 0.44863224 0.89370584 -0.0043496629 0
0.0112353 -0.019065214 0.034980658 0.58942074 0.80723089 -0.031005818 0
-0.022492299 -0.081088744 0.044349406 -0.36962074 -0.90923727 0.19148923 0
-0.015050555 -0.082941577 0.044993393 -0.13332766 -0.96229851 0.23707667 0
-0.0052186935 -0.082486711 0.044944163 0.17783478 -0.94228369 0.28368318 0
0.0024106898 -0.080997698 0.043058272 0.3641794 -0.90638 0.21412311 0
-0.033594839 -0.073547289 0.044861734 -0.68135703 -0.69006854 0.24404539 0
-0.027160607 -0.078367285 0.045886904 -0.49619198 -0.83441669 0.23987959 0
-0.00026212865 -0.07971327 0.049663454 0.32418627 -0.8763541 0.35623977 0
0.0062541147 -0.07814049 0.046061106 0.45834702 -0.83801603 0.29605246 0
0.013792085 -0.073336422 0.044702582 0.65309626 -0.71674627 0.24441777 0
-0.041521095 -0.062860988 0.044345375 -0.87978238 -0.4152126 0.23147666 0
-0.038308736 -0.067639008 0.045975916 -0.79862005 -0.53894812 0.26784492 0
0.018322693 -0.067875817 0.046055794 0.76038533 -0.58377445 0.28464279 0
0.021967908 -0.063197017 0.044429265 0.85007602 -0.46514815 0.24699758 0
-0.04383089 -0.05491145 0.045317471 -0.94294941 -0.19652554 0.2687453 0
0.02445711 -0.055088129 0.045136012 0.9600383 -0.16152616 0.22855143 0
-0.04456865 -0.045085743 0.045129832 -0.96181232 0.05461327 0.26820579 0
0.024644043 -0.044894841 0.04483407 0.96669954 0.10645565 0.2327213 0
-0.042732943 -0.03521619 0.044938296 -0.90499055 0.32365027 0.2761206 0
-0.039544493 -0.031199129 0.049235892 -0.79962534 0.43423536 0.41477576 0
0.019374816 -0.030796673 0.048387885 0.78850466 0.50430304 0.35204959 0
0.022433838 -0.035373438 0.04473678 0.91145658 0.33850512 0.2337973 0
-0.040574376 -0.029233826 0.042577364 -0.83833867 0.52458906 0.14830607 0
-0.035529274 -0.024183571 0.045139775 -0.69144458 0.69241261 0.20608041 0
-0.029599316 -0.020256264 0.049043488 -0.51952648 0.77507418 0.35965583 0
0.0094877593 -0.020558152 0.049241669 0.54831982 0.73231804 0.40380147 0
0.015451572 -0.024488002 0.045294955 0.70956039 0.65828091 0.25137672 0
0.020429539 -0.029302975 0.041779034 0.85180026 0.50499636 0.1393372 0
-0.0307901 -0.019481689 0.042404421 -0.53810847 0.83329475 0.12672456 0
-0.025089098 -0.016982529 0.044781756 -0.40666744 0.89455611 0.18544772 0
-0.015073267 -0.013914411 0.045121491 -0.15847214 0.95521533 0.24990046 0
-0.0048442194 -0.013785701 0.045036294 0.14070264 0.94497156 0.29534981 0
0.0051321285 -0.016830824 0.045090351 0.40779287 0.87513733 0.26046056 0
0.010942713 -0.019252818 0.042401083 0.58201438 0.79845172 0.15405859 0
-0.020620942 -0.080159038 0.050122198 -0.39805686 -0.73474866 0.54926789 0
-0.014272282 -0.080630332 0.051557515 -0.069264144 -0.86183393 0.50243872 0
-0.0072007775 -0.080502495 0.05109952 0.12591375 -0.89363712 0.43076482 0
-0.031757336 -0.071899101 0.05236971 -0.65482432 -0.65052682 0.38473362 0
-0.024970004 -0.074898243 0.055104166 -0.40145954 -0.73475277 0.54678023 0
-0.01555999 -0.077254415 0.056254614 -0.12956929 -0.79580271 0.59153181 0
-0.0047170916 -0.077220201 0.055840589 0.17347789 -0.81458551 0.55349433 0
0.004691375 -0.074171014 0.055016205 0.40385002 -0.74079633 0.53677374 0
0.011748901 -0.071561158 0.052192856 0.60176939 -0.65705103 0.45404571 0
-0.040197674 -0.060770929 0.050560307 -0.83313775 -0.3748104 0.40669227 0
-0.035220563 -0.06508933 0.054953855 -0.73015785 -0.4573943 0.50760216 0
-0.028822768 -0.068905547 0.059077781 -0.47962123 -0.55599201 0.67884928 0
0.0084859161 -0.06864471 0.058811653 0.51523727 -0.58110607 0.62995726 0
0.015124268 -0.06497921 0.055014223 0.67505908 -0.4981589 0.54418105 0
0.020549895 -0.061171938 0.051001132 0.83242697 -0.38233113 0.40110886 0
-0.041304659 -0.05414293 0.052322596 -0.87071657 -0.17801893 0.45843416 0
-0.037900243 -0.055625349 0.057166908 -0.79045683 -0.19766517 0.57974696 0
0.018042421 -0.055846035 0.057670753 0.72034258 -0.26937601 0.63917381 0
0.021759121 -0.054597754 0.052851487 0.86515146 -0.18394376 0.46655923 0
-0.041587211 -0.045008376 0.052684065 -0.87639326 0.070016026 0.47647938 0
-0.038242906 -0.044730723 0.057752877 -0.7791881 0.10229746 0.61838591 0
0.01874643 -0.044415053 0.058177888 0.79636079 0.12003154 0.59279168 0
0.021742886 -0.045274258 0.053326897 0.89380848 0.11124771 0.43443108 0
-0.040786523 -0.037268668 0.051625099 -0.85095572 0.25140172 0.46116334 0
-0.036532201 -0.034395315 0.055901881 -0.73128819 0.35500532 0.58239931 0
0.016801745 -0.034304805 0.05587703 0.74871093 0.3993426 0.52911007 0
0.020869683 -0.037768714 0.051862188 0.86433572 0.2933394 0.4085044 0
-0.033202544 -0.026537053 0.053524874 -0.62164438 0.57743412 0.52927125 0
-0.02585589 -0.023089187 0.056246798 -0.41517296 0.69564933 0.58626223 0
-0.015876671 -0.021113183 0.058631964 -0.1573994 0.78034562 0.60521573 0
-0.0040200707 -0.020887187 0.058840778 0.15353337 0.79741305 0.58357507 0
0.0058814436 -0.023025332 0.056373194 0.42713663 0.70959067 0.56038851 0
0.012979822 -0.026690694 0.05388274 0.63817519 0.59731299 0.48574662 0
-0.02305744 -0.018749008 0.052194215 -0.29905751 0.83823538 0.45598924 0
-0.014558038 -0.017625637 0.053729676 -0.11496674 0.85050017 0.51325631 0
-0.0047535361 -0.017686944 0.053987712 0.12036732 0.86395782 0.48896673 0
0.003229701 -0.018700873 0.052202482 0.33789364 0.83214247 0.43973503 0
-0.022050466 -0.071196273 0.061046436 -0.31530347 -0.59962302 0.73555148 0
-0.014589581 -0.072208658 0.061988398 -0.11440194 -0.65697634 0.74518073 0
-0.0053812084 -0.072210729 0.061908919 0.15007092 -0.66551816 0.73113912 0
0.0018743238 -0.070897244 0.060809102 0.32947946 -0.65684855 0.67822808 0
-0.031665027 -0.062325533 0.061484884 -0.60692793 -0.38820913 0.69349283 0
-0.024780978 -0.065043479 0.063897461 -0.36230445 -0.48062009 0.79858619 0
-0.014966222 -0.065140188 0.0666399 -0.13715442 -0.46707529 0.87351549 0
-0.0048304372 -0.065030932 0.066626534 0.14904736 -0.46823317 0.87094349 0
0.0046522552 -0.064799897 0.063579731 0.39801279 -0.45582655 0.79612058 0
0.01150001 -0.061953567 0.061102059 0.56553829 -0.37542155 0.73431945 0
-0.03306954 -0.054669145 0.062747329 -0.66528291 -0.15981217 0.72928637 0
-0.025416477 -0.055043738 0.067671068 -0.40137601 -0.21113409 0.89124608 0
-0.016386451 -0.057917371 0.06952256 -0.14238401 -0.27994746 0.94939786 0
-0.0034866398 -0.058229625 0.069440395 0.1738531 -0.28502309 0.94262236 0
0.0052617425 -0.055244036 0.067217372 0.41911754 -0.23439176 0.87715507 0
0.013258656 -0.054686178 0.062543564 0.60163045 -0.21217963 0.77007836 0
-0.033193804 -0.044902425 0.063013501 -0.65497661 0.10293762 0.74860507 0
-0.025938928 -0.044710945 0.068026051 -0.4665381 0.10637683 0.87808102 0
0.0060264287 -0.044807523 0.068174429 0.42046419 0.010984764 0.90724266 0
0.013871673 -0.045070861 0.063281976 0.64504164 0.025879405 0.76370901 0
-0.032040313 -0.036386706 0.061819516 -0.61432868 0.3074773 0.72667599 0
-0.024981208 -0.034817059 0.065712608 -0.43079352 0.37289369 0.82180727 0
-0.015397142 -0.033487342 0.068530805 -0.16751637 0.43936607 0.88255072 0
-0.00426174 -0.033052735 0.068574212 0.1379679 0.42705712 0.89363706 0
0.0052584088 -0.034934297 0.066273704 0.40020037 0.3938596 0.82747465 0
0.012446496 -0.036005229 0.062186785 0.6416893 0.36478397 0.67466104 0
-0.023735886 -0.027539 0.062106196 -0.37359113 0.57701665 0.7262792 0
-0.014755715 -0.025693487 0.063519523 -0.14257763 0.64256257 0.75285125 0
-0.005270849 -0.025850609 0.063894823 0.11176726 0.64148581 0.75894934 0
0.0037469626 -0.027274383 0.062210221 0.36852807 0.5860588 0.72161084 0
0.010128444 -0.029859889 0.060316443 0.60597813 0.49798313 0.62032515 0
-0.020682938 -0.05110829 0.070294023 -0.28483525 -0.12656121 0.95018476 0
-0.01436549 -0.053496026 0.070929669 -0.12275472 -0.18852215 0.97436684 0
-0.0054616039 -0.053666145 0.070913196 0.13501243 -0.21202073 0.96789402 0
0.00078288524 -0.05093665 0.070232317 0.27580139 -0.075012043 0.95828319 0
-0.02117463 -0.046104636 0.070374966 -0.31936932 0.031174432 0.94711739 0
-0.014929445 -0.044947766 0.071497448 -0.1306625 0.044910017 0.9904092 0
-0.0050325906 -0.044881947 0.071495406 0.14289959 0.041658025 0.98886013 0
0.00096900406 -0.045532238 0.070308775 0.31716385 0.014241189 0.94826376 0
-0.01398021 -0.037906352 0.070555009 -0.10441561 0.26717231 0.95797515 0
-0.0057515763 -0.038008068 0.070679232 0.078561991 0.26871231 0.9600113 0
0.00025664622 -0.039662313 0.070021152 0.27697477 0.14897788 0.94925797 0
