# .PCD v0.7 - Point Cloud Data file format
VERSION 0.7
FIELDS x y z normal_x normal_y normal_z curvature
SIZE 4 4 4 4 4 4 4
TYPE F F F F F F F
COUNT 1 1 1 1 1 1 1
WIDTH 644
HEIGHT 1
VIEWPOINT 0 0 0 1 0 0 0
POINTS 644
DATA ascii
0.013368241 -0.011612057 -0.00045895186 0.059716869 -0.02168534 -0.99797976 0
-0.062668853 -0.0056990003 -0.00010558077 -7.9089208e-05 0.022303492 -0.99975127 0
-0.059672929 -0.0094204396 -1.9497566e-05 0.13144962 0.041937236 -0.99043536 0
0.0088648228 -0.00986451 -3.4752895e-05 -0.038141783 0.19744782 -0.9795711 0
0.015887186 -0.0055397544 -0.00022637627 -0.041016046 0.051821318 -0.99781376 0
0.020608462 -0.0024426093 -6.6232875e-05 0.18739101 -0.051635757 -0.98092735 0
0.018755574 0.018619716 -1.4566938e-05 0.15537664 -0.00038267617 -0.98785514 0
-0.064444795 0.027547365 -7.1690949e-05 0.11956932 -0.061798524 -0.9909007 0
0.015946923 0.026920827 -9.2946146e-05 -0.028879022 -0.041564047 -0.99871838 0
-0.061490137 0.034676317 -0.00013484195 -0.02659611 0.020971255 -0.99942631 0
-0.05616555 0.037254527 -0.00011146729 0.016753614 -0.039324626 -0.99908596 0
-0.044583917 0.037452381 -5.7873574e-05 -0.0064279418 -0.027740717 -0.99959445 0
-0.03450774 0.037618648 -7.5903852e-05 -0.0081735002 0.00030398209 -0.9999665 0
-0.025253767 0.0373873 -0.00011444317 -0.0063744704 -0.01382909 -0.99988407 0
-0.014708302 0.037135247 -0.0001631803 -0.0017344939 0.018565042 -0.99982619 0
-0.0045399368 0.036572199 -0.00019615414 0.0022694564 0.029823905 -0.99955255 0
0.0049220514 0.034959331 -0.00018634883 0.011275437 0.029065179 -0.99951398 0
0.012145571 0.032083437 -0.00011945479 0.017352404 -0.00022362667 -0.99984938 0
-0.053210516 -0.020696858 0.0062532588 -0.17656881 -0.98257583 -0.058035053 0
-0.045121301 -0.021315718 0.006013914 -0.056928001 -0.97513717 -0.2141653 0
-0.035461843 -0.021402067 0.0055108187 0.011827347 -0.96527678 -0.26096138 0
-0.025110954 -0.021278964 0.0057986774 0.016837239 -0.98164511 -0.18997191 0
-0.014853771 -0.021127027 0.0065550134 0.038839448 -0.98669147 -0.15789695 0
-0.0053254431 -0.020629233 0.0060262666 0.064921662 -0.98655242 -0.1499982 0
0.00080460712 -0.020211378 0.0067469217 0.15411541 -0.98799306 0.010871842 0
-0.064353034 -0.014119083 0.0046898406 -0.67182821 -0.64339727 -0.36699688 0
-0.055113338 -0.016289162 0.0023648343 -0.15135592 -0.50485015 -0.84983391 0
-0.044698104 -0.014896921 0.00074541889 -0.022099519 -0.17149618 -0.98493689 0
-0.034908317 -0.015491172 0.00062228006 -0.028580613 -0.25038546 -0.9677242 0
-0.025200075 -0.016635621 0.00069274323 -0.00035277911 -0.37715459 -0.92615026 0
-0.014465598 -0.016796775 0.00099713565 0.036903318 -0.45055202 -0.89198709 0
-0.0052389167 -0.01659419 0.0012410294 0.046551526 -0.48922434 -0.87091482 0
0.0054116594 -0.017622959 0.0039811507 0.17586277 -0.84072006 -0.51211542 0
0.015028565 -0.014700959 0.0046305326 0.50123829 -0.79768127 -0.33535761 0
0.020768778 -0.010879963 0.0066642421 0.74891669 -0.63974422 -0.1727746 0
-0.070951372 -0.0027363338 0.0056497031 -0.93544501 -0.29481778 -0.19500019 0
-0.067325957 -0.0055819727 0.0025460501 -0.6334064 -0.2555604 -0.73040068 0
-0.054991294 -0.0049244207 0.00051017926 0.058720998 0.042017076 -0.99738985 0
-0.045405351 -0.0053117308 0.00096102094 0.041332942 0.073093407 -0.99646831 0
-0.034825467 -0.0050866255 0.00095785008 -0.019000681 0.103173 -0.99448192 0
-0.0251165 -0.0045224121 0.00088371133 -0.012812449 0.095214866 -0.99537426 0
-0.015094002 -0.0048822891 0.00071572483 -0.0085880514 0.091267176 -0.99578947 0
-0.0044477377 -0.0050033373 0.000756283 0.008427172 0.089798369 -0.99592423 0
0.0048580389 -0.0046420693 0.0007570695 -0.022596773 0.085716762 -0.99606323 0
0.013909362 -0.0049952408 0.00041218489 0.061757647 -0.028985562 -0.99767017 0
0.022441702 -0.0044842483 0.0044451901 0.89993161 -0.25204268 -0.35580561 0
-0.0719667 0.0053735273 0.0049579702 -0.96275866 -0.052663326 -0.26518369 0
-0.065054178 0.0048258915 0.00031545412 -0.028796839 0.020639567 -0.99937218 0
-0.055635884 0.0050196783 0.00077090529 0.061121419 0.0098596895 -0.99808168 0
-0.045130469 0.0054635094 0.0012429783 0.033409797 -0.016896999 -0.99929887 0
-0.034846816 0.004702793 0.0014708991 0.0066886144 0.00093316694 -0.99997717 0
-0.024527447 0.0051117642 0.0014103148 -0.017169459 0.035059188 -0.99923772 0
-0.014427559 0.0049757096 0.0012429138 -0.014574763 0.037070062 -0.99920636 0
-0.005210449 0.0049979491 0.0011390629 -0.0094273845 0.019067995 -0.99977368 0
0.0048953118 0.0050460459 0.00091229315 -0.036134358 -0.016002258 -0.99921882 0
0.01453275 0.0051671015 0.00037962492 -0.070088878 0.021099886 -0.99731761 0
0.023742355 0.0050050747 0.0042791562 0.90623784 -0.06672436 -0.41746956 0
-0.072125927 0.01450307 0.0053735888 -0.94570327 0.046345286 -0.32171008 0
-0.065455064 0.01503902 0.00052176561 -0.093081795 0.0092168478 -0.99561572 0
-0.055058051 0.015084766 0.00078651845 0.035349954 0.0083256494 -0.99934036 0
-0.045064934 0.01497703 0.0011114295 0.026685234 -0.0027805138 -0.99963999 0
-0.034539107 0.01472593 0.0013783902 0.025889983 -0.0052556721 -0.99965101 0
-0.025172271 0.01506775 0.0015500868 -0.0024476771 -0.0035841619 -0.99999058 0
-0.014848473 0.015044097 0.0013912278 -0.017267203 -0.0033405204 -0.99984527 0
-0.0043311403 0.01479015 0.0012019143 -0.027131537 0.0036727698 -0.99962515 0
0.0048153992 0.015425128 0.00090112601 -0.034559857 0.010795354 -0.99934429 0
0.015291723 0.01500049 0.00038744704 -0.040723965 -0.0068304432 -0.99914712 0
0.023918092 0.014991554 0.0042503648 0.85425591 0.018895401 -0.51950914 0
-0.071169198 0.024990818 0.0060725426 -0.96162468 0.21020864 -0.17632462 0
-0.065483309 0.025079045 0.00096812262 -0.22669263 0.050593752 -0.97265136 0
-0.054997202 0.025139622 0.00089031778 0.052162264 -0.0091279382 -0.99859691 0
-0.044882715 0.024362272 0.0011494466 0.016060587 -0.018321976 -0.99970323 0
-0.03482876 0.025272127 0.0012297466 0.0074622119 -0.061413731 -0.99808455 0
-0.025266169 0.025032684 0.0012632944 -0.0067059947 -0.083397329 -0.99649388 0
-0.014767093 0.025123816 0.0011316233 -0.015540621 -0.067353189 -0.99760813 0
-0.0044246097 0.025246708 0.00098850578 -0.009854801 -0.054772213 -0.99845028 0
0.0047308928 0.024864733 0.00081853801 -0.036566164 -0.037715003 -0.99861932 0
0.01492861 0.025054893 0.00030439463 0.0098958062 -0.027106024 -0.99958354 0
0.023480183 0.024870763 0.0046892725 0.90150321 0.16422783 -0.40040132 0
-0.070021495 0.030208174 0.0032694235 -0.92804825 0.37203038 0.017885061 0
-0.065923087 0.035100013 0.003869466 -0.74580836 0.41891035 -0.51796138 0
-0.055180341 0.034510639 0.00036283443 0.040166069 0.0094203753 -0.99914861 0
-0.0449882 0.034704611 0.00036716938 -0.012999355 -0.04146288 -0.99905545 0
-0.035096742 0.033815369 0.00035796533 -0.011940909 -0.084566705 -0.99634629 0
-0.024984397 0.032827824 0.00034311175 -0.0085131517 -0.11619541 -0.99318987 0
-0.014758165 0.03359957 0.00030257326 0.0044796378 -0.069245517 -0.99758959 0
-0.0052500884 0.033404976 0.00033044344 0.0023272699 -0.081177406 -0.99669695 0
0.0050246431 0.035088066 0.00057458127 0.042408068 0.16877577 -0.98474175 0
0.015865428 0.036439095 0.0033915201 0.40131965 0.71351165 -0.57432026 0
0.021701938 0.032787472 0.0052698646 0.87519008 0.45075217 -0.17568357 0
-0.062374882 0.041137729 0.0053208489 -0.45062461 0.86851889 -0.20642763 0
-0.055186149 0.042755984 0.0049044075 -0.16566421 0.92478544 -0.34253079 0
-0.045151211 0.043624733 0.004281546 -0.072155923 0.87905633 -0.47122556 0
-0.034962483 0.043826759 0.0044303872 0.005093337 0.88942838 -0.45704618 0
-0.025230745 0.043719009 0.0045013065 0.029868083 0.90057212 -0.43367919 0
-0.014969948 0.043211829 0.0042885984 0.042309202 0.87913918 -0.47468328 0
-0.0048247464 0.042799868 0.0041068816 0.071512684 0.88846022 -0.45334795 0
0.0047453823 0.041857183 0.0056152944 0.24581319 0.92751199 -0.28159803 0
0.011622155 0.040414356 0.0075305896 0.32977858 0.92959648 -0.16461015 0
-0.052870769 -0.020465728 0.012344601 -0.14643733 -0.97595674 0.16144499 0
-0.044425927 -0.021188719 0.013660017 -0.1193866 -0.97139496 0.20527706 0
-0.035145238 -0.021379184 0.015311766 -0.026056226 -0.98699623 0.15861785 0
-0.025336294 -0.021533288 0.015128298 -0.0051010097 -0.99874324 0.049858335 0
-0.015068527 -0.021388991 0.014657285 0.032896549 -0.99940956 0.009918835 0
-0.0049861092 -0.020808658 0.01519008 0.11013214 -0.99334079 0.033837281 0
0.00060915714 -0.020122912 0.011583012 0.18362918 -0.98255378 0.029469606 0
-0.064220265 -0.014200032 0.01435499 -0.66622108 -0.65761638 0.3516961 0
-0.055782173 -0.018227382 0.016045082 -0.30342379 -0.88637722 0.34967056 0
-0.046656962 -0.019691128 0.018083388 -0.1346653 -0.97772485 0.16099516 0
-0.00041780155 -0.019957082 0.019746048 0.14162378 -0.98305571 0.11637979 0
0.0054036826 -0.019107059 0.014845177 0.19309229 -0.98082769 0.026315751 0
0.015291402 -0.016012663 0.015077269 0.46896425 -0.88319379 0.0064311903 0
0.021021279 -0.011382624 0.016144594 0.83157307 -0.55458689 -0.03032716 0
-0.070969202 -0.0030947884 0.012618887 -0.95889926 -0.22332707 0.175035 0
-0.067536972 -0.0059955493 0.016316535 -0.79477566 -0.29081777 0.53268814 0
0.023579663 -0.0052466919 0.015044748 0.95118582 -0.30288455 -0.059215032 0
-0.07168828 0.0054372 0.013183399 -0.94111466 -0.077704549 0.32903698 0
-0.068730593 0.0046406225 0.018164296 -0.87473941 -0.14723296 0.46168545 0
0.0255161 0.0050038528 0.015130275 0.99400389 -0.088573106 -0.064117715 0
-0.071850725 0.014582518 0.013620924 -0.94334805 0.038123623 0.32960731 0
-0.06896545 0.014807579 0.018524177 -0.7990728 0.08957646 0.59452391 0
0.0258362 0.015122204 0.014716461 0.99758166 0.026693333 -0.064173952 0
-0.071082294 0.02395216 0.012858586 -0.94327617 0.18920644 0.27282065 0
-0.068060219 0.025545983 0.017441535 -0.77389675 0.21106444 0.5971061 0
0.024726048 0.025249204 0.014917688 0.97787976 0.20476002 -0.042715471 0
-0.065757141 0.035052422 0.014961779 -0.77876526 0.44358489 0.44357297 0
-0.058536798 0.039167084 0.018683031 -0.41154301 0.8272444 0.38249055 0
0.016588824 0.038353089 0.015163694 0.51833063 0.85517687 0.0024315447 0
0.021974191 0.033177905 0.015042256 0.85883808 0.51185495 -0.020039406 0
-0.061920039 0.041384161 0.012840971 -0.46044421 0.86233199 0.21065316 0
-0.054768868 0.042504515 0.015138969 -0.24094467 0.90777153 0.34336057 0
-0.044749852 0.044116452 0.015148197 -0.097655363 0.96728545 0.23414157 0
-0.035186172 0.044889919 0.015054394 -0.040386248 0.98876387 0.14392674 0
-0.025100457 0.045090225 0.014936199 0.0079203006 0.99877858 0.048770886 0
-0.015161715 0.044749092 0.01512487 0.044981003 0.99804169 0.0434696 0
-0.0050636753 0.044124063 0.015010205 0.1140943 0.9932788 0.019486887 0
0.0050701587 0.042247918 0.014917281 0.21690677 0.97530705 0.041563861 0
0.011798388 0.040559929 0.014900773 0.31692943 0.9483735 0.011978264 0
-0.040299479 -0.02002296 0.021303227 -0.069800764 -0.99673849 0.040500235 0
-0.034200136 -0.020299237 0.024857152 -0.06543979 -0.99704731 0.04017872 0
-0.024701161 -0.020719636 0.024750073 -0.022163894 -0.99778497 0.062721767 0
-0.014966512 -0.020792793 0.025042808 0.022574501 -0.99791777 0.060419593 0
-0.0070421859 -0.020345716 0.024117498 0.090974644 -0.99320185 0.072619773 0
-0.061615441 -0.012018237 0.024583429 -0.77919996 -0.62530446 0.042914685 0
-0.055050794 -0.016404511 0.025085025 -0.387128 -0.91932374 0.070538573 0
-0.045266319 -0.019033646 0.024814125 -0.16587901 -0.97932774 0.11576469 0
-0.038547512 -0.0198565 0.027429558 -0.10721412 -0.99264759 0.056177184 0
-0.0022628561 -0.019718993 0.026047969 0.12304139 -0.99053043 0.060911208 0
0.0044715581 -0.018817473 0.025076101 0.15600514 -0.98637682 0.052185237 0
0.015066542 -0.016058564 0.024606928 0.41847509 -0.90799695 0.020498397 0
0.021145731 -0.01158077 0.024675202 0.8175754 -0.5755744 -0.016870679 0
-0.065164678 -0.0049262987 0.024788534 -0.94007307 -0.33946323 0.032052983 0
0.024145218 -0.0049385712 0.024722846 0.9505102 -0.30898312 -0.032552443 0
-0.067389905 0.0047463081 0.025148908 -0.99352425 -0.10456842 0.044441592 0
0.026152363 0.0052837129 0.024992406 0.99388885 -0.09514305 -0.055970464 0
-0.067272767 0.01485047 0.024679622 -0.99480796 0.082372561 0.059765957 0
0.026475925 0.014796134 0.024870155 0.99752235 0.040239919 -0.057705346 0
-0.065892674 0.024868654 0.024793472 -0.96845669 0.24756731 0.028321633 0
0.025208857 0.024913689 0.02512205 0.97473919 0.21973142 -0.040018156 0
-0.062483069 0.033707749 0.025428211 -0.88102514 0.47301435 0.007213396 0
-0.058403265 0.03854062 0.024654072 -0.51903874 0.85342133 0.047654469 0
0.016082522 0.038434599 0.025072616 0.44249436 0.89665377 0.014521567 0
0.022164207 0.03317485 0.02483039 0.86256903 0.50574899 -0.013881342 0
-0.053027201 0.040691603 0.02507659 -0.231122 0.97156191 0.051477905 0
-0.045031864 0.042317078 0.025080835 -0.16910079 0.98422718 0.051978275 0
-0.034982555 0.043617066 0.024969336 -0.080516309 0.99559414 0.048055839 0
-0.025150996 0.044124585 0.024829585 -0.019523513 0.99766165 0.0654983 0
-0.014647969 0.043954283 0.025056662 0.044332415 0.99690342 0.064947575 0
-0.005447329 0.043140702 0.025055705 0.12679356 0.98834616 0.08423347 0
0.0051214453 0.041524269 0.02513116 0.19477539 0.97858721 0.066554189 0
0.011046483 0.040291321 0.024028493 0.22452259 0.97209179 0.068023227 0
-0.032090131 -0.020113578 0.033208717 -0.073566787 -0.99629384 0.044571385 0
-0.025141206 -0.020311937 0.034888122 -0.02679134 -0.99879599 0.04109617 0
-0.015097811 -0.020433109 0.034735467 0.033402566 -0.99866056 0.039512485 0
-0.0085640904 -0.020083366 0.03213986 0.10837049 -0.99258471 0.0550576 0
-0.061238002 -0.011703141 0.034972131 -0.77856839 -0.62532723 0.052889127 0
-0.054994501 -0.015729345 0.035114713 -0.36748353 -0.92800051 0.061408542 0
-0.045352697 -0.018158112 0.03482325 -0.18439731 -0.98119158 0.057103045 0
-0.036017232 -0.019622417 0.035354868 -0.11427249 -0.99144471 0.063080855 0
-0.02930608 -0.019952461 0.039855778 -0.042071074 -0.99723881 0.061194822 0
-0.01069205 -0.019906597 0.039671559 0.10875016 -0.9927792 0.050624352 0
-0.0046165385 -0.019488556 0.034990683 0.10960729 -0.99250138 0.054104913 0
0.0049407664 -0.018200964 0.03506704 0.17564125 -0.98270178 0.058715533 0
0.014883155 -0.015751351 0.034991626 0.3622137 -0.93105882 0.043941051 0
0.021299943 -0.011477893 0.035008725 0.78643435 -0.61767334 0.00082724192 0
-0.06467212 -0.0052213464 0.035105318 -0.9315477 -0.36171779 0.037135899 0
0.024343682 -0.0053067044 0.035034996 0.94001609 -0.33990186 -0.028922554 0
-0.067262918 0.0054362542 0.034856122 -0.99403173 -0.10656764 0.02333172 0
0.026650226 0.0051468806 0.035090946 0.99147689 -0.12130107 -0.047535982 0
-0.067205027 0.015260621 0.035334129 -0.99713182 0.075675413 0.0011301469 0
0.027026275 0.014742808 0.034985658 0.99752337 0.051488541 -0.047917686 0
-0.06573683 0.024922648 0.034740798 -0.96600145 0.2573964 0.024252973 0
0.025544344 0.025195193 0.034722138 0.96940732 0.24271268 -0.036604922 0
-0.062145751 0.033576362 0.035215992 -0.85318166 0.51965243 0.045194078 0
-0.056901723 0.038724758 0.034845594 -0.45275772 0.88996124 0.054584224 0
0.0095255449 0.039899763 0.038208824 0.21000288 0.97624481 0.053337622 0
0.015406887 0.038380511 0.034803879 0.37213549 0.92747289 0.036182363 0
0.022365706 0.032991901 0.035055656 0.83947212 0.54334724 -0.0077706315 0
-0.051835865 0.040460952 0.034736622 -0.22372653 0.97331345 0.051061649 0
-0.044472195 0.041884415 0.034966469 -0.16643319 0.98465914 0.052406557 0
-0.035111096 0.04313251 0.034689039 -0.094893061 0.99411315 0.052290935 0
-0.025000982 0.043636952 0.035130747 -0.0075126765 0.99884653 0.047425844 0
-0.014820579 0.043350521 0.035464704 0.04919982 0.99701464 0.059507746 0
-0.0047850348 0.042499673 0.034870345 0.118088 0.99130154 0.058107916 0
0.0048876493 0.041011512 0.035737507 0.19294493 0.97982538 0.052099392 0
-0.022236221 -0.020084316 0.041225322 -0.029210413 -0.99788463 0.058077939 0
-0.016038947 -0.020143406 0.042018618 0.019859357 -0.99799228 0.060140748 0
-0.060879763 -0.01134145 0.044535808 -0.79016209 -0.61053246 0.05379729 0
-0.054929126 -0.015085141 0.04498066 -0.36880189 -0.92789757 0.054692134 0
-0.045043476 -0.017618073 0.04484807 -0.18496229 -0.98081106 0.061633121 0
-0.034396619 -0.019155011 0.045219988 -0.10717624 -0.99217248 0.064086422 0
-0.025357466 -0.019728372 0.045667246 -0.034047298 -0.99766237 0.059251241 0
-0.014268667 -0.019767284 0.046462398 0.052238215 -0.99683791 0.059878267 0
-0.004819802 -0.018977942 0.045028314 0.11774254 -0.99153674 0.054693788 0
0.004802519 -0.017589258 0.045176327 0.17152067 -0.98300779 0.065394342 0
0.015528467 -0.015092952 0.045050636 0.36195445 -0.93130821 0.04066911 0
0.02135588 -0.011379266 0.044950534 0.74379599 -0.66839457 0.0040362002 0
-0.064411268 -0.0048410269 0.044743929 -0.92900348 -0.36743209 0.044115406 0
0.024586473 -0.0054330225 0.044999931 0.93285781 -0.3591888 -0.027562015 0
-0.066954263 0.0053755338 0.044614997 -0.99036014 -0.13202487 0.041907847 0
0.027098391 0.0051023206 0.044987548 0.99061936 -0.12977326 -0.042805135 0
-0.067121752 0.014971036 0.044901315 -0.99680257 0.074095532 0.02990564 0
0.027451033 0.014969808 0.044835471 0.9971323 0.062170275 -0.043152768 0
-0.065302409 0.025212944 0.045188993 -0.95690566 0.28710863 0.043591376 0
0.02586239 0.025345091 0.04482371 0.96313155 0.26700497 -0.032953229 0
-0.062143248 0.032726076 0.045029741 -0.85412782 0.51754618 0.051103383 0
-0.056244224 0.03825061 0.045102734 -0.45433691 0.88895071 0.05783201 0
0.0083444333 0.039673407 0.046351314 0.20804782 0.97631681 0.059343666 0
0.015236164 0.037949555 0.045135528 0.33940548 0.93952185 0.045853656 0
0.022452064 0.032960452 0.044722982 0.81570739 0.5784623 -0.0017273244 0
-0.050806489 0.040212817 0.043977086 -0.22197826 0.97372317 0.050879292 0
-0.045044374 0.041230138 0.045244783 -0.16761045 0.98438096 0.053859189 0
-0.035107989 0.042590786 0.044743072 -0.095604904 0.9939096 0.054802105 0
-0.024946686 0.043132637 0.044891346 -0.0050163637 0.9984653 0.055152353 0
-0.015043689 0.042789213 0.044789068 0.05985295 0.99617803 0.063615508 0
-0.0051875659 0.041947704 0.044654742 0.11595135 0.9912836 0.06254746 0
0.0036936682 0.040696859 0.044970404 0.17689227 0.98204505 0.065548427 0
-0.060583804 -0.010758815 0.055238854 -0.78395987 -0.61825913 0.056235526 0
-0.055401396 -0.014373552 0.05495384 -0.41923821 -0.90642166 0.051373478 0
-0.045261573 -0.016992996 0.054832637 -0.16251269 -0.98556477 0.047452081 0
-0.035076287 -0.018428069 0.054985046 -0.11362544 -0.99146414 0.063938238 0
-0.024661165 -0.019192146 0.054946657 -0.039655279 -0.99737352 0.060610041 0
-0.014720133 -0.019234845 0.054916039 0.033196505 -0.99696332 0.070442647 0
-0.0055488423 -0.018479314 0.055068556 0.13066389 -0.98945832 0.062443126 0
0.0048146974 -0.01691849 0.054881714 0.15581834 -0.98577356 0.06301631 0
0.015828623 -0.014520801 0.054780953 0.36310735 -0.93077791 0.042491563 0
0.021404305 -0.011240932 0.054722924 0.72534806 -0.68835998 0.0055402718 0
-0.06371849 -0.0051233582 0.055180084 -0.9154492 -0.39863473 0.055165458 0
0.02490324 -0.0053513623 0.055212226 0.92333037 -0.38323772 -0.024284184 0
-0.066399306 0.0050011645 0.054980889 -0.98760533 -0.14918426 0.048783094 0
0.027486067 0.0049164142 0.055000458 0.99056184 -0.13163646 -0.038199216 0
-0.06663169 0.015309923 0.054844286 -0.99430978 0.090249874 0.056596257 0
0.02787344 0.014916217 0.055081662 0.99784774 0.049652413 -0.04283119 0
-0.064683639 0.025488082 0.055180978 -0.95372558 0.29594591 0.053137004 0
0.026288742 0.02495254 0.0547092 0.95891494 0.28207877 -0.030227551 0
-0.061618101 0.032562118 0.054990333 -0.83674645 0.54398203 0.062760614 0
-0.055606041 0.037805427 0.055366505 -0.46452662 0.88363343 0.058369055 0
-0.048850249 0.039883424 0.0574845 -0.17710285 0.98265612 0.054967564 0
0.0069725476 0.039379887 0.055420488 0.19348915 0.97900325 0.064144529 0
0.01462269 0.037657391 0.054907098 0.28975111 0.95566195 0.052483797 0
0.022243202 0.03318765 0.054495111 0.76386976 0.64534378 0.0058699311 0
-0.044552118 0.040832128 0.054107703 -0.16297181 0.98513538 0.054300964 0
-0.035165023 0.041978974 0.055378977 -0.09078154 0.99428099 0.056250308 0
-0.025158154 0.042517543 0.055242393 -0.0081168162 0.99818116 0.059736021 0
-0.014876675 0.042156 0.054508056 0.061216496 0.99612588 0.063132979 0
-0.0049148756 0.041207116 0.055261821 0.12381363 0.98991233 0.068874255 0
0.0021023108 0.040341709 0.054044291 0.14739767 0.9865011 0.071340948 0
-0.060298491 -0.010338993 0.063888788 -0.78120309 -0.62166524 0.057043284 0
-0.055552579 -0.013625817 0.065239742 -0.45167688 -0.88997233 0.062747337 0
-0.044995271 -0.016542321 0.064732425 -0.1653937 -0.98489422 0.051266652 0
-0.035246398 -0.01785 0.064749867 -0.10565358 -0.99306387 0.051589608 0
-0.024765126 -0.018567288 0.064967237 -0.033383723 -0.99756986 0.061155386 0
-0.015160144 -0.018546985 0.064974889 0.027253652 -0.9975459 0.064493023 0
-0.0050893761 -0.017885881 0.065087043 0.11739076 -0.9920789 0.044709172 0
0.0050149071 -0.016414959 0.065435804 0.16382428 -0.98588425 0.034553789 0
0.01514743 -0.01423686 0.065411679 0.29865345 -0.95308673 0.049312875 0
0.021322731 -0.011262499 0.064913392 0.68903333 -0.72469658 0.006926375 0
-0.063286193 -0.0046718945 0.065210693 -0.92048097 -0.38574266 0.062588915 0
0.025196733 -0.0050757024 0.065027356 0.9133454 -0.40698722 -0.012712842 0
-0.065844029 0.0048270342 0.064853214 -0.98710984 -0.14882113 0.058876824 0
0.027857838 0.0051130732 0.065208577 0.99062312 -0.13332416 -0.029840603 0
-0.06605953 0.014983148 0.064868562 -0.9929862 0.10022373 0.062719159 0
0.028281415 0.014757711 0.06509994 0.99842793 0.046226773 -0.031696845 0
-0.064221919 0.025098858 0.064988129 -0.95799375 0.27996799 0.062176574 0
0.026580291 0.024894234 0.065114036 0.95214838 0.30485311 -0.021862483 0
-0.06137684 0.031803988 0.064817823 -0.81556153 0.57473665 0.067357905 0
-0.055392157 0.0371833 0.065247238 -0.48504639 0.87233347 0.061354022 0
-0.048004445 0.039596532 0.065594785 -0.18007602 0.98228717 0.051811814 0
-0.00089343754 0.039822306 0.067537807 0.14244871 0.9879905 0.059859827 0
0.0047966195 0.039086018 0.065300733 0.16587992 0.9840039 0.064962201 0
0.015204197 0.03694281 0.064898618 0.28861484 0.95590979 0.054201741 0
0.022691725 0.032580417 0.065264322 0.76325709 0.64604682 0.007876859 0
-0.042881731 0.040528584 0.065217786 -0.15410799 0.98670876 0.051540669 0
-0.035389315 0.041421872 0.064987026 -0.08826521 0.99458593 0.054845415 0
-0.024836877 0.041950688 0.064883627 -0.0023358567 0.99824452 0.059180342 0
-0.014832907 0.04151348 0.065030836 0.065215424 0.99611503 0.059175991 0
-0.0052467044 0.040607173 0.064839453 0.13256082 0.98916447 0.063097633 0
0.00039185086 0.040044062 0.061380737 0.13583438 0.98805505 0.072775975 0
-0.054800157 -0.013211454 0.075112581 -0.43529785 -0.89770168 0.068172291 0
-0.045312066 -0.01593373 0.07522808 -0.18125692 -0.98182648 0.056238204 0
-0.035092052 -0.017301086 0.075325221 -0.096123964 -0.99389154 0.054219883 0
-0.024696322 -0.017991165 0.074732304 -0.029871665 -0.99784142 0.058482639 0
-0.01501422 -0.017958513 0.074884929 0.023309516 -0.99807298 0.057506759 0
-0.0048856921 -0.017315539 0.074877471 0.098788552 -0.99302697 0.064330548 0
0.0050840923 -0.015980905 0.07474605 0.18423066 -0.98155153 0.051143929 0
0.014827384 -0.013843444 0.074772604 0.27266684 -0.96097445 0.046699986 0
0.021292092 -0.011072017 0.074839264 0.66010278 -0.75083464 0.022618704 0
-0.062510766 -0.0048137112 0.075024009 -0.91107631 -0.40560105 0.073672727 0
-0.059689675 -0.0095964009 0.07765194 -0.754035 -0.6521647 0.078182846 0
0.025067132 -0.0055718082 0.074891672 0.89202029 -0.4519164 -0.0084371744 0
-0.065204285 0.0053529274 0.074912861 -0.98811769 -0.13113858 0.080162264 0
0.0280618 0.0046143951 0.074795529 0.98892725 -0.14616495 -0.025663354 0
-0.06531617 0.015315348 0.075236641 -0.99308705 0.09092056 0.07423953 0
0.02853111 0.015327184 0.075335361 0.99787015 0.060036723 -0.025508657 0
-0.063464351 0.025099186 0.075383723 -0.95601904 0.28466201 0.070676722 0
0.026700761 0.025157336 0.075107321 0.94490165 0.32689679 -0.017299552 0
-0.060891382 0.031460069 0.075279556 -0.8373192 0.54367864 0.057532936 0
-0.055320997 0.036537629 0.07506647 -0.50600606 0.86049688 0.059185419 0
-0.046553642 0.03937513 0.074930184 -0.18010102 0.98230517 0.051381808 0
-0.0030173552 0.039649036 0.075506166 0.13945211 0.98843664 0.059548292 0
0.0049610683 0.038457651 0.075120769 0.1694501 0.98380297 0.058467437 0
0.014810836 0.036439762 0.075233795 0.25393561 0.96560413 0.055904903 0
0.022459194 0.032656331 0.074700668 0.71524489 0.6987021 0.01549596 0
-0.041367434 0.040271539 0.074642926 -0.12673664 0.99054509 0.052518956 0
-0.034868509 0.040902216 0.075072624 -0.080157608 0.99513614 0.05726067 0
-0.024893621 0.041311905 0.075388826 0.0015494371 0.99804962 0.062405236 0
-0.015237056 0.040946648 0.074792452 0.072689511 0.99541098 0.06223572 0
-0.0073464136 0.040329337 0.073830366 0.11049677 0.99183148 0.063723415 0
-0.054549258 -0.012755714 0.084703907 -0.44633341 -0.89221174 0.068881489 0
-0.044828217 -0.015437782 0.084814586 -0.17665388 -0.98227417 0.062696859 0
-0.035068732 -0.016766403 0.085059814 -0.094005287 -0.99402779 0.055424161 0
-0.025154572 -0.017373921 0.085000798 -0.032253362 -0.99778986 0.058095671 0
-0.014868343 -0.017381396 0.084669217 0.029103961 -0.99781835 0.059257753 0
-0.0046676467 -0.016658651 0.084797047 0.094340444 -0.99360007 0.062119525 0
0.0050495146 -0.015364772 0.085335784 0.17154463 -0.98309278 0.064039215 0
0.015113995 -0.013316547 0.084770314 0.26542446 -0.96300715 0.046551887 0
0.021008283 -0.010963863 0.08504767 0.60485101 -0.79582226 0.028676525 0
-0.061912872 -0.0043883841 0.084824763 -0.91338348 -0.39836416 0.083885252 0
-0.059308458 -0.0089612175 0.08609686 -0.77798152 -0.6231491 0.08018712 0
0.025535248 -0.0047343215 0.084949143 0.89657307 -0.44283259 -0.0074920324 0
-0.064306729 0.0048367823 0.08490245 -0.98740119 -0.13348676 0.084972188 0
0.028447015 0.0055667218 0.085087299 0.99140048 -0.12869783 -0.0237046 0
-0.064483754 0.015045668 0.08519201 -0.99325007 0.071826421 0.09107817 0
0.028820613 0.014651993 0.08547698 0.99888676 0.04095054 -0.023415366 0
-0.062792331 0.024908578 0.084947087 -0.94957846 0.30301681 0.080508143 0
0.026883541 0.025078231 0.084930532 0.93512863 0.35417828 -0.0095967557 0
-0.060465056 0.031013537 0.083851747 -0.85085219 0.51899987 0.081789806 0
-0.055541176 0.035503771 0.085095003 -0.54829597 0.83303154 0.073688142 0
-0.044658482 0.039171901 0.08497981 -0.16423419 0.98493439 0.054141734 0
-0.038790073 0.039854668 0.087833017 -0.10823148 0.99260861 0.054900881 0
-0.011768635 0.03984753 0.087253742 0.088950701 0.99409032 0.062226642 0
-0.0046713171 0.039278779 0.084988065 0.12069191 0.99072188 0.062478594 0
0.0053286911 0.03782003 0.084804855 0.1726553 0.98325586 0.058293276 0
0.015405891 0.035734508 0.085181899 0.26223248 0.96358603 0.052307807 0
0.022729147 0.032111965 0.085491009 0.69941193 0.71418542 0.027608221 0
-0.040318806 0.040047038 0.081197292 -0.11285073 0.99212027 0.05442559 0
-0.034222662 0.040377066 0.085038453 -0.073119298 0.99560797 0.058466695 0
-0.024690172 0.040703762 0.084995359 0.0075709382 0.99806082 0.061784137 0
-0.016279384 0.040426157 0.084344298 0.072730288 0.9953531 0.063106529 0
-0.0094128866 0.040074423 0.08076793 0.086739779 0.9939689 0.067097552 0
-0.053310327 -0.012594747 0.095175289 -0.41904444 -0.9051311 0.071689218 0
-0.04504592 -0.014744942 0.094687395 -0.16580714 -0.98406976 0.064145826 0
-0.034820952 -0.016225981 0.094864018 -0.10174656 -0.99312216 0.057931453 0
-0.025111906 -0.016798474 0.094861284 -0.026742605 -0.99793118 0.058464121 0
-0.015009079 -0.01676427 0.094869174 0.0360386 -0.99749172 0.060922731 0
-0.0050676772 -0.01607847 0.094873764 0.093206644 -0.99386215 0.059586227 0
0.0049245353 -0.014752875 0.095003314 0.16561309 -0.98447865 0.058087461 0
0.015179047 -0.012758537 0.094958365 0.25317207 -0.96607703 0.050980922 0
0.020902492 -0.010703612 0.094203696 0.56144226 -0.82684982 0.033195946 0
-0.061429512 -0.0032685157 0.094879486 -0.92375207 -0.37024584 0.097980075 0
-0.058556907 -0.0085075088 0.095597222 -0.80282307 -0.58859015 0.095061623 0
0.025584467 -0.0047670766 0.095210306 0.88241017 -0.47044808 0.0055555059 0
-0.063406266 0.0051029618 0.095061451 -0.98694187 -0.12781249 0.098028615 0
0.028531471 0.0045684166 0.095269516 0.98922825 -0.14579166 -0.013122585 0
-0.063624449 0.014708657 0.094921939 -0.9932934 0.068300627 0.093290426 0
0.029016906 0.015029359 0.095015295 0.99866545 0.048214816 -0.018510204 0
-0.061879598 0.024751082 0.094706625 -0.95147723 0.28961912 0.10397975 0
-0.059787937 0.029518014 0.097982287 -0.88509238 0.4553346 0.096342809 0
0.026866045 0.025236143 0.094989054 0.92792618 0.37275976 0.0017904557 0
-0.060138978 0.030290592 0.090942666 -0.84259909 0.52975696 0.096872307 0
-0.054887511 0.035088714 0.095237046 -0.55640888 0.82720059 0.07841108 0
-0.045053702 0.038532715 0.09499117 -0.16854684 0.98403883 0.057091046 0
-0.035860699 0.039658863 0.095438637 -0.08333949 0.99494183 0.056082875 0
-0.024243128 0.039915495 0.098401621 0.011266009 0.99826163 0.057851925 0
-0.014704312 0.039608933 0.09579026 0.08187487 0.99499655 0.057258599 0
-0.0053522838 0.038755715 0.094734333 0.11508529 0.99154186 0.060000375 0
0.0051277978 0.037232731 0.095241666 0.16374832 0.98472297 0.059221614 0
0.015051251 0.035282779 0.094863325 0.24387592 0.96824491 0.055013016 0
0.022420347 0.031947386 0.094590366 0.65554452 0.75420415 0.037914477 0
-0.031604648 0.0401446 0.092090033 -0.067463405 0.99614495 0.05607041 0
-0.025512198 0.04020508 0.093598604 0.00064896082 0.99843621 0.055899262 0
-0.018343318 0.040146496 0.091947034 0.060287707 0.99646604 0.058487218 0
-0.053357001 -0.0118836 0.10450026 -0.47101009 -0.87861985 0.078591943 0
-0.044982515 -0.014180424 0.10528763 -0.17150815 -0.98400307 0.048195448 0
-0.034801476 -0.015619215 0.10513356 -0.093483582 -0.9937889 0.06036872 0
-0.025167141 -0.016199611 0.104933 -0.027673563 -0.99774593 0.061133951 0
-0.014916784 -0.016149515 0.10515248 0.03125897 -0.99776107 0.059124589 0
-0.0053602061 -0.015469023 0.1053307 0.096193828 -0.99344528 0.061752513 0
0.0053942273 -0.014119876 0.10508221 0.15608649 -0.98617095 0.055712543 0
0.014848187 -0.012349887 0.10499434 0.24103774 -0.96954399 0.043419365 0
0.020678639 -0.01048636 0.10341767 0.54924351 -0.83500504 0.033138033 0
-0.060764272 -0.0024140088 0.1041143 -0.93390256 -0.34059945 0.10871101 0
-0.058244154 -0.0072065955 0.10504407 -0.83040524 -0.54752791 0.10315211 0
0.025255166 -0.0050800592 0.10483114 0.85739148 -0.51448214 0.013709029 0
-0.062333297 0.0047785835 0.10465237 -0.98470646 -0.13383782 0.11153718 0
0.028660866 0.004978939 0.10494694 0.9891414 -0.14687492 -0.0052097337 0
-0.062566593 0.014967008 0.10496943 -0.99007106 0.086833894 0.11054056 0
0.029112892 0.015205157 0.10477089 0.99731404 0.072342388 -0.011460518 0
-0.061060298 0.023983637 0.10457812 -0.95608735 0.27183235 0.10956367 0
-0.059319258 0.028505204 0.10605326 -0.90220279 0.41756657 0.10802019 0
0.026857572 0.025092712 0.10519629 0.92319161 0.38430822 0.0049514701 0
-0.054956596 0.034085646 0.10498383 -0.63319153 0.76795846 0.096480161 0
-0.045389023 0.037883043 0.10528182 -0.17590261 0.9827975 0.056279428 0
-0.034713268 0.039247867 0.10445333 -0.074047059 0.99570477 0.055578314 0
-0.025135625 0.039550982 0.10500415 0.0075285472 0.99829108 0.057949539 0
-0.015057551 0.039092686 0.1052136 0.081003755 0.9949646 0.059024345 0
-0.0052666734 0.038092986 0.10520817 0.11850476 0.99100238 0.062216148 0
0.0048252237 0.03667799 0.1053371 0.15268032 0.98650551 0.059124328 0
0.014925055 0.034762774 0.10513071 0.24854589 0.96759087 0.044639997 0
0.02245165 0.031541362 0.10497336 0.61591631 0.78754288 0.020573253 0
-0.052548133 -0.011453327 0.11466929 -0.49409941 -0.86526495 0.084748931 0
-0.045064531 -0.013652437 0.11511315 -0.18274036 -0.98158801 0.055596039 0
-0.034952074 -0.015000184 0.11500873 -0.085214823 -0.99446952 0.061390728 0
-0.024996661 -0.015576962 0.11484656 -0.028122094 -0.99756658 0.063797429 0
-0.015101684 -0.015559479 0.11514316 0.025632294 -0.99780488 0.061059274 0
-0.0049410309 -0.014796427 0.11517689 0.10336006 -0.99251944 0.064976685 0
0.0051307669 -0.013608789 0.11461291 0.14783187 -0.9873777 0.056842748 0
0.015281396 -0.01178615 0.11522321 0.23735128 -0.97026652 0.047405202 0
0.020369129 -0.010332663 0.11246008 0.50668865 -0.86138606 0.035786375 0
-0.060245614 -0.0007702412 0.11340368 -0.95981455 -0.25556335 0.11594636 0
-0.0575407 -0.0059385989 0.11511283 -0.84689784 -0.51739377 0.12275071 0
0.024557175 -0.0057584532 0.11483297 0.80661631 -0.59061998 0.023197623 0
-0.061188869 0.0050053457 0.1149547 -0.98198527 -0.14507498 0.12107116 0
-0.059797514 0.00040178382 0.11943975 -0.96653849 -0.22792518 0.11770092 0
0.02872921 0.0052297553 0.11474635 0.98874658 -0.14959085 -0.0016621702 0
-0.061426435 0.014888467 0.11477478 -0.98827457 0.093590438 0.12064105 0
0.029215936 0.014699652 0.11543752 0.99733806 0.072905079 0.0012643897 0
-0.060475215 0.022355614 0.11359455 -0.96972758 0.21667048 0.11261564 0
-0.058742937 0.02674 0.1158596 -0.917656 0.37876311 0.12019177 0
0.026553087 0.025425445 0.1151664 0.9067865 0.42110148 0.020294491 0
-0.054132067 0.033618107 0.11477987 -0.65344286 0.74962264 0.10525376 0
-0.044818245 0.037437309 0.11470513 -0.17517915 0.98289239 0.056875177 0
-0.035043191 0.038611025 0.11497479 -0.072003752 0.99572593 0.057838835 0
-0.02462269 0.038975272 0.11478091 0.011666412 0.99818861 0.059021294 0
-0.014852574 0.038455971 0.11529086 0.086157881 0.99424112 0.063729294 0
-0.0052289898 0.037475087 0.1149986 0.12048568 0.99076802 0.062145539 0
0.004975819 0.036074039 0.11482462 0.14610533 0.98740613 0.060683202 0
0.015500694 0.034166027 0.1153231 0.24285933 0.96885777 0.048310589 0
0.022078604 0.031588372 0.11461815 0.5845331 0.81099296 0.024728958 0
-0.051520362 -0.011059418 0.12433895 -0.52998292 -0.84163719 0.10375394 0
-0.044843223 -0.013099548 0.12528516 -0.19669378 -0.97854984 0.061252002 0
-0.034791667 -0.014395378 0.12504111 -0.078675792 -0.9950276 0.061074179 0
-0.025295783 -0.014910926 0.12512293 -0.027020054 -0.99759865 0.063771628 0
-0.015440067 -0.014920995 0.12481791 0.029865205 -0.99689752 0.07282465 0
-0.0050354861 -0.0141148 0.12477619 0.10432074 -0.9913103 0.080132157 0
0.0048447708 -0.012993989 0.12515798 0.12192497 -0.99011344 0.069352113 0
0.014755922 -0.011377432 0.12517679 0.22293247 -0.97331953 0.054316331 0
0.020057645 -0.010069687 0.12205284 0.38952714 -0.91951412 0.052559651 0
-0.056228384 -0.0054315124 0.12536716 -0.84958524 -0.50904441 0.13812602 0
0.019655544 -0.0098398551 0.1285653 0.35955736 -0.9315961 0.053359199 0
0.02463448 -0.0051302612 0.12517072 0.81234068 -0.5824939 0.02834757 0
-0.060387816 0.0065789362 0.12264173 -0.98310167 -0.10795734 0.14783856 0
-0.059419248 0.0039477432 0.12629746 -0.97374618 -0.16573532 0.15604536 0
0.028632214 0.0049821893 0.12482801 0.98574781 -0.16773455 0.012902217 0
-0.060409848 0.013815488 0.12309275 -0.98536348 0.070351951 0.15527232 0
-0.059551015 0.015762223 0.12730642 -0.98371339 0.089705728 0.15575871 0
0.029135602 0.015143479 0.12487971 0.99444079 0.10458266 0.012245975 0
-0.060034029 0.020507976 0.12040989 -0.98311096 0.1351424 0.12340729 0
-0.058126561 0.024997581 0.12464432 -0.93397659 0.32802796 0.14172296 0
0.026342696 0.02528752 0.12501086 0.90228868 0.43018898 0.028506337 0
-0.05295644 0.033280335 0.12464175 -0.66105384 0.74097407 0.11817427 0
-0.045320459 0.03673283 0.12494193 -0.20698315 0.97633922 0.06260746 0
-0.035194516 0.038048986 0.12474044 -0.073138431 0.99572772 0.056365617 0
-0.024884364 0.038362801 0.12492377 0.010754542 0.99799389 0.062389899 0
-0.014837551 0.037802804 0.1252332 0.090647221 0.99366248 0.066466786 0
-0.0052262312 0.036815841 0.12548751 0.11654739 0.99121499 0.062526233 0
0.0049265986 0.035465274 0.12487937 0.14525345 0.98753226 0.060674049 0
0.015649565 0.033633977 0.12478123 0.23197921 0.97121006 0.0541903 0
0.021820804 0.031374112 0.12458748 0.55095506 0.83328098 0.045730889 0
-0.050944488 -0.010298826 0.13353978 -0.62911129 -0.76805514 0.11962615 0
-0.044896495 -0.012388384 0.13508455 -0.24945278 -0.96578807 0.070899285 0
-0.034637939 -0.013799049 0.13489789 -0.076661423 -0.99513 0.061962858 0
-0.025449179 -0.014265233 0.13488451 -0.020812737 -0.99740088 0.068980962 0
-0.014938876 -0.014142839 0.13467667 0.048432581 -0.99570024 0.078963339 0
-0.0046418337 -0.013221976 0.1349279 0.10300989 -0.99111867 0.084099442 0
0.0050805639 -0.012253974 0.13450125 0.10137765 -0.99163437 0.079899624 0
0.014123171 -0.010988226 0.13479911 0.2025415 -0.97738969 0.060714539 0
-0.054504547 -0.005604784 0.13469958 -0.83115375 -0.53456116 0.15306129 0
0.019235659 -0.0095959911 0.13549577 0.38860261 -0.91975814 0.055072952 0
0.024143239 -0.005309768 0.13551615 0.7740863 -0.63183463 0.039690066 0
-0.058138642 0.0048253639 0.13487449 -0.97646666 -0.14129426 0.16293819 0
0.028449282 0.0049924473 0.13491629 0.98624372 -0.16396454 0.020949433 0
-0.058300704 0.01519269 0.13538843 -0.98399544 0.080403611 0.15902275 0
0.028867139 0.015305934 0.13488176 0.99497378 0.096568912 0.026485873 0
-0.056391805 0.025141232 0.13461384 -0.92290097 0.34877083 0.16313399 0
0.026068144 0.025059465 0.13505857 0.89192057 0.45087636 0.03446991 0
-0.05215824 0.032331835 0.13506341 -0.71973711 0.68071145 0.13642 0
-0.044885933 0.036124025 0.13487834 -0.25117305 0.96534342 0.070880413 0
-0.035219841 0.03744695 0.13507776 -0.074975967 0.99542773 0.05918061 0
-0.024795992 0.037724778 0.13459159 0.016569961 0.9975943 0.067312703 0
-0.01460223 0.037157647 0.13494927 0.087504335 0.99425006 0.061722517 0
-0.004951864 0.03620046 0.13470595 0.11888508 0.99097019 0.062002908 0
0.0050523002 0.034842305 0.13498446 0.13662812 0.98895341 0.05748006 0
0.015138914 0.033175662 0.13495615 0.22723046 0.97234052 0.054039177 0
0.021338429 0.031064203 0.13533582 0.53399974 0.84368533 0.055130042 0
-0.044535454 -0.011715437 0.1454214 -0.27944839 -0.9560023 0.089265004 0
-0.034717098 -0.013138381 0.14516023 -0.080995806 -0.99451238 0.066218145 0
-0.024791457 -0.01349589 0.14508842 0.0018142521 -0.99669009 0.081274442 0
-0.015208783 -0.013310863 0.14534199 0.050139938 -0.99561834 0.078931749 0
-0.0051713767 -0.012449857 0.14509322 0.097070225 -0.99249613 0.074356206 0
0.0049967496 -0.011477003 0.145081 0.094029464 -0.99314946 0.069372542 0
0.012847978 -0.010646118 0.14413328 0.17502721 -0.98243594 0.064692326 0
-0.05300653 -0.0049573896 0.1449423 -0.85350317 -0.49306923 0.16856784 0
-0.049519178 -0.0093809627 0.14635707 -0.65607792 -0.74208134 0.13739395 0
0.017780844 -0.0094301896 0.14595635 0.30250776 -0.95128578 0.059534803 0
0.024276743 -0.0045020948 0.14511453 0.78729123 -0.61479157 0.046945065 0
-0.0562585 0.0051883361 0.1455214 -0.96617103 -0.1667155 0.19677278 0
0.028254677 0.0051562036 0.14542466 0.98642373 -0.16237919 0.024517756 0
-0.056673728 0.01454795 0.14520305 -0.97566718 0.099378057 0.19544192 0
0.028594527 0.014838195 0.14512914 0.99571908 0.082879707 0.040920164 0
-0.054413978 0.02532855 0.14491883 -0.91845089 0.34694475 0.1899403 0
0.025498938 0.025304532 0.14528014 0.86401874 0.50134814 0.046062134 0
-0.051017124 0.031554073 0.14471836 -0.76231456 0.62810117 0.15609406 0
-0.045359287 0.035092685 0.1446885 -0.35479152 0.93023509 0.093731932 0
-0.035197634 0.036811378 0.1451225 -0.074167214 0.99498034 0.067181669 0
-0.025238736 0.037039381 0.14502703 0.023619689 0.99752271 0.066260703 0
-0.014871001 0.036512878 0.14524946 0.074734099 0.99490374 0.067685433 0
-0.005633432 0.035654657 0.14481741 0.11818997 0.9910993 0.061264373 0
0.0051016011 0.03425061 0.14524469 0.12773857 0.99024844 0.055596199 0
0.015395521 0.032583367 0.14489128 0.23331195 0.97093749 0.053345721 0
0.021102484 0.030610574 0.14441121 0.49913427 0.86453128 0.058740985 0
-0.043397594 -0.011258492 0.15429935 -0.26343888 -0.96014857 0.093352474 0
-0.035213251 -0.012410842 0.15498395 -0.091717161 -0.99378765 0.063039929 0
-0.024875145 -0.012757018 0.15484491 -0.0022138513 -0.99784827 0.065527745 0
-0.014782207 -0.012632938 0.15496805 0.047508713 -0.99701542 0.060854271 0
-0.005453235 -0.011880632 0.15481308 0.10139018 -0.99393809 0.042511307 0
0.0057095126 -0.010736384 0.15516813 0.098476559 -0.99368268 0.053824928 0
0.011564915 -0.010229612 0.15376523 0.12712893 -0.98981863 0.064010449 0
-0.051810414 -0.0035193805 0.15486762 -0.88753134 -0.42119789 0.1867633 0
-0.048171312 -0.0086046048 0.15562442 -0.66453421 -0.72997534 0.15978192 0
0.016155975 -0.0091956919 0.15531754 0.26892248 -0.96130991 0.059698246 0
0.023819001 -0.0043339697 0.1544106 0.78052312 -0.62202084 0.062238649 0
-0.054262009 0.0049423897 0.15471239 -0.96478683 -0.15852502 0.20989563 0
0.027758542 0.0047708126 0.15478502 0.97812843 -0.1958463 0.070063964 0
-0.054267719 0.014933918 0.15570278 -0.96812654 0.10780733 0.2260718 0
0.028084783 0.015119109 0.15477057 0.99375165 0.095216326 0.058236938 0
-0.052429557 0.024644528 0.15492441 -0.92767525 0.30904093 0.20955262 0
-0.049467411 0.029473765 0.15858285 -0.7749691 0.59964794 0.19961287 0
0.024882209 0.025135523 0.15544549 0.83854806 0.54094732 0.064908676 0
-0.050349675 0.030602282 0.1514844 -0.80183887 0.5683251 0.18455642 0
-0.045360457 0.033740811 0.15486468 -0.49283147 0.86007595 0.13185842 0
-0.035057779 0.036180738 0.15481643 -0.04934936 0.99719965 0.056190878 0
-0.025096703 0.036382616 0.15468135 0.02223723 0.99728453 0.070206635 0
-0.015051181 0.035826337 0.15517101 0.064690217 0.99542397 0.070330068 0
-0.0044246102 0.034894824 0.15493362 0.11943122 0.99122345 0.056676075 0
0.0049318527 0.033726722 0.1548897 0.12406932 0.99068034 0.056206729 0
0.015062998 0.032101676 0.15497218 0.24898067 0.9670853 0.052483406 0
0.020431368 0.030271193 0.15470648 0.4836151 0.87310064 0.061738435 0
-0.042296872 -0.010782178 0.16403823 -0.35346007 -0.9272455 0.12361878 0
-0.03504901 -0.011994914 0.16510601 -0.085054345 -0.9962126 0.01806107 0
-0.025006939 -0.01221271 0.16514941 0.006969749 -0.99856669 0.053066313 0
-0.014777227 -0.01201211 0.16462317 0.045823552 -0.99724269 0.0583722 0
-0.0050451071 -0.011395 0.16508956 0.07784798 -0.99588382 0.046424136 0
0.0046416088 -0.010470506 0.16472216 0.10468012 -0.99391705 0.034220375 0
0.010377032 -0.010011174 0.16053677 0.10489199 -0.99388522 0.034494374 0
-0.05063124 -0.0024777199 0.16205741 -0.90244293 -0.30440795 0.30484837 0
-0.047004074 -0.0060243895 0.16536669 -0.75878352 -0.53898084 0.36571485 0
0.008956355 -0.0099214697 0.16729994 0.12399243 -0.99149245 0.039604761 0
0.014962513 -0.0089016072 0.16513298 0.23912428 -0.96963596 0.051240448 0
0.02312782 -0.003998972 0.16517068 0.77870631 -0.61956489 0.098771408 0
-0.051674109 0.0052130022 0.16341521 -0.89949501 -0.11220118 0.42227897 0
-0.049040411 0.0042719967 0.16838479 -0.88214058 -0.14095493 0.4493992 0
0.02690381 0.0046157688 0.165234 0.97789353 -0.19171493 0.083484888 0
-0.051700223 0.01459072 0.16360275 -0.90525573 0.098270684 0.41334605 0
-0.049179796 0.016068771 0.1683538 -0.89883059 0.097499803 0.42731422 0
0.027331769 0.014469804 0.16504174 0.9928019 0.074768215 0.093563184 0
-0.050910514 0.023174547 0.16242254 -0.90900421 0.2257302 0.35036719 0
-0.047956482 0.026378343 0.1663163 -0.83487511 0.35115388 0.42388025 0
0.019637868 0.029859437 0.1665839 0.49923813 0.863958 0.065863505 0
0.023922844 0.025306737 0.16500075 0.8326779 0.54656225 0.088978961 0
-0.043797974 0.032968126 0.16508473 -0.60373616 0.75716466 0.24940802 0
-0.035078347 0.035739027 0.16493367 -0.05185999 0.99843138 0.021098441 0
-0.024782246 0.035584528 0.16560332 0.023498906 0.99663186 0.078566678 0
-0.015148306 0.035247747 0.16520117 0.049880207 0.99714661 0.056662612 0
-0.0048571723 0.034468591 0.16497137 0.11069951 0.99305928 0.039735604 0
0.0046859365 0.033210296 0.16572976 0.12835228 0.99102998 0.037217766 0
0.014764426 0.031641755 0.16493584 0.25323558 0.96622789 0.047700129 0
-0.040387038 -0.010388792 0.17049961 -0.59951514 -0.66961962 0.43839613 0
-0.034088772 -0.012101698 0.17398988 -0.30843192 -0.94812411 0.077008478 0
-0.024812721 -0.013483178 0.1746694 -0.008926684 -0.97668141 -0.21450807 0
-0.014622385 -0.012959098 0.17531031 0.11440857 -0.94145185 -0.31714201 0
-0.0047217626 -0.011590998 0.17549889 0.13957013 -0.95690018 -0.25468069 0
0.0033089377 -0.010447915 0.17487572 0.11934458 -0.98926747 -0.084301881 0
-0.043143302 -0.0045314846 0.17409928 -0.75728047 -0.49347436 0.42779583 0
-0.038682431 -0.007932011 0.17727797 -0.71667999 -0.63477588 0.28884146 0
0.0084209545 -0.0096974373 0.1755311 0.16185351 -0.98681468 -0.00042149911 0
0.015387995 -0.008175293 0.1750866 0.30175009 -0.9527666 0.034391586 0
0.022547759 -0.0032676579 0.17466523 0.80626822 -0.58865553 0.058447864 0
-0.04585788 0.0048388233 0.1751467 -0.9119162 -0.14386004 0.38433474 0
0.026032554 0.0047296165 0.17474782 0.97405177 -0.20072532 0.10455883 0
-0.04635388 0.014909912 0.17494784 -0.91758978 0.082448907 0.38888454 0
0.026379716 0.014818783 0.17477645 0.98963743 0.10615907 0.09668459 0
-0.044199597 0.024864839 0.17474854 -0.85649735 0.31147414 0.41157779 0
-0.039553691 0.02957199 0.1792672 -0.77562535 0.4481132 0.44452196 0
0.019262364 0.029255955 0.17605868 0.54860073 0.83161443 0.086340405 0
0.023056278 0.025048535 0.17460771 0.83302301 0.54462582 0.097239092 0
-0.041557729 0.031760808 0.17282026 -0.68657911 0.61733043 0.38407344 0
-0.035421252 0.034901913 0.17500991 -0.42023149 0.88706863 0.19108842 0
-0.025033869 0.036817577 0.1749641 0.0057998165 0.97318906 -0.22993337 0
-0.014953494 0.036281075 0.17561747 0.13279577 0.92223489 -0.3631089 0
-0.0048035323 0.034559898 0.17533064 0.14380871 0.96997601 -0.19612685 0
0.0051864311 0.033058066 0.17545287 0.1565697 0.98236221 -0.10222761 0
0.014259395 0.031367805 0.17491604 0.26307157 0.96406496 0.03704292 0
-0.031849783 -0.011076711 0.18481556 -0.43751061 -0.88138902 0.17815109 0
-0.024975413 -0.01365805 0.18538812 -0.26996672 -0.95968246 0.078278482 0
-0.014749964 -0.015085401 0.18503261 -0.078685254 -0.99580443 0.046714228 0
-0.0050142058 -0.014889411 0.184609 0.10670237 -0.98007989 -0.16750517 0
0.0049483934 -0.013268599 0.18498293 0.210738 -0.9510271 -0.226135 0
0.013457748 -0.011443956 0.18624726 0.32366243 -0.90976101 -0.25995681 0
-0.040959977 -0.0015284116 0.18423663 -0.9160412 -0.3349272 0.22066338 0
-0.036697675 -0.0065552737 0.18553725 -0.69943082 -0.66047055 0.27308443 0
0.0092784408 -0.0098053627 0.18020335 0.21066396 -0.88209319 -0.42134592 0
0.016706008 -0.0085907364 0.1832224 0.4251923 -0.84566557 -0.32258523 0
0.023059495 -0.00392516 0.18505952 0.80981451 -0.5455032 -0.21593212 0
-0.042462811 0.0043686838 0.18490559 -0.95505053 -0.20924431 0.20998888 0
0.026405262 0.0047453218 0.18482591 0.94922012 -0.21081442 -0.23353459 0
-0.042967755 0.015237886 0.18498398 -0.96929437 0.11097012 0.21944027 0
0.026927017 0.014926682 0.18483193 0.95958048 0.14179307 -0.24310495 0
-0.041418061 0.022656215 0.18399508 -0.86324346 0.41644937 0.28527302 0
-0.038599532 0.027188996 0.18598332 -0.86480719 0.45609212 0.20997258 0
0.019329837 0.029121494 0.18056409 0.48960897 0.81391472 -0.31277144 0
0.023631446 0.025384158 0.18482177 0.83537328 0.48125246 -0.26560813 0
-0.033916641 0.032911289 0.18485363 -0.61530024 0.75042665 0.24138221 0
-0.024868151 0.037158523 0.18474409 -0.21979924 0.97160214 0.087621376 0
-0.015354077 0.038276047 0.18454064 -0.060755491 0.9965896 0.055837668 0
-0.0050568087 0.038058314 0.18486848 0.090749085 0.9845165 -0.14997251 0
0.0045833206 0.036047712 0.18426812 0.26253393 0.91200894 -0.31514364 0
0.015087991 0.033056028 0.18517716 0.38690296 0.87387729 -0.29435441 0
0.021007661 0.030742547 0.18772399 0.6468755 0.70011938 -0.30229932 0
-0.030721104 -0.010545366 0.19631959 -0.60966438 -0.79139417 -0.044772204 0
-0.02511044 -0.012806838 0.19530986 -0.27757484 -0.95897061 0.057686031 0
-0.014808881 -0.014432992 0.1950053 -0.054995105 -0.99625975 0.066648506 0
-0.0050257407 -0.014493207 0.19473019 0.059557479 -0.99364495 0.095511831 0
0.0047954782 -0.013295725 0.19489042 0.18380886 -0.97139579 0.15034786 0
