# .PCD v0.7 - Point Cloud Data file format
VERSION 0.7
FIELDS x y z normal_x normal_y normal_z curvature
SIZE 4 4 4 4 4 4 4
TYPE F F F F F F F
COUNT 1 1 1 1 1 1 1
WIDTH 557
HEIGHT 1
VIEWPOINT 0 0 0 1 0 0 0
POINTS 557
DATA ascii
-0.033467826 -0.082013495 -0.00030040974 -0.053148057 -0.082440533 -0.99517781 0
-0.024787331 -0.083646312 -0.00025724206 -0.0081640556 -0.012769688 -0.99988508 0
-0.015560819 -0.083317786 -0.00022268083 0.011145263 -0.0052740639 -0.99992394 0
-0.0049258526 -0.082446113 -0.00017361976 0.0066893292 -0.021394264 -0.99974877 0
0.0044284877 -0.081026927 -0.00023412854 0.052459031 -0.2002937 -0.97833049 0
-0.044218998 -0.073369168 -0.00031419637 -0.043140151 -0.048770554 -0.9978779 0
-0.035905253 -0.076315515 -0.0001601118 0.035769895 0.045507636 -0.99832338 0
-0.02616214 -0.079016462 -3.2882352e-05 0.0077948989 0.056112051 -0.99839407 0
-0.013950884 -0.079106033 -4.5158522e-05 0.0012550956 0.047209132 -0.99888426 0
-0.0043069082 -0.078447118 -3.9929153e-05 -0.022068746 0.039383076 -0.99898046 0
0.0058670253 -0.075077496 -0.00020801024 -0.029771559 0.030494379 -0.99909145 0
0.013508488 -0.073762596 -0.0002784401 0.041887403 -0.02893148 -0.99870336 0
-0.05183354 -0.064271487 -0.00016924167 -0.047036394 -0.0080208341 -0.99886096 0
-0.046480887 -0.066267855 -0.00014300576 0.03047809 0.038810249 -0.99878168 0
0.0079037566 -0.068749443 -6.5061358e-05 -0.035011414 0.036259718 -0.99872893 0
0.015055727 -0.065588325 -0.00017086921 -0.011821631 0.016145611 -0.99979973 0
0.02283982 -0.062640563 -0.00016762671 0.059248287 -0.065886654 -0.99606651 0
-0.054168373 -0.055026259 -0.00013030801 0.0013770136 -0.00013137067 -0.99999911 0
0.017756158 -0.057223253 -7.2907111e-05 -0.038931299 0.026784251 -0.99888289 0
0.024391346 -0.054900572 -0.00025225885 0.021335281 -0.0013390245 -0.99977148 0
-0.056610163 -0.045328297 -0.00015929599 -0.0047685187 -0.0055154599 -0.99997348 0
0.025970319 -0.045313615 -0.00020027868 -0.0011711275 0.0028738477 -0.99999517 0
-0.055586662 -0.035045568 -0.00019180677 0.026371034 0.0027958774 -0.99964827 0
0.026603943 -0.035505518 -0.00022733609 0.023634031 0.010069055 -0.99966997 0
0.03001653 -0.038746528 -0.00019827363 0.66987121 0.17323914 -0.72198403 0
-0.053535435 -0.024651952 -0.0001575818 -0.0035561353 0.0024907619 -0.99999058 0
-0.049001608 -0.020765768 -5.0486018e-05 0.065087721 -0.060965881 -0.99601543 0
0.017449385 -0.0222493 -0.00014274869 -0.051232535 -0.053532276 -0.99725097 0
0.023559179 -0.025934018 -0.00028506917 0.021117022 -0.00061622303 -0.99977678 0
-0.050551295 -0.017872652 -0.00023607844 -0.33979917 0.24659853 -0.90759343 0
-0.045556348 -0.014675336 -0.00017532569 0.019826401 -0.02492681 -0.9994927 0
-0.038626537 -0.01096625 -7.1981143e-05 0.056648124 -0.089102089 -0.99441028 0
-0.00071344001 -0.010146946 -3.8809849e-06 -0.015169405 -0.049991105 -0.99863446 0
0.0072084265 -0.01301087 -0.00015138368 -0.047764108 -0.055184707 -0.99733305 0
0.01456129 -0.01574518 -0.00029291597 0.0013284154 0.0058700475 -0.99998188 0
0.021445684 -0.018526727 -0.00034118243 0.41490078 0.24003769 -0.87763274 0
-0.041697022 -0.0092137549 -0.00017031352 -0.14291142 0.21471229 -0.96616507 0
-0.03448939 -0.006366 -0.0002085569 -0.00062866084 0.00095804723 -0.99999928 0
-0.025177237 -0.0030864563 -0.00020166919 -0.0044681537 -0.0031526843 -0.99998504 0
-0.015129847 -0.0039063608 -0.00014666271 -0.006244733 -0.04285872 -0.99906164 0
-0.0048149596 -0.0047574681 -0.00019997252 -0.0090738432 -0.019424153 -0.99977016 0
0.0042159809 -0.0063170684 -0.00031004334 0.019960446 0.037952553 -0.99908018 0
0.011442772 -0.0083648684 -0.00015219125 0.16385677 0.22316781 -0.96090949 0
-0.022682296 5.1418698e-05 -0.0002332843 -0.098189205 0.65545535 -0.74882382 0
-0.01498899 0.00055322261 -0.00028761913 -0.00062370347 0.20894314 -0.97792757 0
-0.0081728017 0.00013079228 -0.00026453947 0.070816681 0.46067858 -0.88473731 0
-0.040624037 -0.090138882 0.0095673483 -0.12638731 -0.73416948 0.6670993 0
-0.034061953 -0.091993146 0.0081959609 -0.24656439 -0.6521259 -0.71689451 0
-0.02453088 -0.093311504 0.0069105462 -0.078254014 -0.76867169 -0.6348387 0
-0.015112505 -0.093444936 0.0061307983 -0.11710895 -0.84855694 -0.51598132 0
-0.0050909701 -0.093064435 0.0067414809 0.086884379 -0.6918667 -0.71677864 0
0.0042229956 -0.091874212 0.0082704742 0.3070237 -0.8055858 -0.50672281 0
0.01138042 -0.090643376 0.0095272101 0.3224346 -0.66033542 -0.67822784 0
-0.051558178 -0.081377618 0.0085108299 -0.46151268 -0.54729831 -0.69819099 0
-0.044375282 -0.084069386 0.0064605665 -0.3338083 -0.60691482 -0.72126728 0
-0.035465814 -0.085629173 0.0035808862 0.068510637 0.24222371 0.96779853 0
-0.025375791 -0.086274736 0.0016694021 0.045348871 0.11644197 0.99216169 0
-0.014834268 -0.08626312 0.0011735811 0.03294915 0.074746035 0.99665809 0
-0.0046291538 -0.086450242 0.0017583279 -0.073590487 0.095427826 0.99271244 0
0.0050794953 -0.085658178 0.0034112134 -0.32464257 0.36451459 0.87277508 0
0.014426012 -0.084375694 0.0064267712 0.6207698 -0.49390385 -0.60885447 0
0.021946725 -0.081838213 0.0088647921 0.48711967 -0.46865422 -0.736938 0
-0.060751416 -0.070709027 0.009423322 -0.59723222 -0.30138174 -0.74329174 0
-0.054178011 -0.074559048 0.006246069 -0.66621041 -0.12049813 -0.7359646 0
-0.045709014 -0.075776368 0.002007375 0.099371165 0.049849655 0.99380094 0
-0.034597602 -0.07468798 0.00069759431 -0.020601071 -0.057683904 0.99812233 0
-0.024782199 -0.074581735 0.00075811363 -0.072383635 -0.02631586 0.99702966 0
-0.014911303 -0.074383199 0.00070954586 0.11739282 -0.028826289 0.99266714 0
-0.0052164239 -0.074489415 0.00062389858 0.020289898 -0.01096337 0.99973398 0
0.004092514 -0.074744172 0.00069312454 0.0011927214 0.010189947 0.99994737 0
0.015959164 -0.075726919 0.0018630461 -0.037223201 0.14550909 0.9886564 0
0.024543667 -0.074433587 0.0060942443 0.13554886 -0.69829726 -0.70285666 0
0.031077411 -0.07105539 0.0091000553 0.66509175 -0.3502436 -0.65953207 0
-0.062527813 -0.063973352 0.007772122 -0.65841097 -0.25814524 -0.70700502 0
-0.05590887 -0.065527268 0.0032804073 0.10706809 -0.11081684 0.98805666 0
-0.044469934 -0.064368099 0.00073277496 -0.027586875 -0.032136504 0.99910271 0
-0.034808785 -0.064581111 0.00089124026 0.82049274 0.018228527 0.57136625 0
-0.025082102 -0.065177634 0.0010661529 -0.26159039 0.0035896678 -0.96517229 0
-0.014847022 -0.064919628 0.0010752699 0.070030667 -0.1191365 -0.99040514 0
-0.0048824227 -0.064920284 0.00093243329 0.065412641 -0.67462206 -0.73525929 0
0.0049432372 -0.064653352 0.00063491514 -0.12172712 -0.15886781 0.97976714 0
0.014867682 -0.065012485 0.00068577839 0.038442053 -0.014855945 0.99915034 0
0.026034437 -0.065335199 0.0027241998 -0.16450946 0.27911347 0.94606149 0
0.032441765 -0.064499214 0.0075374586 0.7734921 -0.088190988 -0.62764025 0
-0.063882388 -0.054593347 0.0063529788 -0.57462251 0.19008134 -0.79603899 0
-0.055422071 -0.055123854 0.0011985516 -0.036308154 0.050304741 0.99807376 0
-0.04495886 -0.055129759 0.00082899508 0.18777481 0.1523089 0.97033119 0
-0.035147611 -0.055071607 0.0011375073 -0.033109497 -0.032872662 -0.99891096 0
-0.025007917 -0.055146948 0.0012857913 -0.46292761 -0.31475797 -0.8286286 0
-0.014926917 -0.054887161 0.0013224245 -0.13526435 -0.0074628722 -0.99078143 0
-0.0050930623 -0.054797623 0.0012044644 0.26053318 -0.16941236 0.95048511 0
0.0048841401 -0.05501163 0.00091582473 -0.058742166 -0.084196106 -0.99471623 0
0.014523618 -0.054634582 0.00064028148 0.087832712 -0.074881993 0.99331671 0
0.026017455 -0.055166099 0.0010899942 -0.09564469 0.017159345 0.99526763 0
0.034113254 -0.055022467 0.0061863726 0.78525949 -0.23193292 -0.57408601 0
-0.064720087 -0.045026854 0.0060064304 -0.83432895 -0.13317312 -0.53493923 0
-0.055137787 -0.045201194 0.00093970366 -0.03586112 0.022419525 0.99910522 0
-0.044950686 -0.044834815 0.0010621641 0.027181519 0.099119641 -0.99470425 0
-0.034941781 -0.044861492 0.001298766 -0.05840937 0.016883045 -0.99814999 0
-0.025248151 -0.044820484 0.0014321128 0.48468336 -0.45752332 -0.74548942 0
-0.01501003 -0.044884324 0.0013494208 -0.0021677397 0.067753114 -0.9976998 0
-0.0048391209 -0.045022376 0.0012078097 -0.0054529216 0.056135308 -0.99840826 0
0.0050607985 -0.045045167 0.0011395602 -0.011803109 0.072820209 0.99727523 0
0.01499539 -0.045039184 0.0008358637 0.81863892 0.35885748 -0.44838786 0
0.024375588 -0.044786807 0.00061106391 -0.0012538582 -0.012710747 0.9999184 0
0.034816369 -0.044929955 0.0053863712 0.60570663 -0.57932734 -0.54543501 0
-0.064221352 -0.035202809 0.0062219156 -0.75252581 -0.048007295 0.65681058 0
-0.055009369 -0.034913775 0.00080108596 0.0061213053 0.04695905 0.998878 0
-0.045240685 -0.035249066 0.0011224834 -0.11917493 0.31172714 -0.94266826 0
-0.034997907 -0.034878127 0.0013852814 -0.33691716 0.20710866 0.91847306 0
-0.024787134 -0.035032175 0.0014326597 0.0071914019 0.063837454 0.9979344 0
-0.015152906 -0.035158388 0.0013841479 0.014119933 0.028310604 0.99949944 0
-0.0050900555 -0.034616079 0.001218667 -0.0078884661 -0.022578679 -0.9997139 0
0.0049640564 -0.034728181 0.0011644058 0.0064540277 0.027294997 0.99960661 0
0.014783354 -0.035165947 0.0009631713 0.23241647 -0.15229362 -0.96061915 0
0.024926435 -0.034868687 0.00070204283 -0.087923616 0.0012174154 0.99612647 0
0.034619369 -0.035167273 0.0058439481 0.71180773 0.54628342 -0.44147953 0
-0.06299568 -0.025576094 0.0072982162 -0.59049404 0.56604373 -0.5752489 0
-0.055961803 -0.025208319 0.0019735722 -0.30429307 0.19429061 0.93255389 0
-0.044820681 -0.025186144 0.00085132569 0.026701678 -0.053046819 0.99823499 0
-0.034819841 -0.024888834 0.0011250948 -0.48444009 0.11725125 -0.86693132 0
-0.025185257 -0.024948357 0.0011479191 -0.23981276 0.096487783 0.96601242 0
-0.014519632 -0.025003135 0.0010619885 -0.025790948 -0.0057464475 -0.9996509 0
-0.0046462184 -0.024987413 0.00096516864 0.031249335 0.010868194 -0.99945247 0
0.0051023178 -0.025235699 0.00088749646 -0.045397364 0.27497414 0.96037924 0
0.014589709 -0.025432784 0.00071746449 0.063127063 0.023645278 0.99772537 0
0.025987724 -0.024183676 0.0017964983 0.22496745 0.082232848 0.97089005 0
0.033262685 -0.025356859 0.007016825 0.79381859 0.12564518 -0.59503388 0
-0.061020389 -0.017773127 0.0088572958 0.65677965 -0.74889123 -0.088331543 0
-0.055042468 -0.014958315 0.0052809473 -0.77390385 0.51122808 -0.37378943 0
-0.045193721 -0.01482928 0.0009753966 0.046496257 -0.077255212 0.99592656 0
-0.035016011 -0.015246539 0.0007487064 -0.021914588 -0.54644459 -0.83720839 0
-0.024885593 -0.014854508 0.00083213509 -0.42872253 0.055175524 0.90174979 0
-0.014873225 -0.01518929 0.00076746126 0.2427101 -0.054860905 -0.96854639 0
-0.0050880117 -0.015120864 0.00070491247 0.054101381 0.079246826 0.99538583 0
0.0044219359 -0.015691031 0.00065063685 0.0096379099 0.058024839 0.9982686 0
0.015948778 -0.01427226 0.00094961171 -0.027685 -0.044273108 0.99863571 0
0.025064936 -0.014965799 0.0048614624 -0.44185817 -0.41269529 0.79651994 0
0.031665258 -0.017231539 0.0086462619 0.62524134 0.39068538 -0.67560214 0
-0.052547362 -0.0072113592 0.0079571772 -0.59625828 0.35859567 -0.71825153 0
-0.045199629 -0.0049071196 0.0049087643 -0.036767703 0.84386647 -0.53529191 0
-0.035515834 -0.0039015915 0.0018403789 -0.043945074 -0.021697208 0.99879831 0
-0.025309572 -0.0058454908 0.00064416468 0.011766551 -0.027125133 0.99956268 0
-0.015394526 -0.005795971 0.00066131051 0.011569426 0.056941267 0.99831051 0
-0.0051860604 -0.0055759395 0.00063552288 -0.001385825 -0.024617892 0.99969602 0
0.0057495842 -0.0039728289 0.0016311887 0.0022584908 -0.028594557 0.99958855 0
0.0153235 -0.0047577056 0.0048021385 -0.48577166 0.67119741 -0.55992848 0
0.022669079 -0.0067244391 0.0080665816 0.61525679 0.2929998 -0.7318539 0
-0.042828158 0.0012959588 0.0085876202 -0.30664581 0.55406266 -0.77393991 0
-0.034431793 0.0034867337 0.0068284487 -0.27868962 0.62284541 -0.73102379 0
-0.024800932 0.0047698533 0.0051222183 -0.1925147 0.67474788 -0.71249795 0
-0.01515377 0.0050071646 0.0044220001 0.0011711734 0.98474336 0.17400861 0
-0.0052746581 0.0047064419 0.0050760508 0.22404148 0.6826992 -0.69550496 0
0.0045251353 0.003714167 0.0066059949 0.20953941 0.58967167 -0.77998757 0
0.013199624 0.0017582367 0.008729754 0.38992763 0.56627107 -0.7261498 0
-0.022335917 0.010249767 0.0094537139 -0.11937948 0.71543711 -0.68840265 0
-0.014433933 0.010367089 0.0092196185 -0.012408683 0.68511117 -0.72833276 0
-0.0080808643 0.010724109 0.0096641742 0.10314399 0.68775141 -0.71858138 0
-0.041209683 -0.10017173 0.019806828 -0.28781533 -0.7427997 -0.60449225 0
-0.03386927 -0.10117847 0.018368741 -0.29112509 -0.81420046 -0.5023185 0
-0.024855666 -0.10216002 0.016902244 -0.18030618 -0.61768794 -0.76547456 0
-0.014765606 -0.10263019 0.016420489 0.11479887 0.84806001 -0.51731545 0
-0.0052847085 -0.10242672 0.016936129 -0.023647783 -0.7408011 -0.67130804 0
0.00335149 -0.10137984 0.01824341 0.36095643 -0.86176169 -0.35647905 0
-0.051675927 -0.091671571 0.018067952 -0.43782288 -0.61254418 -0.65810394 0
-0.044596341 -0.094256036 0.015814887 -0.23613045 -0.57278365 -0.78495938 0
-0.035682082 -0.096496306 0.013751482 0.20545319 0.67043841 0.71295255 0
-0.025369229 -0.098178692 0.01230021 0.28370032 0.74617791 0.60227293 0
-0.014969961 -0.098693088 0.011816677 -0.081584722 0.7363233 0.67169333 0
-0.0042170337 -0.098208882 0.012535339 -0.27084294 0.80067408 0.53438294 0
0.0057743946 -0.096645877 0.013722106 -0.11730194 0.84662753 0.51909739 0
0.014594479 -0.094213374 0.015526002 -0.65913242 -0.45742241 -0.59691644 0
0.022103136 -0.091644801 0.017804075 0.63143629 -0.72183681 -0.28326651 0
-0.061795816 -0.082098529 0.018320661 -0.61367518 -0.53576416 -0.57996505 0
-0.055183198 -0.085046083 0.014931526 -0.51643157 -0.69817781 -0.49582884 0
-0.047361456 -0.088071048 0.011888864 0.46195939 0.53344238 0.70854264 0
0.016854033 -0.088500828 0.011500122 -0.41381747 0.60147446 0.68336195 0
0.025488 -0.085037567 0.014447454 0.64832759 -0.35793927 -0.67197537 0
0.031870835 -0.082296178 0.017802175 0.62964344 -0.40858886 -0.6607604 0
-0.070446752 -0.070883214 0.019241355 -0.77251107 -0.41728753 -0.47864163 0
-0.063915119 -0.074661061 0.015420469 0.62208766 0.54295743 0.56409591 0
-0.057997014 -0.077763796 0.01161484 0.51843619 0.50313753 0.69143081 0
0.028598679 -0.077585094 0.011628905 -0.54246181 0.4028919 0.73716569 0
0.034574952 -0.074929841 0.015523872 -0.6795001 0.34051338 0.64986944 0
0.040645219 -0.070768669 0.019117983 0.71299094 -0.43800741 -0.54753399 0
-0.071872823 -0.063645989 0.017671103 -0.77053231 -0.22706524 -0.59558481 0
-0.067043282 -0.065669209 0.013409059 0.74393064 0.35595235 0.56556618 0
0.037341081 -0.065848015 0.013070395 -0.80157995 0.35119006 0.48387516 0
0.042035244 -0.064033411 0.017513743 0.86020285 -0.20588064 -0.46654505 0
-0.072923452 -0.05475565 0.016124774 -0.7508955 -0.12429174 -0.64861977 0
-0.068639249 -0.05593162 0.011364289 0.73737162 0.14909706 0.65882719 0
0.038787115 -0.056310486 0.011362722 -0.84126216 0.18150707 0.50924772 0
0.043041114 -0.054537721 0.01581157 0.21882795 -0.32528734 -0.91994691 0
-0.073460735 -0.045015473 0.015373444 -0.74874568 0.041363046 -0.6615656 0
-0.069421127 -0.044553686 0.010596376 0.70184553 0.10681503 0.70427513 0
0.039530572 -0.044338953 0.010492104 -0.70159864 -0.021036606 0.71226168 0
0.043678287 -0.044781771 0.015004395 0.59334749 -0.0061449134 -0.80492294 0
-0.07308428 -0.035369001 0.015654881 0.13859543 -0.79504943 -0.59049779 0
-0.069050014 -0.033513021 0.011365424 0.83568937 -0.30577871 0.4562045 0
0.039207581 -0.033932187 0.010871846 -0.73189992 0.0055371816 0.68138969 0
0.043481581 -0.035109479 0.015470541 0.75596875 0.32180947 -0.57004374 0
-0.072068036 -0.025519112 0.017123761 -0.50085932 0.4463003 -0.74159014 0
-0.067720644 -0.024178399 0.012472236 0.88404995 -0.25036302 0.39468226 0
0.038050301 -0.024361366 0.012277659 -0.76001853 -0.26159877 0.59492683 0
0.042469192 -0.025652254 0.016769255 -0.96337169 0.18076843 0.1980852 0
-0.070924401 -0.017982822 0.018870851 -0.80381525 0.32454449 -0.49854988 0
-0.065321065 -0.01480904 0.014667116 -0.20257901 0.31350717 -0.92772567 0
-0.059026677 -0.010958171 0.01096055 -0.22342081 0.52266783 -0.82274026 0
0.028849099 -0.010993138 0.010621388 -0.57019407 -0.42076257 0.70557612 0
0.0355222 -0.014742408 0.014455643 0.96589994 0.096468695 -0.24027298 0
0.041065436 -0.018006569 0.018835779 0.70377743 0.3523528 -0.61688322 0
-0.062557429 -0.0070447684 0.01708304 -0.71824849 0.45564058 -0.52584296 0
-0.056213561 -0.0041249213 0.013528981 0.42966422 -0.78691173 0.44289801 0
-0.048883159 -0.00092758 0.010871756 0.5121457 -0.58757257 0.62647051 0
0.019189155 -0.00088359008 0.010846758 -0.49120617 -0.55644083 0.67014188 0
0.026233973 -0.0038964795 0.013182084 -0.36873466 -0.53387809 0.76092637 0
0.032733157 -0.0063901977 0.017135242 0.6015718 0.3878763 -0.69832903 0
-0.053189944 0.002663974 0.017109256 -0.51941347 0.80649674 -0.28244051 0
-0.045528468 0.0054488685 0.01440696 0.39694357 -0.67125988 0.62597597 0
-0.036057115 0.0081153726 0.011818948 0.27987534 -0.69459283 0.66272968 0
-0.026809029 0.0093540987 0.010720133 0.13930938 -0.69835758 0.702061 0
-0.0027205867 0.0094799828 0.010738662 -0.16169615 -0.68595839 0.70944721 0
0.0057962192 0.0082834 0.011908448 -0.25983632 -0.66675138 0.69851816 0
0.01542577 0.0059033684 0.014276417 -0.75228399 -0.13031341 0.64582288 0
0.023434343 0.0028305519 0.016880587 0.5467878 0.68748271 -0.47790235 0
-0.042518698 0.011142594 0.018040899 -0.45066383 0.6988554 -0.55543077 0
-0.034745093 0.012774868 0.016531471 -0.16366073 0.69785565 -0.69728953 0
-0.025050946 0.01390331 0.015056463 0.026059952 0.48282969 -0.87532645 0
-0.014824114 0.014957674 0.014810613 -0.20314808 0.61563855 -0.76139343 0
-0.0052375579 0.014496302 0.015298338 0.84710902 -0.51556772 -0.1288262 0
0.0044230507 0.012924122 0.016333142 0.26261872 0.59138125 -0.76243007 0
0.012445852 0.0112458 0.018236054 0.34312138 0.68173444 -0.64614683 0
-0.022750538 -0.11028458 0.029418418 -0.07441514 -0.90983874 -0.40823504 0
-0.015383989 -0.1104661 0.02889663 -0.010064915 -0.90995139 -0.41459265 0
-0.007156671 -0.11044548 0.029294515 0.10285991 -0.89170361 -0.4407773 0
-0.050429106 -0.10039177 0.029222563 -0.48610118 -0.75546998 -0.43928441 0
-0.044002112 -0.10200183 0.0262923 -0.40376702 -0.78308266 -0.47302616 0
-0.034993693 -0.10472529 0.024942184 0.53726363 0.61659443 0.57546431 0
-0.024942236 -0.10715389 0.024727367 -0.16109091 -0.46772853 0.86906838 0
-0.015043307 -0.10770691 0.024512714 0.0093944715 0.89649814 0.44294798 0
-0.0048218812 -0.10731512 0.025049463 0.95717466 -0.28596583 -0.045168545 0
0.0048863599 -0.10488027 0.024967527 -0.14930572 0.91670382 0.37062365 0
0.014096555 -0.10213571 0.026501985 0.36771664 -0.84770292 -0.38234034 0
0.020861298 -0.10037846 0.029114112 0.44620827 -0.79903138 -0.40304717 0
-0.061203297 -0.091150224 0.028159065 -0.6517331 -0.63313133 -0.41759881 0
-0.054870058 -0.094525054 0.02567824 0.58743417 0.5564869 0.58757418 0
-0.046914939 -0.098197334 0.023036927 0.39595404 0.78038371 0.48396462 0
0.016595954 -0.098456517 0.022917742 -0.42511991 0.75438088 0.50018251 0
0.024574161 -0.094696388 0.025124466 0.50320214 0.24394038 -0.82902396 0
0.031508278 -0.091077417 0.027943362 0.56734413 -0.64876229 -0.50717652 0
-0.070639119 -0.080660634 0.028585844 -0.77643019 -0.45200154 -0.43914777 0
-0.064644158 -0.08495114 0.025229977 -0.62185055 -0.64696324 -0.44129398 0
-0.058590062 -0.088414483 0.022085037 0.56863952 0.64987338 0.50429511 0
0.028596239 -0.08858119 0.02192908 -0.60926366 0.56113279 0.56029254 0
0.034929968 -0.084776781 0.025246941 -0.63101184 0.48346332 0.60670209 0
0.040616695 -0.0810517 0.028690083 0.75018436 -0.4566243 -0.47824445 0
-0.072535262 -0.073850818 0.026304511 -0.79861391 0.097426035 0.59390569 0
-0.068259664 -0.077409633 0.022940343 0.72352803 0.50889701 0.46640226 0
0.03834112 -0.077276193 0.022222538 -0.70451534 0.50489092 0.49874178 0
0.04259019 -0.074273556 0.025597438 0.41835463 -0.73231208 -0.53730661 0
-0.080163375 -0.060633644 0.029552152 -0.88427937 -0.20855249 -0.41779888 0
-0.075606227 -0.065189071 0.024752861 0.33078805 -0.096194513 0.93878955 0
0.046294726 -0.065220334 0.025034586 0.28047946 0.74620271 -0.60374892 0
0.050340585 -0.061058003 0.029269908 0.88999176 -0.28283393 -0.35765839 0
-0.080776826 -0.053243484 0.028152475 -0.9028039 -0.19216883 -0.38472888 0
-0.07787092 -0.055377625 0.023807576 0.81439161 0.45006526 0.36634362 0
0.047799576 -0.055367917 0.023486786 -0.83704978 0.24291962 0.49024251 0
0.050956823 -0.054205447 0.028248115 0.85669214 -0.13815111 -0.4969838 0
-0.08106745 -0.044834737 0.027583599 -0.9266237 0.035218749 -0.37433684 0
-0.078333504 -0.04457118 0.023057897 0.97492188 -0.030522592 0.22044443 0
0.048530832 -0.045373622 0.022607185 -0.78781682 -0.21119811 0.57856727 0
0.051431157 -0.044982489 0.027311629 0.92590892 -0.064725719 -0.3721602 0
-0.080795541 -0.035619531 0.028414559 -0.89389306 0.11549161 -0.43314761 0
-0.078224882 -0.034615651 0.023749953 0.72910285 -0.18669327 0.6584487 0
0.04834209 -0.03466804 0.022979261 -0.87490773 0.20934913 0.43670288 0
0.05136067 -0.035854883 0.027725557 0.84775096 0.19580998 -0.49292684 0
-0.08027073 -0.027604308 0.029075623 -0.87893569 0.17288376 -0.44450346 0
-0.076901369 -0.024947597 0.024774231 0.24130018 0.42450812 0.8726781 0
0.047190957 -0.024984086 0.024809981 -0.83641034 -0.48117307 0.26246926 0
0.050534483 -0.027736546 0.029129367 0.85793 0.21419606 -0.4669863 0
-0.073424004 -0.015511489 0.025319066 0.6778571 -0.28540888 0.67753339 0
-0.068841286 -0.011592736 0.021477863 0.79025894 -0.2793965 0.54537004 0
0.039124727 -0.011747715 0.021151915 -0.76556742 -0.42941988 0.47906685 0
0.043810345 -0.015378302 0.025356656 -0.8709963 -0.48107702 0.099651784 0
-0.071195029 -0.0081236493 0.02747293 -0.73883516 0.46403506 -0.48866561 0
-0.065757163 -0.0042652017 0.024255011 0.67318016 -0.65463507 -0.34392083 0
-0.059230071 -0.00022519093 0.020540969 0.65772241 -0.57681435 0.48444438 0
0.029305711 -0.00026756621 0.020469144 -0.59378058 -0.6144169 0.51953501 0
0.036244296 -0.0039508962 0.024212772 -0.39342704 -0.64036131 0.659661 0
0.041620478 -0.0078749098 0.027803795 0.74878865 0.50260025 -0.43209776 0
-0.062294282 0.0024516066 0.026905576 -0.69285518 0.58415514 -0.42274633 0
-0.055706169 0.0062344526 0.02428899 0.71317583 -0.68648511 0.14183943 0
-0.048715934 0.0092343697 0.021158069 0.55081284 -0.68352532 0.47895548 0
0.018569322 0.0093051065 0.02062824 -0.39998147 -0.78435344 0.47413537 0
0.025977429 0.0062836045 0.024178239 -0.58193451 -0.58124948 0.56877166 0
0.032210793 0.0025709644 0.026690315 0.45391199 0.78191394 -0.42728737 0
-0.051843803 0.011407556 0.027437972 -0.48710009 0.75728899 -0.4350251 0
-0.044884823 0.014111535 0.025319558 -0.95931935 -0.16195647 -0.23124973 0
-0.035211351 0.017542062 0.024241272 0.33012533 -0.72970313 0.59879088 0
-0.026244327 0.018724661 0.022332439 0.13081102 -0.81635273 0.56254488 0
-0.015471163 0.019134212 0.021488531 -0.080767676 -0.84570062 0.52751029 0
-0.0046877833 0.018776573 0.021766625 0.027248861 -0.90158361 0.43174577 0
0.0058219298 0.017574269 0.024238862 -0.69246149 -0.43235517 0.57755172 0
0.015075953 0.014238524 0.025184885 0.6349026 0.69067144 -0.34622511 0
0.022218425 0.011721519 0.027688369 0.62581289 0.65149724 -0.42884681 0
-0.032295119 0.021015914 0.028337914 -0.30221179 0.82908964 -0.47040239 0
-0.024936529 0.021738218 0.026854634 -0.082237624 0.86035812 -0.50301176 0
-0.014922796 0.021988301 0.025722563 -0.13504265 0.90111756 -0.41200805 0
-0.005090782 0.02170247 0.026551165 0.22873674 0.93429035 -0.2734614 0
0.0029182753 0.020864572 0.027946245 0.27738804 0.89726979 -0.34345713 0
-0.040342163 -0.11002578 0.039395738 -0.27606219 -0.92183697 -0.27204093 0
-0.033411592 -0.11106692 0.036862489 -0.26954848 -0.90716541 -0.32310155 0
-0.025018446 -0.11190808 0.035150398 -0.21988279 -0.86469311 -0.4516165 0
-0.015295673 -0.11254111 0.035214446 -0.02181669 -0.45990977 -0.88769764 0
-0.0053252759 -0.11206586 0.035584725 0.17125042 -0.93184382 -0.3199068 0
0.0038975584 -0.11104318 0.037554055 0.29986128 -0.90067518 -0.314432 0
0.010768927 -0.11003743 0.039445173 0.29057732 -0.93231463 -0.2153005 0
-0.052698903 -0.10207241 0.036304928 -0.50950611 -0.7835604 -0.35557941 0
-0.04532171 -0.1053052 0.034869291 -0.34854919 -0.82675838 -0.4415701 0
-0.036444854 -0.1084867 0.033883598 0.39607906 0.91049719 -0.118812 0
-0.026860999 -0.10943983 0.031076347 0.16101584 0.90073568 0.40342161 0
-0.01929006 -0.10996225 0.030460767 0.080281697 0.92801261 0.36379588 0
-0.0037040815 -0.10941686 0.031407181 -0.16735284 0.91776627 0.36013621 0
0.0060682311 -0.10861554 0.033310708 -0.25252002 0.88051724 0.40115222 0
0.015031417 -0.10595725 0.035145342 0.45576292 -0.70122302 -0.54823935 0
0.022937089 -0.10208181 0.036032222 0.40725386 -0.82259333 -0.39684308 0
-0.063328095 -0.093001932 0.035309181 -0.57528406 -0.7676087 -0.28253329 0
-0.056970581 -0.097695373 0.034086362 0.41069117 0.86374795 0.29201412 0
0.02714383 -0.097695835 0.033870149 -0.61799121 0.68808287 0.38030088 0
0.033575092 -0.093393892 0.035763558 0.78429276 -0.57784241 -0.22579408 0
-0.072269045 -0.082912929 0.036012933 -0.8149851 -0.50286078 -0.28797624 0
-0.067894526 -0.08697845 0.03352112 0.8069486 0.56398612 0.17536689 0
0.037766911 -0.087516941 0.033332553 -0.7565586 0.56232989 0.33377251 0
0.042262375 -0.083183281 0.035554383 0.16428213 -0.98640811 0.0032343136 0
-0.080498695 -0.070722133 0.039778836 -0.88291556 -0.39194477 -0.25853336 0
-0.07642664 -0.075193189 0.035103928 -0.62057012 0.56212068 -0.54672956 0
0.046476811 -0.075493142 0.034722622 -0.32417169 0.90551668 0.27377388 0
0.050449733 -0.071281657 0.038784638 0.91172653 -0.30987194 -0.26969242 0
-0.081641428 -0.064401478 0.036850799 -0.78760988 -0.52941281 -0.3152661 0
-0.07887172 -0.066804081 0.032731909 0.91645235 0.25115535 0.31150612 0
0.048752304 -0.067501999 0.03226066 -0.69709766 0.49702141 0.51674408 0
0.051580139 -0.064088978 0.03588954 0.90005493 -0.01798922 -0.43540499 0
-0.083090067 -0.055046163 0.034967709 -0.90903759 0.16024351 -0.38467219 0
-0.079873614 -0.058842029 0.030457959 0.90139848 0.22132508 0.37215039 0
0.053659029 -0.054874308 0.034846183 0.88658661 -0.32181194 -0.33226669 0
-0.084053814 -0.044708237 0.0347775 0.7242617 -0.31378835 0.61398846 0
0.054473802 -0.045012094 0.034920618 -0.38795426 -0.13887197 -0.91115648 0
-0.083597988 -0.035152342 0.03504473 0.89173144 -0.37601814 -0.25184405 0
0.054037616 -0.03489922 0.034915388 -0.2548219 0.60900956 -0.75111461 0
-0.082067564 -0.025442239 0.035492208 -0.81911159 0.40616313 -0.40507749 0
-0.079174891 -0.021571288 0.031820692 0.8282302 -0.35111701 0.43675119 0
0.049359012 -0.022381248 0.031300642 -0.86021519 -0.2703706 0.43235353 0
0.052341789 -0.025033688 0.035322681 0.92659205 0.13751255 -0.35002497 0
-0.080649897 -0.017672118 0.038054474 -0.90595365 0.29886734 -0.29987702 0
-0.077430367 -0.014286523 0.034341689 0.85562843 -0.37545097 0.35628164 0
0.047902063 -0.014107177 0.034360997 -0.85022736 -0.32352898 0.41526192 0
0.050986923 -0.017904902 0.037019234 0.82010734 0.4434112 -0.36167717 0
-0.073162086 -0.0056316415 0.03564113 -0.84939653 -0.49363166 0.18669042 0
-0.068800136 -0.00220301 0.032078348 0.77511728 -0.52844173 0.3463273 0
0.039075151 -0.0014523503 0.031759061 -0.83477473 -0.36779022 0.40973347 0
0.043379035 -0.0052843834 0.035426907 -0.84685612 -0.37297636 0.37910876 0
-0.070428357 0.0010281301 0.037816405 -0.77319312 0.55598009 -0.30505511 0
-0.064802445 0.0047048926 0.035428554 0.94500625 -0.28117508 0.16704436 0
-0.058311842 0.0087246299 0.032134417 0.5524385 -0.71686673 0.42533943 0
0.028886313 0.0089220935 0.031908069 -0.75557059 -0.63561368 0.15845601 0
0.035237685 0.0048763715 0.035158139 0.71272486 -0.5808394 -0.39325419 0
0.040496744 0.00091182365 0.038645949 0.75455993 0.62971896 -0.18464382 0
-0.060647801 0.010569748 0.038700022 -0.6233784 0.7112366 -0.32487211 0
-0.054381825 0.013540582 0.035325795 -0.042357821 -0.66177738 0.74850279 0
-0.046261948 0.017908338 0.034040213 0.42224661 -0.77824932 0.46479654 0
-0.038693585 0.019449925 0.030688804 0.31945172 -0.85849369 0.40117228 0
0.0082971193 0.019597562 0.030565493 -0.3447457 -0.80560243 0.48182482 0
0.016477952 0.018217513 0.033968776 -0.38385704 -0.85443377 0.35013813 0
0.024559163 0.013886505 0.034923799 0.14292112 0.86827284 -0.47505349 0
0.031020967 0.010892822 0.037649173 0.5998615 0.76445186 -0.23617697 0
-0.042510901 0.021122806 0.037163343 -0.42395544 0.82845819 -0.3659493 0
-0.035009462 0.022986135 0.035076715 0.48646933 -0.50427961 0.71347719 0
-0.024978703 0.025160383 0.034998525 0.22043617 -0.84319782 0.49033192 0
-0.015233318 0.025785822 0.034924973 -0.070506103 -0.97095746 0.22862719 0
-0.004926566 0.02532037 0.035204403 0.53031135 -0.7442528 0.40602669 0
0.0048544621 0.023020457 0.034869567 -0.34327239 -0.84868789 0.40235934 0
0.012935488 0.021194987 0.036706913 0.37221205 0.85403574 -0.36342984 0
-0.041801121 -0.11076316 0.04635353 -0.39037827 -0.89061219 -0.23326963 0
-0.034917872 -0.11274058 0.045455791 -0.19196376 -0.91151464 -0.36371842 0
-0.025097538 -0.11464129 0.044975527 -0.30218801 -0.94228506 0.14415702 0
-0.015047852 -0.11525455 0.045069624 0.17990766 0.44671717 0.87639999 0
-0.0050201649 -0.11470514 0.044972535 -0.19386934 0.89432204 0.40324014 0
0.0050474592 -0.11262621 0.045379199 0.45281023 -0.76129377 -0.46410617 0
0.011989933 -0.11085342 0.046921525 0.33326367 -0.9091537 -0.24974951 0
-0.060633935 -0.10052916 0.048224047 -0.59803677 -0.77387327 -0.20849988 0
-0.054730821 -0.10326128 0.045126829 -0.90894055 -0.40331715 -0.10565167 0
-0.045784347 -0.10801873 0.044874396 0.33723822 0.87264925 0.35320485 0
-0.039069097 -0.10957392 0.041731644 0.34053761 0.91030413 0.23533048 0
0.0095965397 -0.10979863 0.040944796 -0.37015909 0.91113961 0.18112658 0
0.015801599 -0.10823123 0.044279154 -0.45577359 0.8534205 0.25287136 0
0.025000533 -0.10347111 0.045128625 0.69124705 -0.68444091 0.23177171 0
0.030522721 -0.10059207 0.047680434 0.60493487 -0.77344298 -0.18931352 0
-0.070665792 -0.090553641 0.047729719 -0.6924687 -0.69597203 -0.19002618 0
-0.065063983 -0.095163465 0.044989198 -0.62314814 -0.73275822 -0.27340782 0
-0.059109222 -0.099238694 0.04236434 0.49818262 0.84168214 0.20829095 0
0.029183773 -0.099131763 0.041760117 -0.59858567 0.75269496 0.27412689 0
0.035209976 -0.094960518 0.044875268 -0.35151476 -0.60090697 -0.71787757 0
0.041156787 -0.090839215 0.047677651 0.70947117 -0.62176096 -0.33175907 0
-0.073947437 -0.084642112 0.045217212 -0.7412262 0.2020127 0.64013648 0
-0.069261476 -0.089027755 0.04185674 0.76429588 0.59911126 0.23857401 0
0.03955996 -0.089103714 0.04317474 -0.75083482 0.62631822 0.20969652 0
0.044027179 -0.084710583 0.045020372 0.22857703 0.12194494 -0.96585816 0
-0.081159279 -0.072715461 0.04619763 -0.85704863 -0.44358703 -0.26210341 0
-0.078525566 -0.076657586 0.043891799 0.88315678 0.39337555 0.25551876 0
0.048479702 -0.077193446 0.044332109 -0.89462042 0.38415158 0.22821462 0
0.051483102 -0.072693184 0.046165951 0.89232314 -0.30476883 -0.33297944 0
-0.083468735 -0.065265276 0.044895329 0.98087692 0.16447505 -0.10405957 0
0.054097466 -0.065067478 0.045212813 0.79404193 -0.25244391 -0.55296433 0
-0.085999705 -0.055151567 0.045217056 -0.59886825 -0.043835428 -0.79964703 0
0.05621947 -0.054963425 0.045087475 -0.93067443 0.11465306 0.34741881 0
-0.086860269 -0.045112252 0.04523005 -0.42657611 -6.3282634e-05 -0.90445167 0
0.057140689 -0.044994418 0.045219265 -0.90099019 -0.036918797 0.43226579 0
0.064820148 -0.045140482 0.049978405 0.88025129 0.09367317 -0.46516988 0
-0.090316541 -0.038764924 0.049968027 -0.65453976 0.044177834 -0.75473577 0
-0.086714737 -0.035185196 0.045217361 0.17567898 0.0056230533 -0.98443151 0
0.056657225 -0.034870271 0.044960938 -0.94678795 0.082140528 0.31120005 0
-0.091115668 -0.022655178 0.049801305 0.073934205 -0.059386093 -0.99549335 0
-0.084660187 -0.024872156 0.045071598 0.042846646 0.65435249 -0.7549749 0
0.054811686 -0.024937149 0.045069143 0.90095997 0.33424339 -0.27668124 0
-0.09018296 -0.019255588 0.04977579 -0.11160202 0.11927731 -0.98656881 0
-0.081984952 -0.016042382 0.04543028 -0.66338682 0.1090451 -0.74028862 0
-0.079260923 -0.011611207 0.043157283 0.85512638 -0.46132523 0.23651212 0
0.049225006 -0.011397753 0.043427277 -0.89500076 -0.40854645 0.17906281 0
0.051970471 -0.015804859 0.045785885 0.76452589 0.15618555 -0.62538493 0
-0.080940954 -0.0086529003 0.049673654 -0.27362913 0.23987871 -0.93144262 0
-0.075561278 -0.0047920537 0.045057617 0.63643277 0.19989723 -0.7449795 0
0.046067059 -0.0047717309 0.044988327 -0.35842383 -0.75279021 -0.55212241 0
0.051005673 -0.0094366819 0.049096528 0.78348124 0.32409376 -0.53020781 0
-0.071478888 0.0021789686 0.046374615 -0.67492199 0.30324787 -0.67269683 0
-0.066471815 0.0066865254 0.044639267 0.72704726 -0.66545308 0.16904011 0
0.036988318 0.0066547799 0.044488493 -0.77078193 -0.55449861 0.31372994 0
0.042032924 0.0022038731 0.046256751 0.36532518 0.47052884 -0.80320621 0
-0.071241237 0.011608908 0.049928099 -0.25214598 0.29309443 -0.92223537 0
-0.062660724 0.012480396 0.046773143 -0.61606175 0.36102304 -0.70009309 0
-0.055120017 0.016213873 0.045001149 0.78804106 -0.59030986 -0.17471595 0
-0.048599288 0.019326422 0.043181852 0.46548846 -0.86456054 0.18935579 0
0.019090721 0.019394262 0.041944966 -0.41631216 -0.88228703 0.21966733 0
0.025376905 0.016520603 0.044837356 0.17547311 -0.94412714 -0.27898586 0
0.032798227 0.0124969 0.046753969 0.1446058 0.20169596 -0.96871459 0
0.04070748 0.011939127 0.049704012 0.44852903 0.43085358 -0.78306252 0
-0.06078181 0.020362001 0.049850229 -0.25214598 0.29309443 -0.92223537 0
-0.054280736 0.022700511 0.049488038 -0.13204217 0.26099026 -0.95626825 0
-0.044321373 0.02251482 0.045042709 -0.58361298 0.65650761 -0.47790551 0
-0.035198037 0.025660416 0.045086246 0.46474913 -0.52514941 -0.71289992 0
-0.025338855 0.027759982 0.045030873 0.030534433 -0.94293016 -0.33158755 0
-0.014762453 0.028589068 0.045091279 -0.086407349 -0.68542004 0.72300285 0
-0.0049674553 0.027925456 0.044862296 0.48382086 0.035478748 -0.87444752 0
0.0052313451 0.025784129 0.044903293 0.070706747 0.71792853 -0.69251657 0
0.014851617 0.022882689 0.045532335 0.15506658 0.34968996 -0.92394334 0
0.023618946 0.022612726 0.049066521 0.21026371 0.36657256 -0.90631878 0
0.030925861 0.020225579 0.049416266 0.36993524 0.54839289 -0.74994212 0
-0.041026175 0.030823814 0.04981463 -0.010016992 0.096324049 -0.99529958 0
-0.033767566 0.032624193 0.049883056 -0.057767246 0.17704509 -0.98250598 0
-0.025716139 0.031269129 0.049503069 -0.069036677 0.46870342 -0.8806538 0
-0.015373745 0.031059742 0.049492713 0.028361982 0.5025422 -0.86408728 0
-0.0044175819 0.032352339 0.049745485 -0.017869156 0.18864734 -0.98188233 0
0.0040594023 0.032270543 0.049685128 -0.081399515 -0.16126916 -0.98354787 0
0.011387372 0.030499514 0.049704265 0.19587553 0.4579052 -0.8671537 0
-0.032622699 -0.12073792 0.052635096 -0.2443998 -0.96816951 0.054003898 0
-0.025077973 -0.121872 0.052544113 -0.1373858 -0.99011177 0.028351586 0
-0.014813771 -0.12188865 0.05270176 -0.19492553 -0.9455983 0.26047593 0
-0.0056885295 -0.12148696 0.053006355 0.18703191 -0.90247852 0.38800976 0
0.0030376401 -0.12077933 0.053196281 0.16245216 -0.91761142 0.36276516 0
-0.053840093 -0.11222045 0.052595817 -0.52777284 -0.84471309 0.08896926 0
-0.044667333 -0.11431664 0.05221238 -0.15349494 -0.90827757 -0.38919306 0
-0.035327066 -0.11664417 0.052306548 0.17263697 0.82522482 0.53777361 0
-0.025232384 -0.11736045 0.051873039 0.089374207 0.86281145 0.49756265 0
-0.014813251 -0.11785197 0.051892355 0.043912359 0.7907511 0.61056066 0
-0.0042480249 -0.11753081 0.051954761 -0.34075207 0.89217395 0.29650262 0
0.0055897227 -0.11659525 0.052208096 0.12773846 0.61011362 0.78194904 0
0.014700736 -0.11434601 0.052309234 0.34035897 -0.71302915 0.61298054 0
0.023563951 -0.11210335 0.052467637 0.50575745 -0.85896969 0.079877414 0
-0.070944518 -0.10071357 0.052015353 -0.69198859 -0.64395154 -0.3263098 0
-0.064218685 -0.10366005 0.052299749 -0.52370346 -0.65630227 -0.54314095 0
-0.055988099 -0.10641611 0.051999319 0.47532564 0.87855846 -0.046909206 0
-0.04772317 -0.10912756 0.05111023 0.32190031 0.77309752 0.54653484 0
0.017625146 -0.10893784 0.050741788 -0.42835134 0.83759719 0.339037 0
0.02614679 -0.10655294 0.05210587 -0.43334624 0.73004401 0.52843815 0
0.034225646 -0.10351538 0.052261524 0.61938184 -0.78478873 -0.021742601 0
0.040387884 -0.10090105 0.052120522 0.76546174 -0.63565171 -0.10007644 0
-0.080144644 -0.090068072 0.052072622 -0.77550673 -0.6252647 0.087369211 0
-0.073938943 -0.093829162 0.052128743 -0.72505367 -0.67612404 -0.13097127 0
-0.066564739 -0.097407728 0.051882688 0.63095683 0.72240043 0.28289738 0
0.037026599 -0.09682706 0.051417638 -0.67603081 0.59563208 0.43382558 0
0.043805763 -0.09381558 0.052179281 0.82203716 -0.55841815 0.11146365 0
-0.082008228 -0.08369147 0.052151613 -0.7555812 -0.45654035 -0.46975303 0
-0.07678239 -0.086053319 0.051690828 0.79878414 0.46514261 0.38155782 0
0.046917561 -0.086072944 0.051921804 -0.50269395 0.32763562 0.79997104 0
0.052308381 -0.083478741 0.05251956 0.75368977 -0.49362969 0.43391433 0
-0.084730893 -0.074905239 0.051659584 -0.25598729 0.037819441 0.96594 0
-0.079288885 -0.078571349 0.050709423 0.56946504 0.24774559 0.78379315 0
0.049098779 -0.078548446 0.050580602 -0.84830737 0.44880548 0.28097725 0
0.054938506 -0.074600868 0.052112937 -0.25316474 0.16035426 0.954041 0
0.060237717 -0.07076101 0.051605828 0.95545995 -0.29410413 -0.024474902 0
-0.091366686 -0.063816883 0.051754575 -0.91518688 -0.33468071 0.22454789 0
-0.087172903 -0.065410696 0.05151996 0.75947315 0.17638832 0.62616915 0
0.057346199 -0.065423027 0.051992513 -0.82668686 0.30607408 0.47213084 0
0.061367981 -0.064193375 0.052163608 0.97673005 -0.20817631 0.051585104 0
-0.092176713 -0.055320751 0.051881075 -0.98185271 -0.1737545 0.075991407 0
-0.088704675 -0.055666134 0.051422164 0.75138032 0.11863028 0.64911813 0
0.058616441 -0.055527467 0.051325887 -0.47644222 0.21066706 0.85359371 0
0.062362798 -0.054917388 0.052198313 0.93090951 -0.092471085 0.35335055 0
-0.092503659 -0.044778757 0.051833011 -0.81162101 -0.034405962 -0.58317024 0
-0.088690244 -0.045694854 0.051028445 0.72562706 -0.018393306 0.68784225 0
0.058846988 -0.045262139 0.050952572 -0.67967474 -0.020237714 0.73323435 0
0.062785946 -0.044945978 0.051898234 0.70981771 0.02820907 -0.70382041 0
-0.092195839 -0.035302926 0.052031577 -0.77241737 0.049379189 0.63319284 0
-0.088794075 -0.034336142 0.051248476 0.65839332 -0.029484482 0.75209641 0
0.058626849 -0.034254968 0.051102638 -0.62592661 -0.064108223 0.7772426 0
0.062615544 -0.035249647 0.051667031 0.81522876 -0.003011449 -0.57913131 0
-0.091498978 -0.025130425 0.051895861 -0.88800687 0.23949718 0.3925364 0
-0.08780092 -0.024589745 0.051387541 0.49196398 -0.14022723 0.8592484 0
0.058019679 -0.024389943 0.051387563 -0.92264217 -0.038264226 0.38375416 0
0.061925959 -0.026066782 0.051895183 0.83371967 0.22106318 0.50600648 0
-0.090567395 -0.019169141 0.051365208 -0.92409354 0.33833718 0.17770477 0
-0.085922889 -0.014860271 0.051343478 0.50860488 -0.22187792 0.83192021 0
0.056048736 -0.014744345 0.051466547 -0.4137921 -0.36143586 0.83554792 0
0.060693845 -0.018011315 0.051722676 0.93858075 0.32353356 0.11996789 0
-0.082949907 -0.0060553635 0.051595025 -0.7929551 0.50622123 0.33906096 0
-0.077769719 -0.0028145385 0.051044326 0.67320085 -0.35526353 0.64852792 0
0.048063565 -0.0026329521 0.051199958 -0.35658142 -0.20014808 0.91257346 0
0.053100407 -0.0057634115 0.05150871 0.69301337 0.45698252 -0.55758345 0
-0.080422886 0.00080787216 0.051242925 -0.80903971 0.54926294 0.20920072 0
-0.074817486 0.004852761 0.051561549 0.019110329 -0.19118823 0.98136735 0
-0.068389997 0.0083804131 0.05091707 0.73966062 -0.38996288 0.54848075 0
0.038553648 0.008298696 0.051151864 -0.50628459 -0.47282645 0.72118723 0
0.044984229 0.0050206808 0.051214073 0.84701765 0.53114182 -0.021202372 0
0.050752938 0.0011791615 0.051040534 0.83027792 0.5573414 -0.003031811 0
-0.07150045 0.011931355 0.051552217 -0.72973418 0.68285185 0.034662176 0
-0.065015309 0.014939132 0.051464181 0.21698549 -0.15492602 0.96380246 0
-0.057262674 0.018432206 0.051272534 0.37723985 -0.3736048 0.84741348 0
0.02738928 0.018375894 0.051110659 -0.37416789 -0.52481699 0.76456881 0
0.035155628 0.015326375 0.051289417 0.24640459 0.08946342 0.96502906 0
0.041466329 0.012003364 0.051243205 0.71567351 0.64760315 -0.26157525 0
-0.061098184 0.020704476 0.051483363 -0.57318819 0.80953705 0.12690608 0
-0.054078247 0.02294462 0.051475503 -0.48638618 0.72125638 0.49317095 0
-0.045624137 0.026133049 0.051210906 0.12660788 -0.31879938 0.93932819 0
-0.036435172 0.028184963 0.051166542 0.17007194 -0.6463415 0.74385369 0
-0.025193932 0.029309755 0.050541978 0.10860359 -0.60589421 0.78809744 0
-0.014774757 0.029713519 0.050263282 0.017541163 -0.58158141 0.81329906 0
-0.0042941179 0.029463837 0.050387245 -0.058585808 -0.52492625 0.84912902 0
0.0061969734 0.028391276 0.050813206 -0.19277065 -0.62496704 0.75647581 0
0.01571664 0.026095303 0.051107187 -0.1767426 -0.2142671 0.9606517 0
0.024403183 0.023654513 0.051309794 0.35369116 0.61133063 0.70793891 0
0.031841896 0.021121267 0.051127046 0.58119464 0.76109982 -0.28799263 0
-0.041022591 0.030785797 0.051122252 -0.32544068 0.94435471 0.047775779 0
-0.033531651 0.032187704 0.051550988 -0.27391502 0.8696661 0.41067189 0
-0.024687575 0.033315435 0.051477481 0.013524725 0.26590657 0.9639039 0
-0.014995337 0.03355762 0.051322628 0.057261102 -0.038680315 0.99760967 0
-0.0050025308 0.03328567 0.051244549 0.15274012 0.76318657 0.6278668 0
0.0045963558 0.032607771 0.051239535 0.18692094 0.67926246 0.7096923 0
0.013008546 0.031099163 0.051270254 0.3355583 0.87683553 0.34432569 0
