# .PCD v0.7 - Point Cloud Data file format
VERSION 0.7
FIELDS x y z normal_x normal_y normal_z curvature
SIZE 4 4 4 4 4 4 4
TYPE F F F F F F F
COUNT 1 1 1 1 1 1 1
WIDTH 93
HEIGHT 1
VIEWPOINT 0 0 0 1 0 0 0
POINTS 93
DATA ascii
-0.0015439194 -0.053206541 -6.5506365e-06 -0.00036306179 -0.12981029 -0.99153876 0
0.0010799173 -0.052897952 -9.3207591e-06 -0.053582352 0.057206172 -0.99692351 0
-0.027712081 -0.040850531 -4.6226523e-05 -0.041653655 -0.035785399 -0.99849099 0
0.0019464471 -0.040943895 -4.386131e-05 -0.57311636 -0.031263009 -0.81887746 0
-0.027900767 -0.035428952 -5.1416406e-05 -0.13560453 -0.010659892 -0.99070573 0
0.0019464408 -0.034352012 -6.899835e-05 0.066991083 -0.0071878415 -0.99772769 0
-0.028609075 -0.024474172 -3.8463197e-05 0.24498437 -0.0058281543 -0.96950954 0
0.0019418866 -0.026210435 -6.3224121e-05 -0.10674354 0.01626743 -0.9941535 0
-0.028706776 -0.015667608 -0.00010445007 -0.094549447 -0.011865465 -0.99544942 0
0.0016875003 -0.015346195 -5.0892668e-05 0.76875144 0.022424465 -0.63915455 0
-0.028941313 -0.0054768762 -0.00013197785 -0.26363435 0.0038570357 -0.96461505 0
0.001474923 -0.0088276146 -4.0947878e-05 0.30168018 0.051466037 -0.95201904 0
-0.027866602 0.0043287207 -8.8469074e-05 0.19447792 0.1031165 -0.97547179 0
-0.010849796 0.0080032572 -4.159291e-05 0.076581813 -0.9964487 -0.03500263 0
-0.0077514206 0.0080881985 -7.9627634e-06 0.040201459 0.072306015 -0.9965719 0
-0.024871983 -0.053105518 0.0048478777 -0.57728755 -0.53227317 -0.61921263 0
-0.015036281 -0.053375255 0.0050316723 0.2313903 -0.034928374 -0.97223377 0
-0.0049016238 -0.05294776 0.0047943541 -0.37310392 -0.26544109 -0.88900757 0
0.0023240221 -0.052688785 0.0044302018 0.744524 -0.5756982 -0.3380172 0
-0.027123688 -0.044773802 0.0049684085 -0.0023914846 -0.021291254 -0.9997704 0
-0.014969215 -0.043501809 0.00638957 -0.14176808 -0.18262847 -0.9729073 0
-0.0056428965 -0.044725958 0.0075720251 -0.19693153 0.10416418 -0.97486806 0
0.0022137393 -0.04471093 0.0044668713 0.70682901 0.14428723 -0.69251281 0
-0.026837973 -0.035257794 0.0053922674 -0.62554252 -0.034230523 -0.77943879 0
-0.015629692 -0.034367949 0.0057317787 0.15712099 -0.18217055 -0.97063226 0
-0.0066782613 -0.035812937 0.0068822014 0.12355728 0.17394798 -0.97697276 0
0.0018964871 -0.035214707 0.0047541894 0.20488264 -0.14558622 -0.96789861 0
-0.026419008 -0.0244783 0.0056511406 -0.6232267 -0.0092528015 -0.78198653 0
-0.015882887 -0.026110038 0.0059797778 0.30004558 0.16246863 -0.93998748 0
-0.0063597616 -0.023597885 0.0066623571 0.015886173 -0.41840699 -0.90812075 0
0.001710934 -0.025177035 0.00465849 0.56403989 0.15423879 -0.81121469 0
-0.027809516 -0.015013935 0.0052758884 -0.46795404 -0.04955909 -0.88236219 0
-0.014730267 -0.014632735 0.0059892936 -0.29936409 -0.06991221 -0.95157415 0
-0.0050051282 -0.015314298 0.0071584573 -0.32250795 0.1268837 -0.9380241 0
0.0016767016 -0.015045562 0.0042068316 0.89423072 -0.027052013 -0.44678816 0
-0.026878003 -0.0052431859 0.0056277704 -0.74214816 -0.071925744 -0.66636533 0
-0.015677173 -0.0037179717 0.0057057212 0.57479495 -0.13441831 -0.80718172 0
-0.00672899 -0.004947104 0.0066718701 -0.035108451 0.011806969 -0.99931377 0
0.0012586333 -0.0052911965 0.0046024458 0.68578404 0.013868334 -0.72767293 0
-0.026431765 0.0059132692 0.00485666 -0.27322176 0.51101977 -0.81499004 0
-0.015135709 0.0067926981 0.005690332 0.038023736 0.52580047 -0.84975761 0
-0.0042971568 0.0064826575 0.0056164688 -0.62874258 0.099475421 -0.77122468 0
0.0013968662 0.0049556768 0.004563225 0.94893575 0.22943459 -0.21651949 0
-0.024496824 -0.053015511 0.014714401 -0.50526613 -0.79072249 0.34563577 0
-0.014660452 -0.053415988 0.015307718 0.065359749 -0.93353307 0.35248277 0
-0.0051195519 -0.053309456 0.01556485 0.011928486 -0.92428464 0.38151768 0
0.0024326371 -0.052893553 0.014962493 0.73065299 -0.62410223 0.27684408 0
-0.02551898 -0.044974588 0.014645409 -0.99962622 -0.019211546 0.019452676 0
-0.014916519 -0.044934057 0.016111419 0.21871369 0.47920617 0.8500151 0
-0.0048887609 -0.044767626 0.01576479 -0.017480614 0.49242055 0.87018186 0
0.0026743934 -0.04476738 0.015148152 0.94267356 0.034125872 0.33196682 0
-0.026147991 -0.035046224 0.014930387 -0.95928544 -0.12322628 0.25413927 0
-0.014423329 -0.035489857 0.015849307 0.25733602 -0.35252848 0.89972323 0
-0.0050751176 -0.035036333 0.015554855 -0.36103025 -0.14621161 0.92102081 0
0.0024847209 -0.034949642 0.015076828 0.95829737 0.0220023 0.28492448 0
-0.026030716 -0.025004504 0.014858575 -0.93003112 0.066054218 0.36149535 0
-0.014485647 -0.024597449 0.015670791 0.081106529 0.32786939 0.94123513 0
-0.0043077264 -0.025286622 0.015531688 0.2573286 0.056930345 0.9646455 0
0.0021896791 -0.025070583 0.014884274 0.95791334 0.028558511 0.28563333 0
-0.026501739 -0.014990305 0.014614906 -0.9974885 -0.063634433 0.031102821 0
-0.014635949 -0.015449313 0.017078226 0.14283879 -0.19194598 0.97095507 0
-0.0047827503 -0.014768516 0.014681065 0.3489781 0.044128753 -0.9360913 0
0.002139389 -0.014988094 0.014889759 0.97068524 0.023543557 0.23919834 0
-0.026699493 -0.00509489 0.015102091 -0.91043693 -0.089807011 0.40378121 0
-0.014577241 -0.0052951239 0.015452082 0.17364092 -0.064442866 0.98269832 0
-0.0042898809 -0.0059712538 0.016398586 0.0020166151 -0.17848329 0.98394096 0
0.0019021222 -0.0053193877 0.015021394 0.95703107 0.032765947 0.28812832 0
-0.025919119 0.0055042068 0.014662882 -0.70081556 0.69345373 0.1672705 0
-0.014772122 0.0063064909 0.015440172 0.0091836117 0.88578004 0.46401441 0
-0.0048135831 0.006942274 0.015236825 0.0043655117 0.95279419 0.30358541 0
0.0014255231 0.0050433669 0.014776664 0.95781416 0.19156361 0.21423206 0
-0.021594942 -0.050522111 0.021474991 -0.18437038 -0.93349683 0.30755687 0
-0.018916409 -0.050385434 0.02093355 0.30772448 -0.85407096 0.41936657 0
-0.0049444069 -0.050578352 0.020999296 -0.10143582 -0.88176143 0.46065977 0
-0.022840731 -0.046209741 0.021137418 -0.28213993 0.24729039 0.92695445 0
-0.018041404 -0.04643112 0.021356694 0.29805571 0.15106429 0.94251919 0
-0.0049699186 -0.045764547 0.021125179 -0.0019723866 0.11804025 0.99300677 0
1.1719239e-05 -0.044319984 0.020020731 0.91737592 -0.15284038 0.36750695 0
-0.023009781 -0.033223614 0.020941818 -0.14000021 -0.10714503 0.98433733 0
-0.01800386 -0.032080706 0.021227192 0.20416468 -0.31099442 0.92822367 0
-0.00466108 -0.032521006 0.020932449 0.041759845 -0.1474282 0.98819077 0
-0.022242138 -0.027851757 0.021239417 -0.12650312 0.017862018 0.99180543 0
-0.018575916 -0.028405057 0.021299709 0.34322396 0.37831497 0.85969484 0
-0.0051606186 -0.027822098 0.020965941 -0.071848832 0.2254795 0.97159499 0
-0.023144715 -0.014617418 0.021054896 -0.15685089 0.014458245 0.98751646 0
-0.017979698 -0.015035288 0.020815654 0.17587121 -0.034090351 0.9838227 0
-0.005468959 -0.014754593 0.021261131 0.11883725 0.072401099 0.99027056 0
-0.023222562 -0.001880444 0.021229487 -0.14545788 -0.18400428 0.97210306 0
-0.018824343 -0.0015993256 0.020885345 0.38749161 -0.50756961 0.76956052 0
-0.0064016213 -0.0014734745 0.021164335 -0.090769216 -0.16660349 0.98183709 0
-0.023659112 0.003189543 0.021159442 -0.15701821 0.22530033 0.96155339 0
-0.017568391 0.0023810032 0.021009007 0.03052835 0.11294808 0.99313176 0
-0.0055720448 0.0035038495 0.021210507 0.17445818 0.1959499 0.96497047 0
