# .PCD v0.7 - Point Cloud Data file format
VERSION 0.7
FIELDS x y z normal_x normal_y normal_z curvature
SIZE 4 4 4 4 4 4 4
TYPE F F F F F F F
COUNT 1 1 1 1 1 1 1
WIDTH 636
HEIGHT 1
VIEWPOINT 0 0 0 1 0 0 0
POINTS 636
DATA ascii
-0.083741814 -0.12822135 -0.00020213753 -0.062684 0.19986565 -0.97781616 0
-0.075639896 -0.12727188 -0.00023002125 -0.03163334 0.23111333 -0.97241247 0
-0.065466523 -0.12618271 -0.00024143895 0.0096133575 -0.11277983 -0.99357355 0
-0.05506032 -0.12493482 -0.0002046701 0.010543393 -0.12048803 -0.99265879 0
-0.045403294 -0.12356279 -0.0002723962 -0.030818017 0.24059485 -0.97013623 0
-0.039445069 -0.1223774 -0.00015505994 -0.10453662 0.55626965 -0.82440048 0
-0.045893505 -0.10097389 -8.5397289e-05 0.35137698 -0.51043737 -0.78484899 0
0.007145735 -0.083576217 -0.00012129219 -0.10017135 0.30695096 -0.94643903 0
0.015550196 -0.08169955 -0.00015935914 -0.052224103 0.17265385 -0.9835971 0
0.021598471 -0.080505118 -0.00015862953 0.085780405 -0.4066858 -0.90953189 0
0.026557285 -0.078994475 -0.00029696437 -0.1058986 0.40301666 -0.90904516 0
0.034431107 -0.077245444 -0.00031563896 -0.0094895288 0.038139172 -0.9992274 0
-0.10525204 -0.021088274 -0.0003127981 0.1037875 0.096998855 -0.98985827 0
-0.093745895 -0.023904148 -0.00019004072 0.072425626 0.19916037 -0.97728693 0
-0.086057015 -0.025980277 -0.00011889418 -0.079345174 -0.3867625 -0.91875958 0
-0.10825753 -0.019881707 -0.00017821579 0.17787184 0.77508742 -0.60630113 0
-0.15734845 -0.0045931377 -4.8190832e-05 -0.53439027 0.028243294 -0.84476584 0
-0.18557665 0.0068965005 -6.7667534e-05 0.18578871 -0.23979759 -0.95287967 0
-0.1234349 0.03860946 -7.0027818e-05 -0.19959636 0.093519561 -0.97540522 0
-0.12162137 0.041707467 -6.2139574e-05 0.46113423 -0.26183555 -0.84781921 0
-0.13220347 0.054717638 -4.2743406e-05 -0.50213814 0.25065005 -0.82766652 0
-0.12945463 0.056599703 -2.1996681e-05 -0.13473527 0.23179409 -0.9633888 0
-0.090656541 -0.130309 0.0045537991 -0.28927642 -0.88464117 0.36568996 0
-0.084624738 -0.13098471 0.0038687198 -0.073990479 -0.99695492 0.024622794 0
-0.075042091 -0.13068578 0.0032877738 0.14628732 -0.98798436 0.049870055 0
-0.068502776 -0.130191 0.003587058 0.15163155 -0.96653527 0.20692363 0
-0.092800543 -0.12404476 0.0050006458 -0.95074081 -0.30946356 -0.018008014 0
-0.085500665 -0.125604 0.004324771 0.56754476 0.73477805 0.37147552 0
-0.074669614 -0.12562162 0.0035742896 -0.13199541 0.99114764 -0.014264536 0
-0.064986207 -0.12508149 0.0035422298 0.17307372 -0.82853889 0.53251177 0
-0.055011623 -0.12442716 0.0034102029 0.16306357 -0.88713443 0.43174392 0
-0.045086116 -0.1231901 0.0032624358 0.087349094 -0.96566659 -0.24465926 0
-0.038462568 -0.12145433 0.0040964559 0.68615645 -0.72300315 -0.080347903 0
-0.092986383 -0.11596128 0.0073267599 -0.5660522 0.52805209 -0.63304496 0
-0.085510224 -0.11466063 0.0079788826 0.22497711 -0.35480177 -0.90746957 0
-0.074836478 -0.11344801 0.0080870381 0.11711285 -0.83199519 -0.54228097 0
-0.064841218 -0.11288799 0.0077127512 0.1491012 -0.96261746 -0.22613367 0
-0.053989783 -0.11429536 0.0066068145 -0.86483139 -0.14985599 0.47917628 0
-0.045733768 -0.11484464 0.0060288827 -0.64884704 0.28361264 -0.70608884 0
-0.035739128 -0.11511688 0.0057832734 0.55556196 0.039434146 -0.83053952 0
-0.029251572 -0.11154749 0.0099522071 0.10547973 -0.085740097 -0.99071831 0
-0.090634421 -0.10958395 0.0083142361 -0.45351908 0.86622059 -0.20971945 0
-0.084605381 -0.10860417 0.0081361616 -0.18222407 0.83165818 -0.52453709 0
-0.074533865 -0.10732485 0.0078532165 -0.14876257 0.66402388 -0.73276323 0
-0.064958252 -0.10642475 0.0073252772 -0.10636544 0.45172584 -0.88579351 0
-0.054340836 -0.10619749 0.0068816883 -0.26463273 0.29886314 -0.91686988 0
-0.044684481 -0.10464859 0.0047663217 0.1543083 0.15526493 -0.97574675 0
-0.037147522 -0.10563948 0.0068251337 0.86907446 0.12781242 -0.47788459 0
-0.04191339 -0.098598443 0.0029314575 -0.58280194 0.80695063 0.095774338 0
-0.034534734 -0.095212035 0.0039137285 -0.55497867 0.78892767 0.26380262 0
-0.027512422 -0.092628509 0.0045233145 0.65695149 -0.75057232 0.071105182 0
-0.0021382761 -0.090821221 0.0046637296 -0.1165953 -0.97669709 0.18018961 0
0.0010375016 -0.0904973 0.0037731235 0.25914073 -0.90711015 -0.3316583 0
-0.0300264 -0.089784466 0.0032389862 -0.54284322 0.82240283 -0.17022002 0
-0.024259362 -0.087182119 0.0039752843 -0.4795962 0.8502866 -0.21679513 0
-0.016770361 -0.082695253 0.0040938761 0.825257 -0.55406994 -0.10935005 0
-0.0043949685 -0.086458042 0.0059804479 -0.37020975 0.12755805 -0.92014867 0
0.0045949421 -0.085592143 0.0052642254 -0.34335595 -0.93480396 0.090819322 0
0.014889137 -0.083289221 0.0041114334 0.32396227 -0.94483209 0.048381563 0
0.024587931 -0.082024179 0.0036965329 0.28496045 -0.95417178 -0.091399305 0
0.033395458 -0.080800228 0.0045581725 0.12650007 -0.98831302 0.085058823 0
0.045297012 -0.082176439 0.0055955825 -0.21163794 -0.96258605 -0.16922632 0
0.051286001 -0.081109859 0.0048775366 0.69356728 -0.72019887 0.016673924 0
-0.012307663 -0.078358315 0.0047879652 0.39505413 0.90872037 -0.13475734 0
-0.0052135848 -0.077668823 0.0066392715 -0.27685922 -0.95888966 0.062286258 0
0.00024498475 -0.079782628 0.0094501674 0.88096189 0.40202221 -0.2495679 0
0.019265816 -0.079725519 0.0042769536 -0.29948586 0.95169199 0.067754097 0
0.025689255 -0.078236409 0.0048990152 -0.29406399 0.95239127 0.080480486 0
0.035694595 -0.076282524 0.0050832741 -0.61618257 0.49271473 -0.61445194 0
0.045076739 -0.075320132 0.0051832404 0.51802671 0.59699649 -0.61257124 0
0.053932685 -0.074448466 0.0042009503 0.74899459 -0.64743859 0.1408204 0
0.060281392 -0.07042551 0.005313701 0.85306942 -0.52146381 -0.018658319 0
-0.16076575 -0.061725922 0.007529398 -0.76821357 -0.55153632 0.32504708 0
-0.15492147 -0.063262761 0.0047120443 -0.44358143 -0.89520544 -0.042927694 0
-0.14594449 -0.062523268 0.0030756863 0.47329143 -0.88022792 0.034555003 0
0.046894182 -0.0690552 0.0087904586 0.01240249 0.96453971 -0.26364636 0
0.056678329 -0.066028506 0.0039507113 -0.85360324 0.51834869 -0.051731195 0
0.062576495 -0.063697875 0.0042094826 0.82799768 -0.56051338 -0.015639897 0
-0.16171578 -0.055511605 0.0078935018 -0.88493061 0.11049961 -0.45242414 0
-0.15446381 -0.055593979 0.0056096395 0.086834691 -0.39698645 -0.91370749 0
-0.14503832 -0.055501938 0.0045910901 -0.23660475 0.87178159 0.42896965 0
-0.13598083 -0.054177083 0.004319326 0.62456882 -0.77407777 0.10352468 0
-0.12921967 -0.05070921 0.0053148833 0.65172428 -0.75347626 -0.086769477 0
0.059072193 -0.059055328 0.0049407068 -0.8275485 0.55245578 0.099779822 0
0.065547556 -0.05501816 0.0040369434 -0.77159739 0.39639774 -0.49749997 0
0.071023628 -0.051931489 0.0038993973 0.84683055 -0.53180742 -0.0076758303 0
-0.16057189 -0.049368087 0.0091965189 -0.70886517 0.43780217 -0.55302751 0
-0.1534293 -0.045094416 0.0057735504 -0.68308669 0.21047017 -0.69935316 0
-0.14764269 -0.044182006 0.0055113765 0.86060411 -0.25862008 -0.43872121 0
-0.13323118 -0.046274122 0.0057183784 -0.66858321 0.72203493 0.17793825 0
-0.12549561 -0.04424084 0.0053061768 0.67473978 -0.72514379 -0.13745107 0
-0.11875424 -0.041464239 0.0062967017 0.6597746 -0.75145072 0.0043935226 0
-0.094871081 -0.040715665 0.0099229822 0.023215076 0.025655782 -0.99940115 0
-0.083213039 -0.041568756 0.0095030284 -0.031711634 -0.29340088 -0.95546341 0
-0.074393548 -0.043394007 0.0059042289 -0.54292041 -0.51624691 -0.66236436 0
-0.065401562 -0.044778813 0.0042017181 0.4720293 -0.76429617 -0.43936279 0
-0.055645112 -0.043405585 0.0035651687 0.29422158 -0.95530349 -0.028788883 0
-0.046158388 -0.041668709 0.0040533007 0.32442063 -0.94508207 -0.039636228 0
-0.03976468 -0.040174626 0.0048796143 0.33558798 -0.92276424 -0.18943848 0
0.059087742 -0.04145794 0.0059985472 -0.66596764 -0.73886341 -0.10280047 0
0.065653339 -0.044489838 0.0059531871 -0.82757246 -0.13906839 -0.54386002 0
0.073858723 -0.044460282 0.0049751811 0.8100543 -0.46700859 -0.35456318 0
0.081701711 -0.041658666 0.0095610423 0.1521702 0.15349978 -0.97636163 0
-0.15315656 -0.034894235 0.0050385823 -0.99697506 -0.056555979 -0.053312529 0
-0.14649498 -0.035841025 0.0062092254 0.44560394 0.25885582 -0.85698938 0
-0.13631673 -0.033011597 0.0089661274 0.26222217 -0.20361654 -0.94328141 0
-0.12349045 -0.036371257 0.0074015348 -0.83610177 0.520037 -0.1746296 0
-0.11512417 -0.034962907 0.006827367 0.61756867 -0.45534453 -0.6413036 0
-0.10502586 -0.03605872 0.0097862016 0.012208827 0.067082107 -0.9976728 0
-0.094250284 -0.037067611 0.0093809972 -0.045569073 0.091653533 -0.99474776 0
-0.083197385 -0.036079466 0.0076628299 -0.42314118 -0.56233633 -0.71044308 0
-0.075198852 -0.035813827 0.006334905 -0.62828553 -0.50613242 -0.59083605 0
-0.065456234 -0.035363514 0.0056579332 0.72750854 0.50879771 -0.46027842 0
-0.054506876 -0.038134359 0.0042251777 -0.20859382 0.97314948 -0.097307846 0
-0.045021087 -0.036756612 0.0047642877 -0.25705257 0.9626416 0.085118525 0
-0.034985758 -0.034946375 0.004849968 0.34587449 0.19886979 -0.91696328 0
-0.02585201 -0.032938421 0.0053870194 0.56114501 -0.82330453 -0.085357286 0
0.057282299 -0.034882832 0.0051546381 -0.98622197 0.008509391 -0.16520838 0
0.064365231 -0.034479521 0.007270942 -0.04467494 0.099839531 -0.99400008 0
0.073896028 -0.035661977 0.0047986628 0.56412828 0.57345849 -0.59405774 0
0.088822827 -0.030333078 0.0095033552 -0.15030275 -0.73801559 -0.65783137 0
0.096156158 -0.030848986 0.0087904623 -0.046520654 -0.72737151 -0.68466532 0
-0.16082484 -0.021430325 0.0090326983 -0.82306552 -0.29936433 -0.48264283 0
-0.15481311 -0.024784543 0.0048843985 -0.80708152 -0.49955943 -0.31473783 0
-0.14914401 -0.026338737 0.0037128308 0.97990233 0.19742337 0.028556028 0
-0.13361201 -0.026758177 0.0094279032 -0.040666867 0.16349193 -0.98570615 0
-0.12367389 -0.025903933 0.0075587579 -0.50901592 0.043613531 -0.85965145 0
-0.11494555 -0.02491226 0.0054968265 0.26448113 -0.22763887 -0.93713945 0
-0.10457122 -0.023609323 0.0038358488 -0.23717515 -0.97093278 0.032210514 0
-0.094960019 -0.024696618 0.0038018189 -0.064663202 -0.20144868 0.97736228 0
-0.085280828 -0.026106713 0.0032814362 0.28745618 0.95757324 0.020550137 0
-0.075005874 -0.027586961 0.0038401072 0.10374845 0.94086355 -0.32250899 0
-0.065693893 -0.027535679 0.0073659793 0.37118551 0.56088591 -0.74001914 0
-0.054963611 -0.023744246 0.0095864544 0.0060815006 0.014844134 -0.99987131 0
-0.044790879 -0.022395929 0.0095275063 0.0058404454 -0.1624908 -0.98669273 0
-0.033332314 -0.02344035 0.0080515323 -0.61772275 -0.26381874 -0.74082273 0
-0.024695467 -0.025682783 0.00590515 0.43091285 -0.38356546 -0.81681794 0
-0.019255979 -0.025131932 0.0060822116 0.99808896 -0.053943351 0.030142613 0
0.058641113 -0.028600456 0.0038783497 -0.70796895 0.63814342 0.30257705 0
0.065269031 -0.025753463 0.0045236358 -0.50805098 0.76509976 -0.39560911 0
0.07415387 -0.024693003 0.0068729543 0.62063313 -0.46026081 -0.63480282 0
0.084795102 -0.024183922 0.0078154607 0.22769094 -0.56161475 -0.79545319 0
0.095932499 -0.025280517 0.0067393892 -0.1136566 -0.44816118 -0.88669819 0
0.1003508 -0.024397926 0.0087031554 0.94099599 -0.075542554 -0.32987851 0
-0.18403031 -0.012635718 0.0067370222 -0.47211128 -0.88153744 0.0016656675 0
-0.17485274 -0.012693985 0.0073281839 0.18371704 -0.93858582 -0.29206988 0
-0.16421205 -0.013447264 0.0084879026 -0.15588181 -0.83651006 -0.52531117 0
-0.15562063 -0.015072507 0.0047790594 0.73570156 -0.54773837 0.39840403 0
-0.14988545 -0.019563207 0.0029182208 0.50842673 0.051160693 -0.85958415 0
-0.12243047 -0.018640481 0.0090578571 -0.27560258 0.58830607 -0.76022309 0
-0.11515862 -0.018433109 0.0048307315 -0.031796772 0.99308026 0.11305182 0
-0.10524314 -0.019103201 0.0026496297 0.20010549 0.97553855 -0.091007322 0
-0.099534392 -0.019712066 0.0031270329 0.19474828 0.93447757 0.29803488 0
-0.05128143 -0.019726861 0.0096433377 -0.24370392 0.9319343 -0.26852727 0
-0.044560563 -0.018819347 0.0092876079 -0.14982034 0.42418471 -0.89309639 0
-0.034321859 -0.017354127 0.0086693522 -0.23057063 0.37166229 -0.89927989 0
-0.0243212 -0.015086001 0.0046097925 -0.058817901 0.61569786 -0.78578407 0
-0.019443162 -0.011395781 0.0023512142 0.94349575 -0.33138055 0.0016040298 0
0.039040681 -0.011946032 0.0028297545 -0.94718772 -0.30169034 -0.10871276 0
0.045403436 -0.013426384 0.0047852811 -0.28672498 -0.8699528 -0.4012118 0
0.054082472 -0.013126261 0.0070085409 0.65733844 -0.59784621 -0.45878759 0
0.064927742 -0.011556942 0.0079514822 -0.24315661 -0.84633452 0.47391221 0
0.076033264 -0.013203121 0.0050550336 -0.40479988 -0.90547401 -0.12749033 0
0.085564062 -0.01535054 0.0048065353 -0.55037647 0.83106446 -0.080109864 0
0.094100133 -0.01633044 0.0048191934 0.41848657 0.8516975 -0.31540507 0
0.1018985 -0.018138845 0.0093259783 0.28094161 0.22149558 -0.93381554 0
-0.19142336 -0.0043332246 0.0037262826 -0.95277733 -0.23961474 0.18654747 0
-0.18621264 -0.0056319195 0.0051569366 0.72754854 0.44234926 -0.52440464 0
-0.17521602 -0.0073047299 0.0067008999 -0.10367291 0.98155892 0.16060525 0
-0.16465251 -0.00543966 0.0071545499 -0.51960558 -0.10261791 -0.84822136 0
-0.15530206 -0.0044738813 0.0052960883 0.511787 0.35202006 -0.78368109 0
-0.14674067 -0.0037889278 0.008015071 0.26809576 -0.71847093 -0.64181322 0
-0.13872167 -0.0061089587 0.0098024337 0.15059474 0.0183775 -0.98842472 0
-0.022738378 -0.0051536746 0.0049076215 -0.95031965 0.30560035 -0.059169088 0
-0.017919598 -0.0040833293 0.0039667618 0.90086162 -0.30809575 0.30581921 0
0.038213417 -0.0046220939 0.0033851471 -0.94905436 -0.30852985 0.064071469 0
0.044591099 -0.005435348 0.0060132449 0.33276123 0.41477492 -0.8468954 0
0.05558461 -0.0042477818 0.00643809 -0.055704225 -0.07025779 -0.99597228 0
0.064547077 -0.006058835 0.0053999024 0.40487999 0.8297646 -0.38413909 0
0.074097618 -0.007633985 0.0045561166 0.34290045 0.931445 0.121776 0
0.082638517 -0.0089954799 0.0045180996 0.33795574 0.9365778 0.09277907 0
-0.1903781 0.0014739274 0.0036170571 -0.92676181 0.34884158 0.13936327 0
-0.18507199 0.0050853379 0.0038457548 -0.56220073 0.35248315 0.74812162 0
-0.17491519 0.0063444446 0.0044335406 0.10660695 -0.98605216 -0.12781291 0
-0.16451773 0.0052761263 0.0067416197 -0.24784042 -0.96838123 -0.028511092 0
-0.15543714 0.0054470645 0.0074037286 0.17365341 -0.65220779 -0.73788172 0
-0.14444853 0.0054115131 0.0056533199 0.013898643 -0.028201442 -0.99950564 0
-0.1368569 0.0064562769 0.0057821074 0.4904224 -0.69716549 -0.52292073 0
-0.020909855 0.0028625506 0.0055176117 -0.94692099 0.32109895 0.015369339 0
-0.016452499 0.0053942623 0.0044113444 0.92669594 -0.2643874 0.26708406 0
0.036589622 0.0054495796 0.0034237118 -0.89590818 -0.27903298 -0.34567201 0
0.041349921 0.0041433671 0.0053442935 0.96880895 0.24735199 -0.015040094 0
0.053977989 0.0034724206 0.0083625251 0.030591488 0.52667093 -0.84951854 0
-0.18228984 0.01046642 0.0032724105 -0.19941258 0.94713306 0.25134352 0
-0.1746725 0.011129649 0.0046756668 -0.1372871 0.990511 -0.0063447193 0
-0.16516864 0.011823727 0.0062572942 -0.14155912 0.98657393 0.081442244 0
-0.15537281 0.012733513 0.0067627719 -0.069085166 0.94376189 -0.32332769 0
-0.14394459 0.013382749 0.0066872556 -0.18457927 0.7046876 -0.68508816 0
-0.13515584 0.01523719 0.0042827204 0.49214426 0.29740676 -0.81813401 0
-0.12939279 0.019502571 0.0041802903 0.88935155 -0.43199012 0.14979456 0
-0.014386339 0.015176542 0.0049849106 -0.56755203 0.017465889 -0.82315224 0
-0.0092155151 0.017243257 0.0031042704 0.95035368 -0.22469848 -0.21526372 0
0.029707309 0.019484097 0.0054145167 -0.56712019 -0.21817501 0.79421306 0
0.034995474 0.015251916 0.004429331 -0.49853781 -0.42349458 -0.75638127 0
0.040281538 0.011982543 0.006517102 0.78266853 0.16502322 0.60016441 0
0.052832205 0.013070063 0.0097809946 0.016361352 0.090443574 -0.99576712 0
-0.13312337 0.02416092 0.0045019845 -0.86949646 0.49247989 0.037939847 0
-0.12798855 0.025972197 0.0034027537 0.88651639 -0.40742433 -0.21930364 0
-0.02375737 0.025601914 0.0066353525 -0.3802231 -0.91363442 -0.14388376 0
-0.013556954 0.024557518 0.0064254864 -0.4598656 0.34717071 -0.81731033 0
-0.0093418267 0.024823295 0.0074924892 0.98833686 0.10901571 -0.10632821 0
0.028740004 0.025485799 0.0041513676 -0.9637354 -0.2641049 -0.03824617 0
0.034101442 0.02494574 0.0052032978 0.9729951 0.20923053 -0.097483933 0
-0.13075954 0.031723972 0.0057396763 -0.86963946 0.4912039 -0.049457274 0
-0.12559795 0.035044461 0.0041041924 0.76829606 -0.12245263 0.62827259 0
-0.119955 0.039599761 0.0055139815 0.10969542 -0.010521608 0.9939096 0
-0.024955496 0.034905437 0.0048274971 0.26032767 -0.33500701 -0.90553838 0
-0.013549854 0.030131236 0.0085961521 0.062556081 0.98627287 -0.15281536 0
0.028196311 0.033875506 0.0047757211 -0.96737677 0.25332448 -0.0029963893 0
0.035223477 0.035053317 0.0067834789 -0.30890206 0.057588425 -0.94934881 0
0.043114565 0.035963338 0.0049232896 0.8066861 -0.49319014 -0.32560867 0
-0.13218649 0.046844192 0.0069459099 -0.79001254 -0.42676073 -0.44017667 0
-0.12490912 0.045083579 0.0062392536 0.056271724 -0.20262384 -0.97763854 0
-0.11866143 0.045994814 0.0048568961 0.95548618 -0.16116612 -0.24712688 0
-0.024980867 0.04499371 0.0049353386 -0.81803381 0.27813762 -0.50344825 0
0.034806918 0.042068508 0.0081820441 -0.40864447 0.81652498 -0.40779477 0
0.042738769 0.045296349 0.0046058805 0.73622942 0.36947399 -0.56697023 0
-0.13186164 0.053571481 0.0042857067 -0.87888718 0.47642511 -0.024010193 0
-0.12549286 0.054852657 0.0054816674 0.74627441 0.27338022 -0.60690838 0
-0.11824678 0.055556934 0.0064044427 0.99399304 -0.0698658 -0.084241308 0
-0.024772694 0.055152372 0.005162139 -0.81943238 0.19850017 0.53770649 0
0.043309141 0.055086654 0.004393274 0.49136227 -0.18330397 -0.85144746 0
-0.13014974 0.06035294 0.0037977502 -0.68079984 0.72049081 0.13192676 0
-0.12382513 0.063018203 0.0031578047 -0.60605764 0.74982673 0.2654317 0
-0.11521658 0.065369673 0.0038804242 0.46553177 -0.88479245 -0.020553585 0
-0.1071991 0.067968585 0.0053670891 0.56173414 -0.82539344 0.056395043 0
-0.092353486 0.069029763 0.0067688213 -0.34596437 -0.92957664 -0.12726329 0
-0.084905177 0.068279728 0.0053318543 0.24390109 -0.96141773 -0.12723324 0
-0.079179578 0.069737077 0.0044540069 0.42381027 -0.89871025 -0.11271515 0
-0.023821011 0.064869657 0.0055058971 -0.77884728 -0.61653161 -0.11526357 0
-0.015601641 0.067753263 0.0075209872 0.23413467 -0.73059499 -0.64141405 0
-0.0098419692 0.069559261 0.0079152584 0.7865532 -0.57847518 -0.21610308 0
0.043980926 0.064964145 0.0044591567 0.9491086 -0.20740098 -0.23701848 0
-0.1127729 0.071829133 0.0035111581 -0.57523596 0.78489828 0.23030055 0
-0.10445431 0.074345604 0.0039433469 -0.69480956 0.70505375 -0.14191164 0
-0.095839672 0.075034134 0.0062069055 0.089991339 -0.73495984 -0.67211282 0
-0.084400445 0.074894086 0.0056576845 -0.34456056 0.18896857 -0.91954821 0
-0.078001298 0.075547278 0.004000634 0.98091251 -0.17045125 -0.093579359 0
-0.030578095 0.078220747 0.0097018173 -0.71631402 -0.35953981 -0.59801781 0
-0.023704274 0.07459195 0.0069740671 -0.36907178 0.35730609 -0.8579734 0
-0.015620921 0.075977311 0.0064539015 -0.19670187 0.022117307 -0.98021382 0
-0.0077518718 0.075562716 0.0057126535 0.94741839 -0.22518054 -0.22735879 0
0.044654809 0.075320341 0.0048376224 0.65417844 -0.61815876 -0.43580994 0
-0.10093922 0.081178226 0.0045492928 -0.71343547 0.55976862 -0.42150801 0
-0.09546601 0.084362052 0.0062175361 -0.21436159 0.54366726 -0.81146479 0
-0.084072374 0.083729267 0.0052665789 -0.58085269 0.81398022 -0.0068157041 0
-0.077250004 0.084895954 0.0035253905 0.99165869 -0.092471629 0.089788072 0
-0.032689247 0.085737154 0.0095507875 0.012153956 -0.02919782 -0.99949974 0
-0.027390398 0.083971612 0.0098157823 0.018969631 0.018477619 -0.99964929 0
-0.014046611 0.08519657 0.0043795835 -0.96934384 -0.24540845 -0.01213182 0
-0.0084382137 0.083663456 0.0036632938 0.90697044 0.40051231 0.1303634 0
0.039528601 0.089134015 0.0086287661 -0.89176244 -0.24505036 -0.38040778 0
0.045301713 0.084340982 0.0051530558 -0.22276783 0.058046013 -0.97314191 0
0.052339345 0.086462475 0.0069877268 0.79305553 -0.50771344 -0.33658597 0
-0.094846994 0.094866522 0.0079008006 -0.046911824 0.042759392 -0.9979834 0
-0.081288964 0.094585069 0.0042811381 -0.99578571 0.087358236 0.02791862 0
-0.076885462 0.095398895 0.0032155451 0.99521798 -0.09501747 -0.022648474 0
-0.040296238 0.098813713 0.0093116518 -0.808245 -0.39507633 -0.43664041 0
-0.035097867 0.094478592 0.0095222061 0.039835874 -0.0052941702 -0.99919224 0
-0.022226706 0.096476428 0.0042266166 -0.82833946 -0.44501844 -0.340312 0
-0.016027551 0.094242647 0.0036435539 0.89496136 0.44565466 0.020883147 0
0.039137315 0.090687081 0.0091291182 -0.80003113 0.23660466 -0.55133337 0
0.046236522 0.094458632 0.0072172452 -0.85601068 0.23074187 -0.46260551 0
0.052063406 0.094383679 0.0066985725 0.97625512 0.2141431 -0.032691434 0
-0.09441635 0.1046582 0.0081351232 0.05722959 0.070897117 -0.99584049 0
-0.080673449 0.10438728 0.0047178129 -0.98970485 0.11284392 -0.088037618 0
-0.076623268 0.10496712 0.0032594535 0.99666905 -0.069777519 -0.042212326 0
-0.041999061 0.10570561 0.0087419022 -0.2245836 -0.27073804 -0.93608928 0
-0.03769445 0.1057147 0.0090419073 0.17138045 -0.31075963 -0.9349103 0
-0.024429772 0.10567425 0.0038691021 -0.8617478 -0.42759061 -0.27305123 0
-0.018321488 0.1026077 0.0033568225 0.88106179 0.46621671 0.079825014 0
0.027938234 0.10524009 0.0095967865 -0.072223969 -0.10343853 -0.99201024 0
0.031289093 0.10593186 0.0097268866 0.11664085 -0.071697496 -0.99058276 0
0.045931417 0.10540185 0.006382864 -0.97328269 -0.21203233 0.088108309 0
0.050856464 0.10359401 0.0060549346 0.96791553 0.23731454 0.082591146 0
-0.094669335 0.11482404 0.0083292145 -0.19515994 0.09890525 -0.97577173 0
-0.080187984 0.11217123 0.0056011383 -0.9926787 0.10636429 0.057233762 0
-0.076325484 0.11516155 0.0035118659 0.94221348 0.28195995 -0.18092082 0
-0.050786674 0.11703898 0.0036296155 -0.95584762 -0.28042358 0.087852076 0
-0.045336161 0.11505748 0.0049930098 -0.45066604 -0.40807617 -0.79396087 0
-0.034069136 0.11415602 0.0059413589 0.12576294 -0.57623947 -0.80754673 0
-0.027012834 0.11512256 0.0043635336 0.85493833 0.51144964 -0.086600937 0
0.026913179 0.11692397 0.007243962 -0.13286279 -0.45367423 -0.88120782 0
0.031440981 0.11638968 0.0082339644 0.68434942 -0.43852067 -0.58255082 0
0.044647366 0.11470255 0.0054172343 -0.9651804 0.22132409 0.13943626 0
-0.092465267 0.12310965 0.0081366086 -0.30729443 0.18222214 -0.9340049 0
-0.084656022 0.1248763 0.0063079619 -0.88023257 -0.06061301 -0.47065559 0
-0.076986499 0.12266508 0.0043671704 0.87858152 0.41160515 0.24223068 0
-0.051804405 0.12589198 0.0028956882 -0.98348159 -0.1651348 -0.07412339 0
-0.045838706 0.12426383 0.0045909635 0.82165229 0.47545421 -0.31437367 0
-0.03419888 0.12413171 0.0073307417 -0.11828937 0.42566338 -0.89711666 0
-0.029047238 0.12265696 0.007213993 0.86445868 0.35973683 -0.35114214 0
0.017624713 0.12729405 0.0047610202 -0.8236469 -0.5593949 -0.093183368 0
0.024578335 0.12455951 0.0053002676 -0.16668415 -0.13482203 -0.97674942 0
0.034746874 0.12492488 0.0065780529 0.0057850298 -0.68478203 -0.72872502 0
0.043333158 0.12471363 0.004430491 0.96838343 0.22017285 0.11729275 0
-0.05255805 0.13525152 0.0031219972 -0.99174541 -0.12581414 -0.02473351 0
-0.047725406 0.13440047 0.0041522728 0.97122598 0.21829325 -0.095227048 0
-0.034068111 0.1352641 0.0084267445 -0.035431691 -0.023089565 -0.99910539 0
-0.029612998 0.13134186 0.0094859926 0.96034324 0.13440727 -0.24428585 0
0.0090967631 0.13869911 0.0061001619 -0.84968793 -0.52178544 -0.075962387 0
0.015287784 0.13514708 0.0055891699 -0.24185632 -0.49663052 0.83358485 0
0.025498152 0.13402589 0.0070931911 -0.3901718 0.78201526 -0.48602277 0
0.034861982 0.13551976 0.0055755097 -0.0628528 0.70420069 -0.70721358 0
0.041717682 0.13326816 0.0042836969 0.87313229 0.46234846 0.15451215 0
-0.053184684 0.14530742 0.0035108959 -0.99277645 -0.013228023 0.11924708 0
-0.047737505 0.1445047 0.0050278842 0.96904701 0.24643227 0.014799293 0
-0.035851847 0.14455804 0.0085002985 0.062340125 0.00033561973 -0.99805492 0
0.0068114675 0.14547576 0.0064931787 -0.83220851 -0.53507787 -0.14532982 0
0.012603395 0.14374939 0.006833971 0.84886271 0.52282804 -0.077993147 0
0.02903313 0.14142378 0.0098097557 -0.07517796 0.021434069 -0.99693978 0
0.03059976 0.14053744 0.0095613236 0.33072045 0.46522391 -0.82109118 0
-0.053754494 0.15541895 0.0044771684 -0.98187304 -0.14257152 -0.12489466 0
-0.044667255 0.15653841 0.0070691183 0.14307091 -0.72999263 -0.66831237 0
-0.036751442 0.15577275 0.0079771802 0.33923373 -0.12515175 -0.93233979 0
-0.0017798844 0.15704687 0.0075476472 -0.87686974 -0.4558025 -0.15278576 0
0.0043352968 0.15401895 0.0067638182 0.33234179 0.33060291 -0.88331801 0
0.010498587 0.15035437 0.0079848049 0.73757863 0.4034327 0.54149765 0
-0.05373003 0.16429321 0.0047499742 -0.87997484 0.42780396 0.20646587 0
-0.045563925 0.164625 0.0059671602 0.13406169 0.86664587 -0.48057511 0
-0.035036094 0.16353957 0.0047249212 0.31511635 0.66786057 -0.67428768 0
-0.025070271 0.1651435 0.0046108584 0.011488234 0.3033008 0.95282561 0
-0.015577129 0.16631253 0.0045931446 0.22572032 -0.85022455 0.47557193 0
-0.0044669756 0.16633868 0.0052178758 -0.33827117 -0.68268794 -0.64769566 0
0.0049219271 0.16608536 0.0064102784 0.3528364 -0.58156741 -0.73299783 0
0.01045874 0.16707242 0.0061726379 0.97747278 -0.027978828 -0.20919877 0
-0.050419152 0.1702989 0.0070129242 -0.63759124 0.76995856 0.025324496 0
-0.048019644 0.17124008 0.0074148197 0.11895122 0.96907711 -0.21619472 0
-0.013810474 0.17067201 0.0035530187 -0.19466038 0.98086178 -0.0041761571 0
-0.0037153214 0.17179267 0.0045573241 -0.26493073 0.96362698 0.035140458 0
0.0041614003 0.17225029 0.0058144429 0.31244043 0.84860688 -0.42690435 0
-0.042404942 -0.12076767 0.012566386 -0.32691559 -0.93806034 0.11475642 0
-0.0375234 -0.12113205 0.012859097 0.54332954 -0.82271701 0.16712165 0
-0.092337601 -0.11284843 0.011394295 -0.3797245 -0.16474018 0.91031313 0
-0.084829092 -0.11208007 0.011508825 0.069626622 -0.56071198 0.82507831 0
-0.075613588 -0.11156693 0.011083637 0.071556836 -0.56734383 0.8203662 0
-0.066055343 -0.11060542 0.010776686 0.10784438 -0.64877063 0.75330353 0
-0.059097871 -0.11005121 0.010004893 0.14225633 -0.72104418 0.67812866 0
-0.044284347 -0.11732592 0.01199537 -0.46879873 0.30904379 0.82747787 0
-0.034863673 -0.1150401 0.0131133 -0.14971314 0.16296522 0.97520679 0
-0.025996808 -0.11256524 0.013590808 0.54977095 -0.82478583 0.13221318 0
-0.090387836 -0.1097071 0.011296739 -0.19299307 0.9700287 0.14764166 0
-0.084403276 -0.10881237 0.012014336 -0.1721368 0.83724576 0.51902634 0
-0.0751151 -0.10770563 0.012268662 -0.11612625 0.52566791 0.84272653 0
-0.065053292 -0.10674951 0.012159809 -0.042402942 0.15727487 0.98664415 0
-0.054840859 -0.10544649 0.011908836 -0.0097469613 0.089915276 0.9959017 0
-0.045596186 -0.104581 0.011583802 0.16943249 -0.053001352 0.9841156 0
-0.033426605 -0.10809523 0.011377923 -0.45586559 0.74943137 0.48014501 0
-0.023929304 -0.10595382 0.012713714 -0.57651508 0.81704134 0.008592587 0
-0.015978953 -0.10367986 0.013873105 0.57870793 -0.73924863 0.34439579 0
-0.0089534009 -0.10090861 0.012946653 0.62285173 -0.77071112 -0.1343877 0
-0.013539898 -0.096134454 0.012626806 -0.63096166 0.74455661 0.21799734 0
-0.0053105708 -0.094273739 0.0134077 0.52273762 -0.79974526 -0.29521677 0
0.00092541409 -0.091599315 0.014031501 0.91592175 -0.38987869 0.095299147 0
-0.010863346 -0.088081442 0.012563152 -0.98611563 -0.0048661167 0.16598907 0
-0.0050592218 -0.084391668 0.014873786 -0.66469419 0.46472692 0.5849877 0
0.0018363266 -0.084336169 0.014487656 0.93466854 -0.34595099 -0.081930064 0
0.038211334 -0.080847919 0.011947076 -0.31105667 -0.92532092 0.21685228 0
0.041388612 -0.081703037 0.010740821 0.4932397 -0.034693755 0.86920136 0
-0.0025963585 -0.079123199 0.014996161 -0.36541641 0.81964207 -0.44120023 0
0.0060223993 -0.078095637 0.017504174 -0.13445961 0.53600371 -0.83343905 0
0.015524404 -0.075418472 0.017829238 -0.062899597 0.19274625 -0.97923052 0
0.024768675 -0.072978169 0.017684042 0.12804238 -0.37411278 -0.91850138 0
0.035771638 -0.073960431 0.014427165 -0.2063999 -0.82440931 0.52701837 0
0.042865947 -0.072885461 0.012459646 0.49683344 -0.60866314 0.61861593 0
0.027749956 -0.069193758 0.019280488 -0.26717046 0.78206074 -0.56302845 0
0.036936849 -0.066022187 0.014604853 -0.67414153 0.68739259 -0.2702305 0
0.044944156 -0.065161943 0.014248226 0.98480743 0.04609393 -0.16742076 0
0.050549656 -0.061117701 0.011130255 0.8040967 -0.24915898 0.53976691 0
-0.16319153 -0.053639758 0.014310081 -0.80384761 -0.54153049 0.24611728 0
-0.1567345 -0.055734441 0.012718773 0.52694225 -0.30292153 0.79408467 0
0.045585781 -0.055724729 0.013349879 -0.82171774 0.56918299 -0.028472105 0
0.051759992 -0.053951353 0.011910738 0.88611859 -0.46281207 0.024471125 0
-0.16356073 -0.044807006 0.015149564 0.0030458551 -0.91453898 -0.40448633 0
-0.15459554 -0.045147602 0.011590107 -0.11264502 -0.038277172 0.99289781 0
-0.14772756 -0.042403314 0.011616333 0.4279871 -0.58042842 0.69276977 0
-0.11274379 -0.040674571 0.013310806 -0.23136352 -0.97273088 -0.01629526 0
-0.10478014 -0.041714281 0.013113128 -0.20808926 -0.96774232 -0.14203443 0
-0.094838843 -0.043169532 0.013175899 -0.18600322 -0.97004426 0.15625943 0
-0.084676474 -0.044419877 0.013338365 -0.089071468 -0.6007601 0.79445177 0
-0.074978843 -0.044444546 0.012803435 0.15614875 -0.20206533 0.9668439 0
-0.068327747 -0.043702453 0.011365395 0.60812849 -0.2726211 0.7455585 0
0.048443601 -0.047769938 0.012991868 -0.83015448 0.53381765 -0.16088006 0
0.054424968 -0.044564415 0.012510794 0.76115167 -0.63980806 0.10627254 0
0.065019675 -0.042463191 0.011245236 -0.20720114 -0.45007834 0.86861795 0
0.074626476 -0.042280711 0.012282963 -0.15068065 -0.35776672 0.92157388 0
0.084818512 -0.041902475 0.013315181 0.060991798 -0.95127177 0.30226165 0
0.094378732 -0.041243333 0.014800144 0.17340843 -0.98158348 -0.080145761 0
0.10397504 -0.040622491 0.017541924 0.085761286 -0.94027454 0.32943714 0
0.11005879 -0.040349443 0.018826751 -0.079088345 -0.55640066 0.8271417 0
-0.16536781 -0.034948625 0.01514315 -0.5546701 -0.52459633 -0.64586359 0
-0.15157607 -0.038432743 0.01112932 -0.49835241 0.4971562 0.71026796 0
-0.14446957 -0.03538312 0.012393897 -0.26228884 0.2134099 0.94109553 0
-0.13624026 -0.032856751 0.012233222 0.459378 -0.59839398 0.65642709 0
-0.12158086 -0.033474099 0.012643864 -0.82400787 0.011532938 0.56646097 0
-0.11568331 -0.03610171 0.01287173 0.10211395 0.4562875 0.88395381 0
-0.10530081 -0.036830675 0.012710596 0.15190741 0.74863207 0.64534807 0
-0.095465831 -0.037939195 0.012254103 0.16704407 0.82118678 0.54566336 0
-0.085439004 -0.039068189 0.011486184 0.15904704 0.82177413 0.54716653 0
-0.073839553 -0.03417474 0.011262306 -0.16822907 -0.15602387 0.97332186 0
-0.067095354 -0.03389366 0.010914346 0.50979829 -0.37726599 0.77315974 0
0.056732193 -0.036261152 0.013285019 -0.77928865 0.58030444 0.23655015 0
0.064387903 -0.034874789 0.012470128 0.30824825 -0.21396682 0.92693114 0
0.074571475 -0.03490125 0.012097245 0.21520342 -0.15952425 0.96345186 0
0.085581712 -0.035026602 0.013547355 -0.8690238 -0.40350014 0.28633061 0
0.094640329 -0.035191443 0.014133274 0.52251637 0.79480517 -0.30864441 0
0.10447165 -0.035220005 0.016539671 -0.21817634 0.011349448 -0.97584331 0
0.11263734 -0.033799991 0.017650953 0.95303124 -0.26024973 -0.15492432 0
-0.17063613 -0.024241101 0.016384179 -0.98798454 -0.15068085 -0.034378976 0
-0.16611551 -0.025081253 0.014582594 0.96651578 0.09099289 -0.23993249 0
-0.14096737 -0.029116483 0.010534387 -0.50611115 0.67488045 -0.53701746 0
-0.1342371 -0.026323628 0.013023251 -0.41934416 0.49264091 0.76253223 0
-0.1250369 -0.024504697 0.013144661 0.12283731 -0.34683758 0.92984658 0
-0.1161491 -0.024755558 0.011655313 0.13413499 -0.12783301 0.98268324 0
-0.072517723 -0.02843665 0.012390202 -0.45358059 0.38627756 0.8031528 0
-0.064319573 -0.02646965 0.012754696 -0.26731294 0.49297458 0.82796133 0
-0.055246957 -0.024563177 0.01284779 -0.08815749 0.019317962 0.99591923 0
-0.045042027 -0.023189997 0.013383364 0.20104121 -0.75611746 0.62279117 0
-0.034477454 -0.023095185 0.014599022 -0.054983106 -0.86444759 0.49970707 0
-0.025397783 -0.023446843 0.011541551 0.20928055 -0.43410665 0.87621522 0
0.048659787 -0.020319708 0.015162397 -0.3625311 -0.91560006 0.17391858 0
0.055653859 -0.021780744 0.015941216 -0.29226559 -0.95607996 -0.022177765 0
0.065611608 -0.024735039 0.014562656 -0.72607851 0.32074791 0.60821933 0
0.074620612 -0.025316473 0.013071741 0.49069253 0.71237093 0.50174546 0
0.085296407 -0.026535185 0.012121286 0.24306531 0.76785076 0.59272635 0
0.094172738 -0.026042823 0.011986523 -0.22876912 0.24577986 0.94194323 0
0.10542371 -0.024817565 0.014734473 0.73355627 0.15617117 0.66144222 0
0.11292192 -0.025573051 0.016110841 0.6340068 0.75654221 0.1602475 0
-0.17139022 -0.014713066 0.015262758 -0.96695441 -0.10611572 -0.23181593 0
-0.16660345 -0.01508502 0.01363412 0.99693644 0.073277406 0.027351368 0
-0.15620887 -0.010955423 0.011526383 0.17605841 -0.9547202 0.23981842 0
-0.12441075 -0.018962663 0.011900855 -0.035043281 0.93357927 0.35665339 0
-0.11871016 -0.019595852 0.010405858 0.2777572 0.87124181 0.40470821 0
-0.050795685 -0.019555466 0.010104406 -0.20502359 0.97423035 0.094024219 0
-0.044176284 -0.018734282 0.013390437 -0.24430689 0.92295605 0.29743263 0
-0.033976503 -0.015886528 0.015761519 -0.26615569 0.9360339 -0.23022066 0
-0.026405474 -0.017150329 0.013128097 0.48148805 0.62586629 0.6135639 0
0.046001837 -0.014581146 0.01389275 -0.9066034 -0.26930159 0.32487991 0
0.05459566 -0.015369918 0.013121291 0.57511425 0.44695395 0.68518299 0
0.06347058 -0.017681945 0.011577391 0.29280174 0.94804394 0.12441798 0
0.087593056 -0.019527365 0.010350294 -0.1308838 0.57875913 0.80492693 0
0.095517069 -0.018758953 0.011030967 -0.1366134 0.66916335 0.73044997 0
0.10642742 -0.018337855 0.011885935 0.37903714 0.88953251 0.25507382 0
0.11113701 -0.018290702 0.013039297 0.079506524 0.54483527 0.83476543 0
-0.17170267 -0.0050232345 0.014057823 -0.96951568 0.2173796 -0.11307262 0
-0.16642964 -0.0054093176 0.012753028 0.62992555 0.10821135 0.76908004 0
-0.15369882 -0.0063230423 0.011997392 -0.18684036 0.24327435 0.95179212 0
-0.14488463 -0.0046479381 0.012339101 -0.21141358 0.19118781 0.95851535 0
-0.13619211 -0.0040427586 0.013057108 0.59522253 -0.79881823 0.087175541 0
-0.032580528 -0.0051618293 0.017480759 -0.72976422 0.24065384 -0.63994527 0
-0.028147854 -0.0044019138 0.01659287 0.88174611 -0.27400029 -0.38398924 0
0.046322875 -0.0059794281 0.012053568 -0.0030620296 0.35117993 0.93630308 0
0.055642474 -0.00501994 0.012906122 -0.069990642 -0.099401213 0.9925828 0
0.060405191 -0.0041259616 0.011990503 0.97226751 0.10425734 -0.20934731 0
-0.16582938 0.00093035452 0.011536995 -0.0034974797 0.81182843 0.58388555 0
-0.15322937 0.0051942095 0.01265509 -0.46703783 -0.41278663 0.7819736 0
-0.14510567 0.0050473241 0.012286535 0.065587372 -0.31711671 0.94611597 0
-0.13589296 0.0048831753 0.012681916 0.58125508 -0.10491967 0.80692905 0
-0.031031203 0.0032682377 0.018529603 -0.85129523 0.26628157 -0.45209575 0
-0.026301665 0.0052670571 0.016772578 0.13998587 -0.012429411 -0.99007547 0
0.049408928 0.0083837891 0.0114393 -0.931059 -0.27973211 0.23426278 0
0.054709461 0.0047286912 0.012909256 0.1624804 0.083550267 0.98316813 0
-0.15286423 0.014024548 0.01390449 -0.83234072 0.5023973 0.23410654 0
-0.14705777 0.015789334 0.013720699 0.41119477 0.30389467 0.85939908 0
-0.13592394 0.011794325 0.012613015 0.37285951 0.72755015 0.57588774 0
-0.023833804 0.014858187 0.017421551 0.072623752 -0.0013647696 -0.99735844 0
-0.017071297 0.019512003 0.012378001 0.51289046 -0.72756022 0.45563084 0
0.04831655 0.015690178 0.011812226 -0.9487384 -0.28153077 -0.14365199 0
0.053231876 0.014608311 0.013200085 0.87923229 0.24338757 0.40952799 0
-0.15148427 0.022570228 0.014634932 -0.90222037 0.43072593 0.021759732 0
-0.14503679 0.025479969 0.014568888 0.82635862 -0.35091525 0.44044301 0
-0.13823743 0.028334448 0.015696887 -0.67947692 0.6243937 0.3852838 0
-0.02222736 0.023749426 0.016313693 -0.69502628 0.34249565 -0.63216704 0
-0.01564149 0.024439886 0.014658638 -0.15272734 -0.6737262 0.72302657 0
-0.008150734 0.025819659 0.014372452 0.91401821 -0.38086978 0.13967419 0
0.036411539 0.029643126 0.011004012 -0.27571836 -0.91700602 0.2882348 0
0.04671862 0.025610495 0.012638842 -0.98047096 -0.19566168 0.019826991 0
0.051741883 0.024325488 0.013312056 0.936966 0.28223556 0.2060046 0
-0.1431054 0.034276161 0.014531428 -0.90719968 0.41675717 -0.057465378 0
-0.13588887 0.035563655 0.014171518 0.95792282 -0.23673473 0.16229735 0
-0.12808222 0.038559284 0.015353273 -0.92383254 0.31357345 0.21955661 0
-0.11917623 0.03982719 0.012167741 0.25663933 -0.76375866 -0.59229124 0
-0.020320013 0.030095855 0.019588903 -0.44015461 0.38202161 -0.81260288 0
-0.012855419 0.033334188 0.014642859 -0.83723855 0.54229981 -0.070302904 0
-0.0072659357 0.03474576 0.015041884 0.96783292 -0.10326013 -0.22942714 0
0.03622371 0.035375901 0.014859904 -0.69230258 0.21600212 0.68852019 0
0.044779193 0.034760147 0.013093805 0.6145559 -0.31311867 0.72407025 0
0.050568949 0.03196691 0.013201945 0.88911265 0.26026002 0.37648824 0
-0.14120728 0.042425524 0.014477648 -0.88333106 0.46559802 0.054264925 0
-0.1350002 0.04468704 0.013652859 0.47474778 -0.61508203 0.62951452 0
-0.1248094 0.04322926 0.013099738 -0.5400719 -0.10573176 0.83495098 0
-0.11576861 0.045808855 0.013207288 0.57617998 -0.78997791 0.20964609 0
-0.10817069 0.048894204 0.012457454 0.59235233 -0.78583038 -0.17773379 0
-0.011177224 0.044799268 0.013649008 -0.99993062 -0.0031861556 -0.011339216 0
-0.0073707611 0.044737481 0.015029387 0.99763542 0.030302554 0.061686222 0
0.035782862 0.044181231 0.016320109 -0.27193391 0.26255843 -0.92580509 0
0.042503025 0.041287012 0.012490403 0.23522452 0.91581619 0.32549995 0
-0.13307957 0.052624699 0.014248854 -0.39320183 0.91169399 0.1191905 0
-0.12739345 0.053303357 0.012208335 0.40241057 0.14045636 0.90462023 0
-0.11279263 0.052119054 0.012422661 -0.60507119 0.78412014 0.13800156 0
-0.10555389 0.055179637 0.012920055 -0.53185987 0.8019948 -0.27189988 0
-0.096940398 0.058182653 0.012528105 0.59884018 -0.79233563 -0.11659677 0
-0.011227516 0.055167004 0.013030571 -0.9997471 0.0096693952 0.020304376 0
-0.0072652251 0.055026229 0.014679667 0.99589694 0.022999933 0.087523602 0
0.035942726 0.055175573 0.017852211 -0.041218799 -0.016622828 -0.99901187 0
-0.10186732 0.061378505 0.011883111 -0.59025139 0.80292064 0.083196931 0
-0.094410039 0.064316779 0.012923825 -0.50257999 0.64466614 0.57603735 0
-0.086601429 0.067005992 0.012658892 0.66017956 -0.74569458 0.090014629 0
-0.022886621 0.068524539 0.011811183 -0.40520516 -0.72841179 0.55247176 0
-0.01336242 0.066138975 0.012404369 -0.63380378 -0.30802605 0.70951575 0
-0.0071763862 0.064896189 0.013524948 0.97542655 0.046144821 -0.21543835 0
0.036698472 0.064838484 0.017873578 0.065947339 0.0067108469 -0.99780053 0
-0.095231257 0.075223498 0.011379701 0.0042771464 -0.040509276 0.99917001 0
-0.083884269 0.074615784 0.012736236 0.095755853 0.42564967 0.89980727 0
-0.030958537 0.078872867 0.011102811 -0.82973403 -0.43814978 0.3457835 0
-0.024852879 0.074756436 0.012720788 -0.20711499 -0.11447741 0.97159576 0
-0.014156565 0.075076431 0.011944366 -0.25615826 0.16260499 0.95286018 0
-0.007502534 0.073608696 0.012221877 0.77921361 0.40849128 0.47535357 0
0.037454352 0.075752869 0.016993871 -0.18768375 -0.4232741 -0.88634866 0
0.043668326 0.078333542 0.012371566 0.38775736 -0.74629009 0.5410133 0
-0.10026134 0.082590014 0.010530179 -0.92682308 -0.01483483 0.3752051 0
-0.096270457 0.084856384 0.011513007 0.12771639 -0.0017067295 0.99180919 0
-0.085789524 0.081135653 0.010727391 0.15662077 0.67499256 0.72100961 0
-0.032871362 0.086083129 0.012900264 -0.59885079 -0.3360045 0.72696537 0
-0.027465574 0.084102102 0.012757338 0.63017815 0.33422476 0.70083481 0
-0.014019836 0.080587246 0.010860459 -0.0084014963 0.96252853 0.27105054 0
0.034809466 0.085432701 0.014176776 -0.9290992 -0.13975328 -0.34240881 0
0.044654716 0.085372522 0.01421795 0.68417907 -0.13748968 0.71623707 0
0.050502613 0.086797543 0.010356301 0.48306376 0.037791189 0.87476921 0
-0.096083783 0.094822802 0.011412133 -0.097520679 0.022880483 0.99497044 0
-0.040446259 0.098982476 0.012440018 -0.88167673 -0.43999594 0.17043965 0
-0.035335597 0.094614707 0.012951241 0.023734104 0.030662622 0.99924797 0
-0.029559983 0.091479577 0.010655271 0.79533964 0.41213942 0.44449514 0
0.0290334 0.096283019 0.012694187 -0.96604097 -0.25656122 0.030678725 0
0.033851486 0.094028294 0.013315984 0.67035896 0.58291566 0.45916021 0
0.043670796 0.091240652 0.013116572 0.21974075 0.87809348 0.42504805 0
0.050475713 0.090388954 0.010096651 0.43628278 0.16671307 0.88423079 0
-0.095143601 0.10509022 0.011203657 -0.086879343 0.027897898 0.99582809 0
-0.042671304 0.10569727 0.013260476 -0.60174978 -0.25058264 0.75835717 0
-0.037673377 0.1039563 0.012033219 0.61486173 0.34091181 0.71114284 0
0.027368795 0.10512516 0.013229026 -0.81773829 -0.15318653 0.55483145 0
0.032629006 0.10392191 0.011959886 0.85817814 0.2389649 0.45434129 0
-0.093594126 0.11516432 0.011050763 0.13251112 0.060095053 0.98935807 0
-0.044213872 0.11448623 0.012601149 -0.24749257 0.38724059 0.88813967 0
-0.034969095 0.11575151 0.011441845 0.013639497 -0.23759544 0.97126848 0
-0.029110214 0.11864677 0.011258681 0.88493764 -0.090090871 0.45691255 0
0.025967253 0.11530492 0.01279589 -0.23465721 0.046199188 0.97097969 0
0.030790733 0.11284225 0.011270178 0.77046347 0.21557465 0.59992796 0
-0.093176112 0.12233079 0.01079163 0.009396811 0.26291496 0.96477324 0
-0.088786587 0.1230695 0.010280252 0.20901185 -0.16707675 0.96353489 0
-0.040829241 0.12102844 0.010660747 -0.082727842 0.56006759 0.82430607 0
-0.033942126 0.12417456 0.012327095 -0.22740521 0.026608672 0.97343659 0
-0.02944595 0.12389886 0.011383324 0.91477281 0.064158253 0.39884126 0
0.024526488 0.12477864 0.011634463 0.01285465 0.12053137 0.99262631 0
0.035210188 0.12717873 0.01154747 -0.10945656 -0.33915251 0.93434185 0
-0.033886194 0.13531339 0.012472922 -0.13279058 -0.062259298 0.9891867 0
-0.029725203 0.1326216 0.01058525 0.93955934 0.073506743 0.33440235 0
0.026012233 0.13452144 0.010969562 -0.38157114 0.049816214 0.92299616 0
0.034864508 0.13518387 0.01233099 0.23553714 -0.049735058 0.9705919 0
-0.042558774 0.14838819 0.016026948 -0.27567768 -0.94149965 -0.19385611 0
-0.035465106 0.14606568 0.014076672 0.00095917739 -0.44451201 0.8957724 0
-0.02714451 0.1493188 0.017831918 0.18803388 -0.98045582 -0.057876647 0
0.0062476192 0.14939293 0.010101273 -0.071138017 -0.20702802 0.97574532 0
0.01054413 0.14881253 0.010015755 0.87071782 0.49034342 -0.037601285 0
0.026364459 0.14601931 0.013201871 -0.81244618 -0.50935948 0.28369722 0
0.032310303 0.14319545 0.0128611 0.85567892 0.51677072 0.027596548 0
-0.051053427 0.1549592 0.012022712 -0.96035379 0.065217279 0.27104828 0
-0.044338144 0.15343378 0.01386845 -0.38502422 0.38079354 0.84068584 0
-0.03579542 0.15407827 0.014393821 0.28258923 0.72707766 0.62570071 0
-0.024642862 0.15364882 0.016829306 -0.052861948 0.37312493 -0.92627394 0
-0.015028147 0.15516759 0.016659228 0.060155138 0.093399599 -0.99380976 0
-0.0046759141 0.15705076 0.016044328 -0.62324059 -0.48547852 0.61309201 0
0.0039585289 0.1565209 0.01399966 0.37309834 -0.57758063 0.72608423 0
0.017879041 0.15611379 0.014097969 -0.85537362 -0.51230043 -0.076708794 0
0.02362881 0.15384275 0.014769195 0.79231673 0.49931037 0.35060418 0
-0.042742569 0.16599296 0.011495166 -0.43518889 -0.051105686 0.89888757 0
-0.038147684 0.16339885 0.012876968 0.66832143 0.46604681 0.57978171 0
-0.0021047154 0.16367073 0.012310127 -0.40242207 0.090306066 0.91098917 0
0.0055816383 0.16404104 0.014015793 0.35214531 -0.15454406 0.92309791 0
0.015117533 0.16506131 0.016054962 0.58562732 0.52136296 -0.62066203 0
0.020825688 0.16116601 0.015525401 0.82805067 0.55732256 0.061022166 0
-0.046815876 0.17116211 0.010751793 -0.10935029 0.57312536 0.81213897 0
-0.00058233802 0.17151894 0.011330723 -0.8795206 0.38581887 0.27854505 0
0.0059540146 0.17274806 0.014745235 -0.36588457 0.71373492 0.59725291 0
0.011879613 0.17176297 0.016454568 0.80476272 0.57306689 -0.15476206 0
-0.0034470877 -0.081524134 0.021273399 -0.25505632 -0.59823155 0.75964814 0
0.0029953129 -0.080832787 0.022135785 0.24042776 -0.93759447 0.25121945 0
-0.0034376399 -0.078248352 0.021868132 -0.47795337 0.80125034 0.35994244 0
0.0054835081 -0.076800503 0.022549173 -0.17908153 0.38249698 0.90643573 0
0.014962147 -0.074761786 0.022367908 0.026803998 -0.15524526 0.98751223 0
0.024410212 -0.073323369 0.022753125 0.17406747 -0.65324128 0.73686934 0
0.034127869 -0.071619779 0.022420207 0.24945477 -0.90385026 0.34760189 0
0.040244743 -0.070193172 0.022314528 0.59421086 -0.76645571 0.24384232 0
0.026384206 -0.068744332 0.022220489 -0.27496299 0.93009925 0.24353796 0
0.034943521 -0.067132831 0.022828825 -0.14420305 0.69694376 0.70247769 0
0.04258785 -0.066803358 0.021590626 0.56497467 0.18536329 0.80401736 0
0.10781112 -0.036548659 0.020557538 -0.22003649 0.033140875 0.9749285 0
0.11083574 -0.035505585 0.020643307 0.50041449 -0.0570281 0.86390573 0
-0.034618456 -0.020569097 0.02069309 -0.27149785 -0.65298313 0.70703745 0
-0.034189668 -0.014684535 0.021506103 0.00049730518 -0.12788123 0.99178934 0
-0.032662295 -0.0057280366 0.021881178 -0.5716911 0.1748331 0.80162507 0
-0.028934779 -0.0041923476 0.021185247 0.71477783 -0.23669773 0.65807801 0
-0.030973269 0.0034745848 0.021265816 -0.81503069 0.26561874 0.51494825 0
-0.027232455 0.0052319369 0.021662336 0.34502113 -0.091512971 0.93412304 0
-0.024800422 0.015193894 0.021192111 0.070514604 0.026531557 0.99715781 0
-0.022269223 0.023441099 0.020886177 -0.22608598 0.17351842 0.95852828 0
-0.019465834 0.025750875 0.020447552 0.70842588 0.016084243 0.70560199 0
-0.01984355 0.030013118 0.020090235 0.5887149 0.16706678 0.79088783 0
0.035126824 0.036691234 0.021446168 0.042071246 -0.28679013 0.95706922 0
0.034477592 0.045004144 0.02167776 0.16439866 -0.087057933 0.98254472 0
0.034955733 0.055324968 0.022164414 0.17438094 -0.016354313 0.98454243 0
0.035231367 0.065157935 0.022165963 0.16107847 0.0037752737 0.98693442 0
0.035852525 0.074657798 0.022295749 -0.084236793 -0.013681892 0.99635184 0
0.03692694 0.083537042 0.021955593 -0.033062346 0.27845624 0.9598797 0
0.040359996 0.085764088 0.021068111 0.78965342 0.016403813 0.61333388 0
-0.041360956 0.14929676 0.02063881 -0.31336454 -0.64869213 0.69354254 0
-0.037628505 0.14949031 0.020496493 0.15351914 -0.6534121 0.74127221 0
-0.04192828 0.15087934 0.021018945 -0.23335543 0.64637345 0.72646177 0
-0.035006758 0.15159282 0.021024177 -0.0077973609 0.17221101 0.98502928 0
-0.024658523 0.15348601 0.020744421 0.0057438193 0.11279213 0.99360204 0
-0.015091457 0.15548563 0.020669635 0.022485076 0.034940913 0.99913639 0
-0.0053308127 0.1576658 0.020514587 0.018573672 0.053661954 0.99838638 0
0.0019941682 0.15914108 0.020291992 0.021700192 0.14775959 0.98878521 0
0.0047158226 0.1600441 0.020332145 -0.46818936 0.70465779 0.53315669 0
0.014306325 0.16911671 0.02019609 0.13128148 -0.080329426 0.98808521 0
0.01219565 0.17227469 0.020422043 0.19756123 -0.065744773 0.97808343 0
