# .PCD v0.7 - Point Cloud Data file format
VERSION 0.7
FIELDS x y z normal_x normal_y normal_z curvature
SIZE 4 4 4 4 4 4 4
TYPE F F F F F F F
COUNT 1 1 1 1 1 1 1
WIDTH 638
HEIGHT 1
VIEWPOINT 0 0 0 1 0 0 0
POINTS 638
DATA ascii
-0.048030559 0.024651036 0.045175802 -0.99884337 0.045826349 0.014557842 0
0.020616034 0.025074426 0.045237284 0.99634731 0.065707237 0.054539833 0
-0.047440257 0.035159219 0.044658776 -0.99777287 0.063442208 0.020600239 0
0.019691473 0.036974106 0.046020735 0.99327368 0.1058595 0.046917565 0
0.020158436 0.03321813 0.043050501 0.99580324 0.075632289 0.051532861 0
-0.046792645 0.044732284 0.04464525 -0.99686581 0.076418579 0.020463057 0
0.018783621 0.044529729 0.044951808 0.98998016 0.13534039 0.040275779 0
-0.045823157 0.055125345 0.04503943 -0.99623573 0.086596377 -0.0039370414 0
0.017409353 0.054501165 0.04455306 0.99017376 0.13868438 0.017960493 0
-0.043842535 0.064245969 0.045440797 -0.81377816 0.58117306 -0.0017182472 0
-0.035006672 0.066401869 0.045218371 0.027250346 0.99960637 0.0066764578 0
-0.024943681 0.06616579 0.045075011 0.022608522 0.99972057 0.0069052959 0
-0.014390074 0.065930612 0.044825081 0.024798622 0.99968523 0.0038170116 0
-0.0048998091 0.065642029 0.044915777 0.03431252 0.99940157 -0.0043823672 0
0.0049270592 0.065288059 0.04515285 0.045649424 0.99894494 -0.0050030472 0
0.013764801 0.063825011 0.044699218 0.48876798 0.87224591 0.017116785 0
-0.043408893 -0.092257425 0.054996599 -0.59162754 -0.8060798 -0.014564544 0
-0.034929994 -0.093388967 0.055212773 -0.028279642 -0.99959952 0.00098106207 0
-0.024923375 -0.093697451 0.054704439 -0.029769871 -0.99955165 0.0031956332 0
-0.015404633 -0.093863666 0.054606527 -0.0057632099 -0.99998337 -4.5654033e-06 0
-0.0055786422 -0.093914464 0.054528791 -0.00527352 -0.99998474 -0.0016315829 0
0.0050568064 -0.094019607 0.054933589 -0.019165251 -0.99976808 -0.0098229405 0
0.014198571 -0.093189195 0.054643024 0.55433667 -0.8322919 0.001063546 0
-0.045722626 -0.085061267 0.055006951 -0.9964577 -0.082653977 -0.015505427 0
0.016802566 -0.085237034 0.055147562 0.99438787 -0.10224192 0.027192043 0
-0.046533041 -0.075181864 0.054928426 -0.99685419 -0.078124031 -0.013354232 0
0.017839771 -0.075069472 0.05488383 0.99440843 -0.096355774 0.043213375 0
-0.047165677 -0.064925708 0.054894134 -0.99869174 -0.050106216 -0.010207731 0
0.018889839 -0.064639412 0.05475146 0.99406475 -0.095168188 0.052710027 0
-0.047681052 -0.054656982 0.054544058 -0.99870235 -0.050254449 -0.0082495883 0
0.019561253 -0.055023536 0.055573653 0.99567783 -0.063368395 0.067897722 0
0.020104973 -0.051060669 0.051473707 0.99568522 -0.063687779 0.06748981 0
-0.048133913 -0.044974159 0.055061392 -0.99908149 -0.041481789 -0.010745904 0
0.019884408 -0.046439808 0.057800744 0.99621195 -0.047951236 0.07254298 0
0.020290757 -0.044464543 0.053430177 0.99641627 -0.044119097 0.072168499 0
-0.048545152 -0.034947447 0.054702509 -0.99914706 -0.04009274 -0.0098870723 0
0.02055 -0.035308491 0.05482161 0.99641484 -0.030099399 0.079066679 0
-0.048736919 -0.024389865 0.05491345 -0.99999416 0.0019507963 -0.0027935577 0
0.020848973 -0.024229933 0.054144707 0.99629754 -0.017218469 0.084230088 0
-0.048699617 -0.015378363 0.054408178 -0.99998671 0.0050297165 0.0011044609 0
0.020837197 -0.014564244 0.055055842 0.99697977 0.0028468892 0.077608734 0
-0.04862579 -0.0049375631 0.055193093 -0.99991763 0.011939599 0.0047062133 0
0.020780003 -0.0055751759 0.055084571 0.99723029 0.0068408423 0.074060127 0
-0.04846416 0.005244893 0.055146851 -0.99981296 0.017817697 0.0075245705 0
0.020693034 0.0049838945 0.055161521 0.99736053 0.011391855 0.071708813 0
-0.048226472 0.015338873 0.055007581 -0.99946254 0.029662145 0.013956151 0
0.020497696 0.014616791 0.054939512 0.99752337 0.030955609 0.063157544 0
-0.047885071 0.024492871 0.054910749 -0.99855655 0.050304446 0.018821279 0
0.019811643 0.027456144 0.057068359 0.99632692 0.066008814 0.054548349 0
0.020229153 0.023621671 0.053697072 0.99690163 0.05281676 0.058287933 0
-0.047168877 0.035586093 0.055457342 -0.99745518 0.066967323 0.024463702 0
0.019365113 0.035291865 0.055140693 0.99563527 0.076648608 0.053249147 0
-0.046598874 0.044480167 0.055007037 -0.99778992 0.064178839 0.017214905 0
0.018371381 0.045008887 0.054939434 0.99199718 0.12235523 0.031156449 0
-0.045866206 0.055101451 0.055038873 -0.99713111 0.07569062 -0.00073800591 0
0.017173285 0.054733083 0.05490718 0.99241018 0.12050293 0.024516609 0
-0.043993067 0.064297467 0.055247001 -0.8098222 0.58657825 -0.010677706 0
-0.035122365 0.066390753 0.05486336 0.039959546 0.99919742 -0.0027869709 0
-0.025047479 0.066117473 0.055097267 0.019245248 0.99981332 0.0017220107 0
-0.014706707 0.065936379 0.054943368 0.016777938 0.99985641 -0.0023752463 0
-0.0051583727 0.065699443 0.055314489 0.032697085 0.99945474 -0.0045899563 0
0.0048410641 0.065341294 0.054817751 0.041912515 0.99910635 -0.0054578171 0
0.014467701 0.063506529 0.055197515 0.63099706 0.7757203 -0.010035935 0
-0.043720447 -0.092385776 0.064907297 -0.49864718 -0.86660534 -0.018605908 0
-0.034939975 -0.093415216 0.064520553 -0.02357829 -0.99969459 -0.0073934626 0
-0.025057763 -0.093661495 0.064921923 -0.026750695 -0.99964201 -0.00036100147 0
-0.015158531 -0.093853533 0.064628616 -0.0098824641 -0.99995112 -0.00026666757 0
-0.0051471572 -0.093950652 0.064687677 -0.011086661 -0.9999097 -0.0075945263 0
0.0053556161 -0.094111972 0.065385848 -0.021164944 -0.99974734 -0.0075678332 0
0.01400967 -0.093328379 0.064856842 0.58961511 -0.80669475 0.03997162 0
-0.04584552 -0.085152775 0.064161144 -0.99665135 -0.080724359 -0.013026457 0
0.016591381 -0.084770121 0.064861581 0.99557573 -0.090380646 0.025695942 0
-0.046672113 -0.074962832 0.064673238 -0.99701554 -0.076250538 -0.012080507 0
0.01740076 -0.075895689 0.065124892 0.99535286 -0.092357039 0.027254831 0
-0.047296949 -0.065090492 0.065189593 -0.9985823 -0.051018082 -0.015180905 0
0.018298702 -0.065068677 0.064989544 0.99631715 -0.06570866 0.055086456 0
-0.047792125 -0.055123508 0.064503208 -0.99855095 -0.050903901 -0.017456636 0
0.018873636 -0.055279378 0.064905442 0.99566895 -0.05809015 0.072586693 0
-0.048257053 -0.044588 0.065340348 -0.99941897 -0.031553838 -0.012887903 0
0.01938157 -0.045626473 0.065187097 0.99621457 -0.04550869 0.074063309 0
0.020000093 -0.040058054 0.060137145 0.99641621 -0.044119138 0.072168596 0
-0.048575602 -0.034810949 0.064475499 -0.99962229 -0.027261224 0.0034965635 0
0.019602265 -0.035355866 0.066208802 0.99599963 -0.017187757 0.087688521 0
0.02008456 -0.033876456 0.060941946 0.99626911 -0.02028122 0.083883919 0
-0.048699461 -0.02513165 0.065127485 -0.99995333 -0.0042390595 0.0086799795 0
0.019681579 -0.024988618 0.066925846 0.99555194 -0.012095525 0.093434691 0
0.020157741 -0.024975454 0.06183888 0.9956674 -0.013440548 0.092009939 0
-0.048681997 -0.014844952 0.065216295 -0.99997604 0.0066201268 0.0020132428 0
0.0197751 -0.015198246 0.067155294 0.99553388 -0.011629513 0.093685694 0
0.020206008 -0.015318553 0.062495902 0.99582726 -0.0083869742 0.090872213 0
-0.048570819 -0.0050112824 0.064716093 -0.99983382 0.01676878 0.0071510109 0
0.019799665 -0.0048065609 0.067638725 0.99653471 0.00047318108 0.083176591 0
0.020218007 -0.0059998017 0.062553965 0.9968816 0.0044717612 0.078785174 0
-0.048370309 0.0050475113 0.065586887 -0.99952894 0.026662767 0.01519976 0
0.019768002 0.0041828863 0.067669131 0.99683702 0.0041818665 0.079363175 0
0.020183567 0.0045196731 0.062192388 0.99723637 0.0068831705 0.07397563 0
-0.048024945 0.014835222 0.065152973 -0.99875599 0.041533183 0.027594103 0
0.019765181 0.015425025 0.065905951 0.99746472 0.024804708 0.066699028 0
0.020085411 0.013671527 0.061813053 0.99750257 0.023641139 0.066556297 0
-0.047596566 0.024704482 0.064897493 -0.99846762 0.048689805 0.026301511 0
0.0195133 0.024813576 0.064698257 0.99717093 0.045482289 0.059846364 0
-0.047023296 0.03516721 0.064885013 -0.99829692 0.058107816 0.0051769395 0
0.018862166 0.03507055 0.064918317 0.99603081 0.075515263 0.047117591 0
-0.046474122 0.04490253 0.065150052 -0.99847937 0.055123761 0.00055315322 0
0.017979551 0.045380402 0.065071344 0.99454361 0.097832352 0.036219753 0
-0.045878839 0.054892093 0.064796835 -0.99793601 0.06419792 -0.0015833066 0
0.016883813 0.055183899 0.064783134 0.99261075 0.11927941 0.022278618 0
-0.043950044 0.064769395 0.065344691 -0.7058022 0.70836228 -0.008126922 0
-0.035085022 0.066403322 0.065140411 0.05131232 0.99868196 0.0011955124 0
-0.025258245 0.066134185 0.064758733 0.016329356 0.99986464 -0.0020321128 0
-0.014566409 0.065956399 0.064428382 0.016602159 0.99985939 -0.0023506181 0
-0.0051723267 0.065743133 0.064999148 0.030444521 0.99952728 -0.0042901235 0
0.0048911511 0.065386392 0.065150015 0.03920928 0.9992274 -0.0026798449 0
0.01409799 0.063941382 0.065112732 0.57523656 0.81796175 -0.0064507569 0
-0.043687437 -0.09236069 0.075366996 -0.59508008 -0.803635 -0.00711207 0
-0.034960277 -0.093507253 0.074586816 -0.01983911 -0.99974889 -0.010422005 0
-0.025106177 -0.093708776 0.074913546 -0.019420069 -0.99979961 -0.004855352 0
-0.014936273 -0.093896881 0.075439923 -0.017250443 -0.99984688 -0.0029456608 0
-0.0047987439 -0.094056293 0.075143479 -0.014499982 -0.99986362 -0.007902123 0
0.0055978117 -0.094198972 0.075027138 -0.01524581 -0.9998365 -0.0097178183 0
0.013538525 -0.093482666 0.075313874 0.50354135 -0.86374146 -0.019919962 0
-0.046011921 -0.084826469 0.074741095 -0.99673373 -0.079764001 -0.012630866 0
0.016198574 -0.085079134 0.074837074 0.99218601 -0.12271915 0.022513857 0
-0.046753712 -0.075349167 0.074716017 -0.99700779 -0.076735787 -0.009329427 0
0.017165326 -0.074714579 0.074780323 0.99627465 -0.073468089 0.045157291 0
-0.04744998 -0.06484022 0.075243339 -0.99841791 -0.054985922 -0.011755092 0
0.017725961 -0.064744852 0.075162701 0.99694729 -0.049267996 0.060570847 0
-0.047934975 -0.055739265 0.074847497 -0.99850827 -0.052495874 -0.015010726 0
0.018205475 -0.055180628 0.074935906 0.99671388 -0.048546012 0.064844534 0
-0.048376016 -0.044943281 0.074536577 -0.99966729 -0.023496525 -0.010635065 0
0.018599 -0.045260876 0.075148664 0.99521869 -0.030651871 0.092736728 0
-0.048527412 -0.035489582 0.075092882 -0.99993688 -0.010800206 0.0030913558 0
0.018796962 -0.035237666 0.075003721 0.99557495 -0.01270106 0.093108423 0
-0.048615973 -0.024603294 0.07469774 -0.99994707 -0.0073370431 0.0072114561 0
0.018939195 -0.025381079 0.074773692 0.99553514 -0.01165932 0.093669578 0
-0.048627768 -0.014739833 0.075487949 -0.99992323 0.0082744295 0.0092158047 0
0.019015661 -0.015091868 0.075238518 0.99553394 -0.011629498 0.093685642 0
-0.048497472 -0.0060274224 0.075273693 -0.9997831 0.018501848 0.0095565012 0
0.019137589 -0.0047298353 0.07517302 0.99581361 -0.008542872 0.091007471 0
-0.048282769 0.0048510185 0.075061068 -0.99967402 0.024853755 0.005857551 0
0.019175684 0.0047463253 0.074989669 0.99664444 0.0034380425 0.08178094 0
-0.04793917 0.015142627 0.075320125 -0.99918562 0.03980653 -0.0065909466 0
0.019101284 0.015022126 0.075020157 0.99642485 0.013104254 0.083461344 0
-0.04750808 0.025403053 0.07447172 -0.99905938 0.043230169 -0.0033894286 0
0.018850081 0.024741078 0.075149558 0.99711663 0.034509625 0.067584246 0
-0.047052499 0.03545421 0.074917652 -0.99867439 0.051374111 -0.0031799828 0
0.01844394 0.034602597 0.075017974 0.99715 0.055232409 0.051391598 0
-0.046470176 0.045212392 0.075023934 -0.9979102 0.06459365 0.0016970698 0
0.017663797 0.045201804 0.074477173 0.99558997 0.086443104 0.0364445 0
-0.045843206 0.055084664 0.074436128 -0.99821949 0.059419364 0.0052123703 0
0.01662997 0.055280574 0.07511653 0.99302346 0.11571708 0.02267302 0
-0.043773923 0.064685307 0.074355148 -0.6952762 0.71874022 -0.0018536535 0
-0.034895923 0.06636899 0.0756649 0.033888273 0.99941581 0.0044283872 0
-0.024292147 0.066132851 0.074692942 0.01480103 0.99989027 -0.00058396038 0
-0.014668871 0.065980911 0.074559964 0.016245786 0.99986613 -0.001934543 0
-0.0048690443 0.065779015 0.075207941 0.028073264 0.99959809 -0.003941501 0
0.0055859596 0.065369278 0.074918225 0.048591759 0.99881685 -0.0019301291 0
0.014047914 0.064091355 0.074516557 0.51210415 0.85890794 -0.0051366528 0
-0.043810755 -0.09234374 0.084946416 -0.58338463 -0.81215179 -0.0084772259 0
-0.034955095 -0.093627959 0.084670484 -0.018719047 -0.99974149 -0.01290258 0
-0.02484517 -0.093815051 0.085022256 -0.016160697 -0.99973869 -0.016160883 0
-0.014993353 -0.093978822 0.085776389 -0.015244564 -0.99977505 -0.014747648 0
-0.0056423726 -0.094108172 0.084795117 -0.015805811 -0.99980444 -0.011885097 0
0.0051519098 -0.094285563 0.085194863 -0.015642082 -0.99982542 -0.010224165 0
0.014288872 -0.093307264 0.084956065 0.78199536 -0.6232509 -0.0064406777 0
-0.046105254 -0.085104734 0.084934063 -0.99700695 -0.076419309 -0.01171797 0
0.01607495 -0.08500763 0.084808104 0.99747419 -0.065105267 0.028399553 0
-0.046872146 -0.075066626 0.084935129 -0.99706167 -0.075799696 -0.011065326 0
0.016640238 -0.074834064 0.084397368 0.99695891 -0.046210337 0.062749095 0
-0.04753951 -0.064859957 0.085371874 -0.99862629 -0.052326832 -0.0027018106 0
0.017138379 -0.06366691 0.08445552 0.99588913 -0.041542906 0.080492467 0
-0.048026446 -0.05529331 0.084835678 -0.99879801 -0.048977222 0.0019234704 0
0.017400697 -0.054516193 0.084659442 0.99373513 -0.01938007 0.11006716 0
-0.048376169 -0.044925947 0.085476734 -0.99979931 -0.017576678 0.0096174302 0
0.017553382 -0.044930264 0.084883004 0.99271941 -0.022441126 0.11834113 0
-0.048496772 -0.034726776 0.085130267 -0.99995959 -0.0081240516 0.0038309256 0
0.017733328 -0.035002612 0.085136913 0.99241728 -0.016518254 0.12179918 0
-0.048552234 -0.025120163 0.084875904 -0.99995989 -0.0011656402 0.0088773239 0
0.017838275 -0.024831772 0.085322782 0.9928335 -0.010884794 0.11900927 0
-0.048510302 -0.015358436 0.084963411 -0.99985147 0.0070607485 0.015717912 0
0.017927879 -0.015067741 0.085455835 0.99257344 -0.010633575 0.12118089 0
-0.048391741 -0.0048351651 0.084462725 -0.99980587 0.017614244 0.0088228155 0
0.018086437 -0.0050655277 0.085029617 0.99277771 -0.010695142 0.11949016 0
-0.048189852 0.0052224179 0.08550106 -0.99977934 0.019616166 0.0075144996 0
0.018162644 0.0050872811 0.085351586 0.99351352 -0.0092431959 0.11333762 0
-0.047947455 0.014971056 0.08528845 -0.99936253 0.035001613 0.0070211631 0
0.018215947 0.015190439 0.084831998 0.99538159 0.0070886915 0.095735781 0
-0.047542326 0.024726024 0.084944867 -0.99899238 0.044858433 0.001357661 0
0.018084429 0.025121611 0.085106336 0.99630362 0.016293608 0.084342502 0
-0.047053739 0.035313264 0.084640078 -0.99856955 0.053439435 0.0017583417 0
0.017850142 0.034468643 0.084966272 0.99719864 0.036885135 0.06507241 0
-0.046438724 0.045252763 0.085497148 -0.9978466 0.065561429 0.0019481134 0
0.017242834 0.04491847 0.085239612 0.99542749 0.081889167 0.049176298 0
-0.045865115 0.055168379 0.085212328 -0.99865329 0.051219959 -0.0082587516 0
0.016403329 0.055624343 0.08477401 0.99674034 0.076729722 0.024924953 0
-0.044270415 0.064186409 0.085354067 -0.82140493 0.57031751 -0.0056386245 0
-0.034399293 0.066308625 0.084821068 0.013234686 0.99991089 0.001761201 0
-0.025003932 0.066143788 0.085692331 0.012381171 0.99992335 0.00014822186 0
-0.015194319 0.066002585 0.084881857 0.015171384 0.99988449 -0.00091647467 0
-0.0053169485 0.06582392 0.084606081 0.025094025 0.99968112 -0.0028221526 0
0.0048203352 0.065446027 0.084811583 0.051395852 0.99861979 -0.010818768 0
0.014005921 0.06381131 0.084717996 0.66985524 0.74247152 -0.0054888339 0
-0.044054829 -0.092406146 0.095042571 -0.63666135 -0.7709341 -0.017970718 0
-0.035078488 -0.093759105 0.095362343 -0.022924617 -0.99966812 -0.011751233 0
-0.025620995 -0.093955703 0.095189288 -0.020426046 -0.99969429 -0.013933341 0
-0.015111044 -0.094128363 0.094441026 -0.015776234 -0.99964279 -0.021574548 0
-0.0054081767 -0.094301999 0.095018096 -0.017532516 -0.99950063 -0.026289616 0
0.0051102689 -0.094486833 0.095006779 -0.01413924 -0.99955744 -0.026172444 0
0.013917191 -0.093375266 0.095325336 0.70161593 -0.71233511 0.017712936 0
-0.04627363 -0.084835753 0.095603675 -0.99720234 -0.07364589 -0.012798415 0
0.015660856 -0.084587291 0.095002875 0.99781746 -0.037236493 0.054531619 0
-0.046951294 -0.075306311 0.094282888 -0.99749386 -0.070251711 -0.0084090717 0
0.015929239 -0.074839741 0.094841875 0.99676889 -0.018497428 0.078164354 0
-0.047532938 -0.065232821 0.095137686 -0.99900323 -0.044608247 -0.0016379703 0
0.016018191 -0.065187953 0.095211431 0.99329096 -0.012230395 0.11499303 0
-0.04802046 -0.054349095 0.094767153 -0.99931657 -0.036445122 0.0061828946 0
0.016175544 -0.054877408 0.094930016 0.99270368 -0.01195944 0.11998478 0
-0.048257295 -0.045237411 0.095444851 -0.99972391 -0.020372642 0.011710864 0
0.016352575 -0.044882711 0.094910085 0.99251008 -0.020309035 0.12046276 0
-0.048427347 -0.035145704 0.09538319 -0.99990916 -0.0091424482 0.0099007683 0
0.016490083 -0.034512609 0.094956346 0.9917568 -0.011266943 0.12763804 0
-0.048418984 -0.025300443 0.094972283 -0.9998613 0.0067378897 0.015235904 0
0.016599575 -0.025180571 0.095161498 0.99178624 -0.015064763 0.12701645 0
-0.048342895 -0.015236909 0.095447659 -0.99985099 0.0067759166 0.01587538 0
0.016738558 -0.015165568 0.095044553 0.99231899 -0.010705456 0.12324168 0
-0.048276342 -0.0050856457 0.095052406 -0.99985504 0.0090171965 0.014439917 0
0.016802328 -0.0051445444 0.095396072 0.99235618 -0.011459189 0.12287366 0
-0.048116677 0.0050567179 0.09530478 -0.99972463 0.021933114 0.0083525982 0
0.017056476 0.0052638361 0.0947285 0.99277717 -0.017634923 0.11866964 0
-0.047865339 0.01446299 0.094607964 -0.99942696 0.031695895 0.011884015 0
0.017141242 0.014839674 0.094910085 0.99356753 -0.004708935 0.11314327 0
-0.047487214 0.025207477 0.09536685 -0.99922705 0.038820524 0.0061876266 0
0.017083107 0.025191603 0.095582217 0.99436647 0.0015279446 0.10598584 0
-0.047053523 0.034925237 0.095111519 -0.99858838 0.053086918 0.0017418811 0
0.017074 0.035069551 0.095047407 0.99596822 0.014119819 0.088588044 0
-0.046462134 0.044994574 0.095109545 -0.99838442 0.05669738 -0.0037402504 0
0.016706424 0.044812191 0.095381029 0.99642456 0.062150959 0.057231627 0
-0.045970611 0.054903217 0.095444828 -0.99875194 0.04968632 -0.0050887861 0
0.016097283 0.054966424 0.094969824 0.99818945 0.048598714 0.035440557 0
-0.04409657 0.064715318 0.095150106 -0.7133708 0.700782 -0.0025898104 0
-0.03514095 0.066354632 0.094957396 0.034546308 0.99940282 -0.00062744756 0
-0.025557172 0.066153936 0.095311895 0.011205527 0.99993682 -0.00089810806 0
-0.015331205 0.066016234 0.094418757 0.015049813 0.99988574 -0.0014298997 0
-0.0046598846 0.065828405 0.094943598 0.025978247 0.99966097 -0.0017469006 0
0.0049060038 0.065530956 0.09448415 0.030532857 0.99953103 -0.0023517311 0
0.014170537 0.064182557 0.0955998 0.62140971 0.78341323 0.010660886 0
-0.0442908 -0.092339754 0.1045398 -0.68602723 -0.72737855 -0.016946429 0
-0.034421191 -0.093886487 0.10481267 -0.030097704 -0.99945509 -0.01355421 0
-0.025034975 -0.094161987 0.10467733 -0.031002602 -0.99911481 -0.028434338 0
-0.015362326 -0.094454899 0.1051634 -0.020790203 -0.99906182 -0.037990704 0
-0.0049680928 -0.094643526 0.10512459 -0.018897196 -0.99909353 -0.038144816 0
0.0050731311 -0.094742782 0.10453914 -0.0012723637 -0.99939001 -0.034898221 0
0.01341265 -0.0935077 0.10512003 0.70575255 -0.70790142 0.028089467 0
-0.046371825 -0.084819652 0.10485429 -0.99783844 -0.064951256 -0.0099908803 0
0.014885009 -0.084693231 0.10507017 0.99492908 -0.0034608953 0.10051997 0
-0.047022879 -0.075270027 0.10518514 -0.99788225 -0.064799935 -0.0056564063 0
0.014855347 -0.075131617 0.10508932 0.99343419 0.0031252825 0.11436191 0
-0.047588807 -0.064310156 0.10478797 -0.999147 -0.041291773 0.00034597074 0
0.014868246 -0.064810202 0.10514451 0.99352944 -0.0054627401 0.11344336 0
-0.047900181 -0.055873722 0.10484083 -0.9994812 -0.030859504 0.0092181433 0
0.014888187 -0.055153534 0.10560293 0.99304253 -0.010583567 0.11727984 0
-0.048151389 -0.045169201 0.1051544 -0.99973333 -0.02054107 0.010550991 0
0.01506352 -0.044803146 0.10528203 0.99192971 -0.010964588 0.12631358 0
-0.048319284 -0.035007 0.10452853 -0.99988949 -0.0061279926 0.013543049 0
0.015234734 -0.034948502 0.10468838 0.99180925 -0.0096632177 0.12736146 0
-0.048279382 -0.024533607 0.10463809 -0.99989319 0.0074928342 0.012548734 0
0.01532659 -0.02502013 0.10502882 0.99155152 -0.016903361 0.12860736 0
-0.048204057 -0.015090447 0.10501976 -0.99989033 0.007436519 0.012810066 0
0.015498769 -0.014947151 0.10494939 0.99194837 -0.013766666 0.12589285 0
-0.048125755 -0.0050014625 0.10529961 -0.99988353 0.0073541189 0.013375312 0
0.015597303 -0.0046567367 0.10520265 0.99241942 -0.014531379 0.12203524 0
-0.048025444 0.0046727136 0.1050733 -0.99977797 0.017479362 0.011769303 0
0.015847499 0.0055433563 0.10485726 0.99255437 -0.022465736 0.11971236 0
-0.047719207 0.01539375 0.10490422 -0.99944836 0.032235924 0.0079870578 0
0.015992109 0.014990375 0.10483238 0.99320114 -0.0084273107 0.11610512 0
-0.047408231 0.024885874 0.10549919 -0.99943829 0.032171771 0.0093788235 0
0.016023388 0.024985973 0.10515369 0.99363673 -0.0040273983 0.11256048 0
-0.047037154 0.034926869 0.1053277 -0.99891669 0.046462949 0.0025944998 0
0.016071236 0.035022568 0.10485428 0.99399424 -0.00037091438 0.10943221 0
-0.046501342 0.045080073 0.10498677 -0.99860907 0.052712481 -0.0011478713 0
0.016047604 0.04494793 0.10497124 0.99661267 0.013250202 0.081164069 0
-0.045965448 0.054803293 0.10482871 -0.99840623 0.056169555 0.0054625394 0
0.015724294 0.054682754 0.10489823 0.99782687 0.048423704 0.044684015 0
-0.043873426 0.06484279 0.10489056 -0.68270433 0.73069054 -0.0024942127 0
-0.034418385 0.06631916 0.1052618 0.010641076 0.99993891 0.0030134362 0
-0.025507456 0.06616278 0.10569611 0.010504265 0.99994451 -0.00084574835 0
-0.015536697 0.066034444 0.10491972 0.015112612 0.99988472 -0.0014563294 0
-0.0051714401 0.065857507 0.10472987 0.024496907 0.9996984 -0.0017038612 0
0.0049235607 0.065556288 0.10506495 0.029744213 0.99955416 -0.0026085873 0
0.014028756 0.064003371 0.10483494 0.67228001 0.73983377 0.026183533 0
-0.044153146 -0.092555732 0.1148777 -0.59265059 -0.80529159 -0.016452806 0
-0.035633139 -0.093963183 0.1148534 -0.046008378 -0.99886554 -0.012278048 0
-0.024708994 -0.094461419 0.11513576 -0.042237859 -0.99893469 -0.018583821 0
-0.015097914 -0.094822854 0.11526524 -0.029817037 -0.99902415 -0.03258143 0
-0.0046913922 -0.095075049 0.11538201 -0.025541373 -0.99870914 -0.043905593 0
0.0055792988 -0.095376827 0.11546421 -0.022759069 -0.99820697 -0.055361841 0
0.012917194 -0.093935892 0.1150938 0.75707334 -0.65167475 0.046475597 0
-0.04646695 -0.085331187 0.11482359 -0.99815714 -0.058962323 -0.014341901 0
0.013809806 -0.085562095 0.11485399 0.99429852 0.0086753229 0.1062791 0
-0.047114126 -0.07471963 0.11504309 -0.99849278 -0.054633144 -0.0052318033 0
0.013737874 -0.074806638 0.1147937 0.99353647 0.0018676394 0.1134976 0
-0.047511183 -0.065068036 0.11479892 -0.9994666 -0.03086267 0.010678273 0
0.013827135 -0.064966261 0.11435827 0.99398559 -0.0069240644 0.10929203 0
-0.047791839 -0.055054773 0.11536507 -0.99951422 -0.028274588 0.013110003 0
0.013865799 -0.054890789 0.11487866 0.99496704 -0.010605565 0.099639736 0
-0.048040945 -0.045358296 0.11512273 -0.99972308 -0.020815324 0.010974666 0
0.013963546 -0.045325927 0.1147301 0.99495625 -0.0073481551 0.10004056 0
-0.048167389 -0.034667641 0.11494945 -0.99987149 -0.0034561495 0.015654344 0
0.014024293 -0.034940794 0.11506285 0.99593508 -0.010913204 0.089411311 0
-0.048156962 -0.025260033 0.11478685 -0.99989599 0.0066718506 0.012790288 0
0.014125435 -0.025634337 0.11489458 0.99475193 -0.00890694 0.10192754 0
-0.048078347 -0.014810452 0.11480716 -0.9998883 0.0076745125 0.012825417 0
0.014262999 -0.014932817 0.11501237 0.99387616 -0.015294907 0.10943616 0
-0.047993172 -0.0047194846 0.11517315 -0.99987221 0.0082467571 0.013696924 0
0.01440639 -0.0052060355 0.11519833 0.9945873 -0.017806165 0.10236709 0
-0.047910433 0.0047622649 0.11536698 -0.99986768 0.0095702987 0.013156089 0
0.014624389 0.0051517291 0.11499617 0.99367428 -0.019937525 0.11051727 0
-0.047694746 0.015361904 0.11528593 -0.99952745 0.03071202 0.0012941691 0
0.014809975 0.01516289 0.11492436 0.9931531 -0.012045939 0.11619779 0
-0.047380563 0.024839602 0.11507715 -0.99944311 0.033368334 -0.00019697158 0
0.014878719 0.025688384 0.11519264 0.99445486 -0.010268221 0.10466234 0
-0.047032628 0.034723468 0.11475911 -0.99919522 0.040103357 0.00078959594 0
0.014990675 0.035483137 0.1151889 0.99631977 -0.011032252 0.085001402 0
-0.046549454 0.045078091 0.11521516 -0.9985795 0.052655548 -0.0081484364 0
0.015202081 0.045182392 0.11505744 0.99614769 -0.027935198 0.083122678 0
-0.046021271 0.054521251 0.11479773 -0.99836403 0.05599124 -0.011591086 0
0.015251752 0.05424067 0.1148585 0.99797976 0.028286191 0.056888729 0
-0.044112276 0.064585179 0.11513235 -0.71438706 0.6997267 -0.0058005126 0
-0.034925852 0.066310644 0.11515012 0.022626393 0.9997431 -0.0013782186 0
-0.025509799 0.066172481 0.11505594 0.011159542 0.9999364 -0.0016720003 0
-0.014388804 0.066032194 0.1152625 0.015101606 0.9998849 -0.0014647861 0
-0.0047092233 0.065866314 0.11525764 0.023606472 0.99971992 -0.0016779879 0
0.0054212045 0.065567963 0.11539348 0.030274639 0.99953961 -0.001981233 0
0.013647441 0.063861221 0.11489368 0.6852681 0.72805059 0.018707514 0
-0.043920554 -0.092805944 0.12549968 -0.53343302 -0.84579188 -0.0092323469 0
-0.035201591 -0.094103113 0.12486541 -0.049589351 -0.99872524 -0.009422251 0
-0.025405355 -0.094568349 0.12515326 -0.046256378 -0.99890345 -0.0072257807 0
-0.014463167 -0.095080353 0.12515645 -0.046210729 -0.99886596 -0.011460922 0
-0.0050693476 -0.095485836 0.12530285 -0.041007023 -0.99881154 -0.026341591 0
0.0047626193 -0.095850207 0.12516016 -0.01369004 -0.99939966 -0.031825341 0
0.012732508 -0.093611009 0.12574767 0.97200978 -0.23478568 -0.0085318368 0
-0.046607342 -0.085377969 0.12459331 -0.99824333 -0.057595629 -0.013886329 0
0.012935774 -0.084937662 0.12504998 0.99970615 0.01238723 0.020837985 0
-0.047152329 -0.074631684 0.1247494 -0.99933672 -0.036181651 -0.0041089351 0
0.012933782 -0.075303093 0.1250529 0.99957031 -0.009993487 0.027555915 0
-0.047430016 -0.064727522 0.1253223 -0.99968404 -0.025064314 0.0018804728 0
0.013029177 -0.064629547 0.12497192 0.99962938 -0.0051765544 0.026726237 0
-0.047687076 -0.054842703 0.12498008 -0.99962336 -0.02655207 0.0069420668 0
0.013068996 -0.054996025 0.1250596 0.99946803 -0.0043626712 0.032319237 0
-0.047935881 -0.044770729 0.1247667 -0.99977195 -0.017569074 0.012134251 0
0.013134061 -0.045455467 0.12477944 0.99854976 -0.011634992 0.052563176 0
-0.04800472 -0.035347879 0.12510955 -0.99986511 -0.0033222085 0.016081344 0
0.013258974 -0.034791078 0.12497719 0.99807745 -0.0044945409 0.061815422 0
-0.048020635 -0.025134567 0.12446883 -0.9998486 0.0041416106 0.016902221 0
0.013194432 -0.025251132 0.12546483 0.9984495 0.002526006 0.055608217 0
-0.047940124 -0.014891686 0.1250719 -0.99985605 0.0080653206 0.014929391 0
0.013348892 -0.01576924 0.12444951 0.99694872 -0.019349918 0.075623132 0
-0.047850564 -0.0044847243 0.12534623 -0.99986935 0.0083434135 0.013844127 0
0.013618452 -0.0054725488 0.12402093 0.99651021 -0.0213202 0.08070235 0
-0.04778704 0.0045118351 0.12451153 -0.99986935 0.0083434116 0.013844126 0
0.013733628 0.0050676106 0.12503412 0.99799436 -0.021646157 0.059486859 0
-0.047664668 0.014791158 0.12557492 -0.99979842 0.018301366 0.0082586985 0
0.013983512 0.015142633 0.12535307 0.99889487 -0.027020933 0.038457122 0
-0.047366485 0.025270792 0.1250089 -0.99939668 0.034727454 0.00041111754 0
0.014194653 0.024907399 0.12570217 0.99894613 -0.018718185 0.041906521 0
-0.046998974 0.03489029 0.12505338 -0.99915671 0.040936317 0.0031894664 0
0.014374353 0.03491319 0.1251936 0.9987973 -0.013603203 0.047104172 0
-0.046580907 0.045060508 0.12498575 -0.9991293 0.041638292 0.0026245366 0
0.014548946 0.045411982 0.1245782 0.9985379 -0.015211355 0.051872563 0
-0.046112422 0.055015836 0.12476579 -0.99867564 0.0503048 -0.010786689 0
0.014682827 0.055153698 0.12512115 0.99942875 -0.010815056 0.032016989 0
-0.044363841 0.064492166 0.12482978 -0.75795758 0.65225619 -0.0078875814 0
-0.034914669 0.066327445 0.12528434 0.010208003 0.99994773 -0.00047445818 0
-0.024762826 0.066186689 0.12516996 0.013364741 0.99990994 -0.0012636038 0
-0.01520561 0.066056311 0.12499007 0.014253513 0.99989825 -0.00040687079 0
-0.0046855132 0.065882236 0.1247179 0.02282943 0.99973804 -0.0016474797 0
0.0049600662 0.065579668 0.12501946 0.034344494 0.99940109 0.0042331163 0
0.013749395 0.063866198 0.12453803 0.80049813 0.59917599 0.013818839 0
-0.043680836 -0.093079224 0.13511986 -0.42547101 -0.9049415 -0.0074394913 0
-0.034608349 -0.094185442 0.13461798 -0.050794005 -0.99870592 -0.0025564905 0
-0.024761885 -0.094589576 0.13495384 -0.037108157 -0.99930179 0.0043454049 0
-0.015316595 -0.09495984 0.13505873 -0.041296571 -0.99904335 0.014386734 0
-0.0050239707 -0.095414855 0.13506882 -0.045452829 -0.99862975 0.025936471 0
0.0050051669 -0.095755018 0.13514231 0.004321781 -0.99924916 0.03850279 0
0.0123828 -0.09379144 0.1349871 0.77903676 -0.62672704 -0.017744388 0
-0.046730626 -0.084870599 0.1347162 -0.99874055 -0.049764756 -0.0063883262 0
0.013334019 -0.085211329 0.13502771 0.99788386 0.010542845 -0.064161718 0
-0.047159936 -0.075419076 0.13498276 -0.99937642 -0.035234336 -0.0022782781 0
0.013218625 -0.074908338 0.13524689 0.99781847 0.014203936 -0.06447082 0
-0.047426071 -0.064501204 0.1347118 -0.99975628 -0.021050623 0.006650181 0
0.013140542 -0.064330466 0.13528335 0.99890167 -0.00015394315 -0.046855569 0
-0.047613878 -0.055098977 0.13446963 -0.99973881 -0.018585123 0.013298513 0
0.013157357 -0.054841243 0.13496926 0.99860263 -0.0069398829 -0.052389488 0
-0.047769912 -0.044667885 0.13519777 -0.99970984 -0.012819036 0.020396665 0
0.013214204 -0.044638079 0.13440429 0.9981963 -0.010723698 -0.059068721 0
-0.047836579 -0.034686685 0.13446571 -0.99977022 0.0019440636 0.021346297 0
0.013304187 -0.035241771 0.13496003 0.99827707 0.00027672399 -0.058675017 0
-0.04778501 -0.025235003 0.1349491 -0.9996534 0.0037294889 0.026061825 0
0.013322477 -0.024614284 0.13535397 0.99823576 0.00017579358 -0.05937475 0
-0.047760997 -0.014937331 0.13500656 -0.99975353 0.0045212754 0.021733314 0
0.01337493 -0.014733154 0.13507001 0.99836928 -0.011905581 -0.055831011 0
-0.047690708 -0.0049030464 0.13533214 -0.99979645 0.0070468793 0.018903363 0
0.013463488 -0.0051572882 0.13534042 0.99867851 -0.0046566902 -0.051182054 0
-0.047625642 0.0046584187 0.13513532 -0.99981713 0.0073693953 0.017644985 0
0.013529761 0.0052098054 0.13501889 0.99952435 -0.014487628 -0.027224515 0
-0.047558758 0.014562209 0.13458934 -0.99984121 0.0080423784 0.01589928 0
0.013704151 0.015316614 0.13508341 0.99979556 -0.018674726 -0.0077531924 0
-0.047360245 0.025024962 0.13494882 -0.99947751 0.032217745 0.0026076369 0
0.013890349 0.024927257 0.13485634 0.99989849 -0.014149194 -0.0016250482 0
-0.046980008 0.034891304 0.13494994 -0.99920726 0.039772611 -0.0017015148 0
0.013997148 0.035127811 0.1346961 0.99984127 -0.015732532 0.0083575146 0
-0.046582274 0.044928234 0.13474806 -0.99922347 0.039201338 -0.0039551281 0
0.014287641 0.045168202 0.13544962 0.99903053 -0.042628881 -0.01098334 0
-0.046212148 0.054557886 0.13484508 -0.99926382 0.037664775 -0.0072951643 0
0.014618385 0.055270266 0.13510594 0.99979037 -0.01932892 -0.006755861 0
-0.044542864 0.06461262 0.13530019 -0.71313977 0.70098633 -0.0070664948 0
-0.034997243 0.066311687 0.13487791 0.011469925 0.99992883 0.0032608071 0
-0.024970824 0.066174358 0.13495499 0.013619239 0.99990112 0.0034961223 0
-0.014892385 0.066033401 0.13501438 0.014963415 0.99986523 0.00675881 0
-0.0053370204 0.065865301 0.13481013 0.023103004 0.99965602 0.012415219 0
0.005440237 0.065502837 0.13566855 0.032355703 0.99945545 0.0064689163 0
0.013636127 0.063928388 0.1349757 0.73196435 0.68134147 -0.0014023952 0
-0.044124871 -0.092801176 0.1453398 -0.54185027 -0.84046006 0.0050181639 0
-0.034608461 -0.094198823 0.14543642 -0.053734526 -0.99855524 -0.0003446622 0
-0.024658779 -0.094597585 0.14460555 -0.034778047 -0.99939412 -0.001407549 0
-0.014737645 -0.094939224 0.14512339 -0.032089144 -0.99948269 0.002171983 0
-0.004752697 -0.095193796 0.14531237 -0.016506247 -0.99955952 0.02466239 0
0.0045781145 -0.095340066 0.1447843 -0.0053041275 -0.999071 0.042766664 0
0.013029451 -0.093552142 0.14500833 0.84955537 -0.52702719 -0.02231566 0
-0.046785504 -0.085229024 0.14518277 -0.99890614 -0.046487451 -0.0050533274 0
0.013919878 -0.085073531 0.14499241 0.99894172 -0.0050332844 -0.045718189 0
-0.047154091 -0.074564405 0.14515051 -0.99980789 -0.018607475 0.0061553405 0
0.013871399 -0.074903734 0.14513846 0.99782783 0.011237148 -0.064910203 0
-0.047282204 -0.065401882 0.14503737 -0.99986017 -0.013359508 0.010057335 0
0.013833365 -0.064946622 0.14497519 0.99678349 -0.0072287144 -0.079814211 0
-0.047428709 -0.055365678 0.14499755 -0.99978352 -0.015352007 0.014045321 0
0.013934413 -0.054689299 0.14541586 0.99604738 -0.0053007198 -0.088664815 0
-0.047590606 -0.044088915 0.14465325 -0.99977052 -0.0077746226 0.019959778 0
0.01401412 -0.04514781 0.14545555 0.9950453 -0.0091832755 -0.098997831 0
-0.04759109 -0.035203315 0.1446605 -0.99962252 0.0058005191 0.02685448 0
0.014025484 -0.034468237 0.14479961 0.99520832 -0.0056017744 -0.097616255 0
-0.047508717 -0.024629729 0.14539978 -0.99965161 0.0038768142 0.026108941 0
0.014110609 -0.025166294 0.14492914 0.99374074 -0.0098889368 -0.1112725 0
-0.047516566 -0.015532517 0.14476372 -0.99964678 -0.00017715356 0.026577333 0
0.014202522 -0.015266911 0.14520457 0.9937942 -0.00082704599 -0.11123119 0
-0.047496572 -0.0051923553 0.14496936 -0.99974102 0.0038465424 0.022428997 0
0.014192633 -0.0048855669 0.14453313 0.99448496 -0.010486356 -0.10435402 0
-0.047447074 0.004707037 0.14453849 -0.9997912 0.0069682943 0.019209974 0
0.014357192 0.0049472395 0.1449388 0.9940632 -0.011492565 -0.10819573 0
-0.047364198 0.015295453 0.14532529 -0.99983668 0.0050896811 0.017338563 0
0.014394329 0.015262636 0.14480771 0.99516708 -0.0055654454 -0.098038487 0
-0.047304895 0.024916779 0.14463431 -0.99979162 0.017337143 0.01077577 0
0.014528862 0.025011871 0.14509863 0.99592859 -0.0080087828 -0.089789294 0
-0.046995301 0.035337504 0.14529757 -0.99940056 0.034610406 0.00075605058 0
0.014506788 0.035072822 0.14488146 0.99702555 0.0061387056 -0.076827556 0
-0.046664502 0.044404998 0.14506443 -0.99927139 0.037828207 -0.0050670109 0
0.014521575 0.045113146 0.14485614 0.99847251 -0.018952899 -0.051898636 0
-0.046254501 0.055428736 0.14529866 -0.99939275 0.034182101 -0.0067579132 0
0.014829174 0.054841161 0.14520466 0.99825525 -0.041498791 -0.042004775 0
-0.044436909 0.064493902 0.14492418 -0.75177515 0.65941143 -0.003301336 0
-0.035408784 0.066248015 0.14460959 0.010907953 0.99983186 0.014736812 0
-0.025139725 0.066082209 0.14499855 0.017614335 0.99962974 0.020742772 0
-0.015207704 0.065879166 0.14493296 0.02255583 0.99939471 0.026484806 0
-0.0051604197 0.065647505 0.14505428 0.022878053 0.9993273 0.028662987 0
0.0049689934 0.065398835 0.14478442 0.021752607 0.99932605 0.029568138 0
0.013047379 0.063757658 0.1445315 0.60687524 0.79451644 0.021122292 0
-0.044052519 -0.093071625 0.15463902 -0.50307471 -0.86384553 -0.026205793 0
-0.034896266 -0.09425132 0.15474378 -0.04481411 -0.99892217 -0.012090385 0
-0.025330104 -0.09457428 0.15516303 -0.028253645 -0.99958915 0.0048223319 0
-0.014780353 -0.094799578 0.15497439 -0.01293089 -0.99951851 0.02820552 0
-0.0046142945 -0.094918802 0.15477054 -0.0090945857 -0.99948204 0.030870492 0
0.0050709345 -0.094918139 0.15502957 0.01251058 -0.99888051 0.045620274 0
0.013208678 -0.093605272 0.15497819 0.74296635 -0.66932821 -0.0008642787 0
-0.0467753 -0.08534006 0.15486692 -0.99875951 -0.049663935 0.0035806608 0
0.014307434 -0.085027397 0.15453245 0.99901217 -0.013791365 -0.042243183 0
-0.047115482 -0.074027732 0.15476441 -0.99979639 -0.019480508 0.0052623316 0
0.014515444 -0.075398818 0.15482698 0.99661916 -0.028353712 -0.077111773 0
-0.047228701 -0.065173306 0.15497835 -0.99993593 -0.009988497 0.0053115468 0
0.014848384 -0.064831175 0.15556209 0.993873 -0.019070176 -0.10887056 0
-0.047319151 -0.055222329 0.15525603 -0.99991399 -0.0075215371 0.010740691 0
0.014894457 -0.0554264 0.15459748 0.99291086 -0.016881514 -0.1176561 0
-0.047348555 -0.045146897 0.15505427 -0.99965382 0.0032634253 0.026107658 0
0.01505247 -0.044895928 0.1545534 0.99270159 -0.012491308 -0.11994826 0
-0.047308549 -0.03552321 0.15497133 -0.99961722 0.0045280661 0.027293744 0
0.015239254 -0.035060313 0.15524293 0.99242789 -0.0072374674 -0.12261518 0
-0.047248133 -0.024892727 0.15534367 -0.99962616 0.0038560422 0.027066989 0
0.015272397 -0.024906479 0.15473473 0.99293047 -0.010182684 -0.11825929 0
-0.047244497 -0.015397969 0.15491377 -0.9996025 -1.5699585e-05 0.028195044 0
0.015409902 -0.015006609 0.15522946 0.99160135 -0.0050834464 -0.12923241 0
-0.047245756 -0.0048057362 0.1548593 -0.99957705 7.2949937e-05 0.029083205 0
0.015433169 -0.0049914448 0.1549639 0.99047947 -0.0086847749 -0.13738643 0
-0.047229316 0.0050246022 0.15535723 -0.99975371 0.00046495983 0.022185855 0
0.015632194 0.0044997451 0.15587032 0.99085569 -0.00054386444 -0.13492481 0
-0.047214832 0.01513079 0.15472911 -0.99988264 0.0031149592 0.01500301 0
0.015460561 0.014585316 0.15500049 0.99219513 0.0011297591 -0.12468984 0
-0.047177408 0.024623606 0.15496345 -0.99987471 0.0076481495 0.01385584 0
0.015402675 0.024663815 0.15440953 0.9934659 0.002090751 -0.11411021 0
-0.046931334 0.035553191 0.15581819 -0.999488 0.031259835 0.0068164244 0
0.015452044 0.03457002 0.15496948 0.99198663 0.00093020411 -0.12633967 0
-0.046662513 0.044357076 0.15466247 -0.99948013 0.031733464 0.0056924927 0
0.015445055 0.044667874 0.15514658 0.99236727 0.0033790083 -0.12327109 0
-0.046331596 0.054852486 0.15496728 -0.99951148 0.030822048 -0.005188073 0
0.01546664 0.054741602 0.15531501 0.99508721 -0.0053767548 -0.098855816 0
-0.044320408 0.064611673 0.15508045 -0.60777885 0.794074 0.0071675777 0
-0.035225991 0.065989166 0.15456706 0.018350903 0.99924874 0.034134161 0
-0.025059074 0.0657131 0.1547258 0.027874639 0.99809146 0.055104744 0
-0.014729115 0.065458454 0.15485284 0.022924386 0.99762714 0.06491974 0
-0.0048125987 0.065168582 0.15523666 0.033126868 0.9970327 0.069486693 0
0.0051235869 0.064905494 0.15471333 0.010438834 0.99839979 0.05557733 0
0.01375304 0.063211091 0.15458308 0.72285706 0.69043857 -0.027786938 0
-0.044247553 -0.093044914 0.16520596 -0.57395333 -0.81867945 -0.018480077 0
-0.035109296 -0.094336756 0.16508929 -0.033520266 -0.99938893 -0.0099063162 0
-0.024645828 -0.094579674 0.16479877 -0.0097138043 -0.99993789 -0.0054692561 0
-0.015284382 -0.094608493 0.16534387 -0.00094139035 -0.9999972 -0.0021867452 0
-0.0053177956 -0.094609566 0.16449396 0.0068865651 -0.99968874 0.023977926 0
0.0050345613 -0.094418682 0.16498128 0.019565789 -0.9985972 0.049201936 0
0.013333053 -0.093147278 0.16525143 0.74282634 -0.6688152 0.029918706 0
-0.046762388 -0.085569084 0.16506475 -0.99866939 -0.051338553 -0.0048750993 0
0.014828963 -0.085336603 0.1646885 0.99721438 -0.054150287 -0.05129604 0
-0.047030028 -0.075175837 0.16527709 -0.99987233 -0.01255878 0.0098851761 0
0.015431388 -0.075089425 0.16485623 0.99436748 -0.049536165 -0.093699008 0
-0.047128323 -0.065544434 0.1648041 -0.99987495 -0.0060755764 0.014596036 0
0.015861571 -0.06491071 0.16523057 0.99475121 -0.031200459 -0.097450331 0
-0.047132783 -0.055148508 0.16503701 -0.99968117 0.003560219 0.024996642 0
0.016162466 -0.055031225 0.16537392 0.99345535 -0.023787018 -0.11171692 0
-0.047080521 -0.044680182 0.16527411 -0.99965209 0.0046799202 0.025957357 0
0.016351052 -0.044874627 0.16521581 0.9922685 -0.020015845 -0.122485 0
-0.047033429 -0.035358928 0.16522205 -0.99958944 0.0061251852 0.027987732 0
0.016514366 -0.035395414 0.16494709 0.9912104 -0.014456028 -0.13150319 0
-0.046965688 -0.025071681 0.16487341 -0.99944723 0.0079749404 0.032275174 0
0.016656216 -0.024811845 0.16513708 0.98957711 -0.013157429 -0.14340153 0
-0.04693291 -0.014955425 0.16465107 -0.9994058 0.00060993567 0.034462936 0
0.016775237 -0.015325243 0.16510996 0.99012738 -0.011419836 -0.13970411 0
-0.046916462 -0.0048891823 0.16526756 -0.99950528 -0.0029929827 0.031308856 0
0.016951032 -0.0048489384 0.16553864 0.98980886 -0.0099319778 -0.14205587 0
-0.046988692 0.0050304611 0.16558684 -0.99956918 -0.01527271 0.025063993 0
0.016977018 0.0056807236 0.16505611 0.98911452 -0.0024792957 -0.1471269 0
-0.047079347 0.015193854 0.16533999 -0.99993217 0.0027014895 0.01133134 0
0.01702697 0.015336761 0.16530037 0.98695523 -0.0066798087 -0.16085647 0
-0.047035348 0.025116228 0.16496934 -0.99990827 0.004248614 0.012859515 0
0.017082388 0.025402943 0.16518487 0.98611063 -0.0043765716 -0.16603215 0
-0.046884593 0.035133012 0.16477513 -0.99960691 0.02748625 0.0055267964 0
0.017020985 0.035161894 0.16495487 0.98703909 0.011636299 -0.16005777 0
-0.046622511 0.044723991 0.16509792 -0.99968761 0.024906026 -0.0020913652 0
0.016839392 0.045166474 0.1647753 0.98813134 0.011680188 -0.15316679 0
-0.046370454 0.055099655 0.16506533 -0.99967241 0.025252698 -0.0041718259 0
0.016477961 0.054777704 0.16472319 0.99278772 0.082167096 -0.087298453 0
-0.044382125 0.064597301 0.16516405 -0.6484676 0.76123041 0.0042410274 0
-0.035182305 0.065461151 0.16493939 0.074106842 0.99596852 0.050545596 0
-0.025128145 0.064866252 0.1649721 0.048718076 0.99426001 0.095255755 0
-0.014496278 0.064430043 0.16501659 0.026111482 0.99383938 0.10771025 0
-0.0053270161 0.064294696 0.16480242 0.010868202 0.9946143 0.10307357 0
0.0048419074 0.064381883 0.16498384 -0.032570317 0.99803156 0.053592511 0
0.013776781 0.063507356 0.16440332 0.62908012 0.77727461 0.010113726 0
-0.04414599 -0.093398824 0.17531145 -0.49537686 -0.86849558 -0.017806606 0
-0.034707829 -0.094443634 0.17494366 -0.025444755 -0.99964845 -0.0074504982 0
-0.025145577 -0.09462209 0.17511858 -0.013003949 -0.99990898 -0.0035865351 0
-0.015272607 -0.094655901 0.17444503 0.0074784313 -0.99997008 -0.0019862987 0
-0.0051703504 -0.094478764 0.17481749 0.025217377 -0.99962568 0.010606286 0
0.0051163379 -0.094139382 0.1748531 0.037632138 -0.99927795 0.0052306824 0
0.013344981 -0.092818432 0.17480029 0.68440026 -0.72910339 0.0021415793 0
-0.04685095 -0.08520285 0.17561176 -0.99973923 -0.021064211 -0.008818903 0
0.015290759 -0.08553692 0.17538498 0.99388301 -0.102774 -0.040421247 0
-0.046954326 -0.075035281 0.17492485 -0.99998128 -0.0048679216 0.0037274018 0
0.016235637 -0.074926198 0.17531416 0.99510372 -0.079658888 -0.058505915 0
-0.046935927 -0.065072857 0.17542048 -0.99981463 0.0048608356 0.018630056 0
0.01684182 -0.065494582 0.17519931 0.99405932 -0.042570733 -0.10016931 0
-0.046898291 -0.055009555 0.17488331 -0.9997952 0.00459436 0.019709585 0
0.017188439 -0.055662107 0.17491554 0.99345511 -0.035443801 -0.10858497 0
-0.046832338 -0.044816192 0.17485376 -0.99962342 0.010682371 0.025276557 0
0.017555648 -0.045182504 0.17523453 0.99317682 -0.027950015 -0.11321908 0
-0.046731919 -0.035108309 0.17479894 -0.99940193 0.009081183 0.033367269 0
0.017730599 -0.035760779 0.17473294 0.99246782 -0.023720933 -0.12018683 0
-0.046644062 -0.025358597 0.17477658 -0.99941838 0.0091659958 0.032845248 0
0.018020293 -0.024966631 0.1751539 0.99230641 -0.019473357 -0.12226485 0
-0.046599098 -0.014728478 0.17446111 -0.99947047 -0.001010422 0.032521989 0
0.018160501 -0.015732002 0.17503169 0.99085677 -0.014297709 -0.1341584 0
-0.046625495 -0.004995802 0.17544588 -0.99962205 -0.0091366423 0.02592876 0
0.018195344 -0.0048538959 0.17433201 0.9902904 -0.01170446 -0.13852036 0
-0.046749696 0.0048372922 0.17497103 -0.99955261 -0.015997333 0.0252697 0
0.018413948 0.005060473 0.17506865 0.99018407 -0.011179958 -0.13932154 0
-0.046927139 0.014847609 0.17494056 -0.9997052 -0.012880103 0.020581767 0
0.018545503 0.015110949 0.17485453 0.98881394 -0.020850617 -0.14768961 0
-0.046938781 0.024545416 0.17524625 -0.99994397 0.0064108847 0.008422873 0
0.018634088 0.024420584 0.1748351 0.99036258 0.011364956 -0.13803174 0
-0.046850719 0.034727901 0.17514309 -0.99988484 0.01459478 0.0041572251 0
0.018575339 0.035144735 0.17504616 0.98922729 0.0089943251 -0.14611126 0
-0.046645228 0.044893228 0.17493309 -0.999749 0.022398058 -0.00046113043 0
0.018223392 0.045156542 0.17528228 0.99201697 0.08246319 -0.095405035 0
-0.04640818 0.054918617 0.17492463 -0.99968487 0.025074277 -0.0012123451 0
0.016676083 0.055078667 0.17497036 0.98072714 0.19459768 0.017494367 0
-0.044280734 0.064295582 0.17505589 -0.68725002 0.72633636 0.01108752 0
-0.034748696 0.065118887 0.17506771 0.12671496 0.99170375 0.021612765 0
-0.025140747 0.064048789 0.17507525 0.065032087 0.99532777 0.071368113 0
-0.014560339 0.063546829 0.17451388 0.041624475 0.995713 0.082600877 0
-0.0056060422 0.063320987 0.17484929 0.00054195506 0.99565351 0.093132995 0
0.0045665172 0.063653365 0.17536652 -0.058731202 0.99537987 0.075958095 0
0.013557615 0.063164048 0.17447183 0.56587452 0.82287902 0.051538527 0
-0.044533256 -0.09314575 0.18448249 -0.59067822 -0.80690652 -0.0011182531 0
-0.03528915 -0.094487138 0.1849149 -0.026378607 -0.9996469 -0.0031946511 0
-0.024968976 -0.094667055 0.18565239 -0.015197797 -0.99987161 -0.0050726552 0
-0.014542124 -0.094685718 0.18495294 0.013869734 -0.99977469 -0.016070465 0
-0.004994161 -0.094510227 0.18485944 0.019242823 -0.99958646 -0.021372093 0
0.0056010573 -0.094222754 0.18493304 0.04302055 -0.99895191 -0.01563246 0
0.013021757 -0.093083993 0.18505752 0.5327431 -0.84625667 0.0058834315 0
-0.046896826 -0.084996857 0.18444401 -0.99997747 -0.0066814842 0.00052983256 0
0.015669549 -0.084908858 0.18507029 0.99056238 -0.13619433 -0.01540409 0
-0.046844024 -0.074836239 0.18558821 -0.99981916 0.0096857948 0.016367966 0
0.016770435 -0.075255983 0.18503083 0.99151576 -0.11308423 -0.064096853 0
-0.046766337 -0.06498047 0.1853468 -0.99983996 0.0068707615 0.016514864 0
0.017789947 -0.064776823 0.18571961 0.9948706 -0.072338276 -0.070708759 0
-0.046723519 -0.055276733 0.18448476 -0.99980426 0.0063126134 0.018751403 0
0.018255327 -0.055418491 0.18469116 0.99401444 -0.043241899 -0.10032698 0
-0.046583641 -0.045317892 0.18509997 -0.99948275 0.019016879 0.02593345 0
0.018631412 -0.04495059 0.1849013 0.99368918 -0.030652413 -0.10789909 0
-0.04640948 -0.034754418 0.18466622 -0.99944419 0.013602962 0.030434059 0
0.018980363 -0.035132524 0.18541987 0.99419111 -0.02751678 -0.10405265 0
-0.046297677 -0.025254527 0.18500645 -0.99937582 0.0081421509 0.034373961 0
0.019119419 -0.025443016 0.18462738 0.99512959 -0.022512922 -0.095969938 0
-0.046290562 -0.014753037 0.18499477 -0.99961209 -0.0071051433 0.026931148 0
0.019373896 -0.015343802 0.1848682 0.99468684 -0.020492531 -0.10088632 0
-0.046379499 -0.005178032 0.18489619 -0.9996227 -0.009256253 0.025861889 0
0.019524354 -0.0059522102 0.18458831 0.99429601 -0.017664488 -0.10518304 0
0.020074412 -0.00095896109 0.18935703 0.99661684 -0.029809522 -0.076592252 0
-0.046488028 0.0049949149 0.18541217 -0.99953258 -0.017375693 0.025156561 0
0.019621305 0.0054307315 0.18367915 0.99098039 -0.013350161 -0.13334018 0
0.020154139 0.0054678554 0.18808335 0.99592549 -0.023271499 -0.087126233 0
-0.046699721 0.015204649 0.18491806 -0.99949235 -0.019813588 0.024950296 0
0.019629728 0.015781008 0.18377906 0.99439126 0.030289505 -0.10133422 0
0.020253981 0.013442908 0.18802744 0.9970389 0.028890532 -0.071265951 0
-0.046833482 0.025165081 0.18499048 -0.99991 -0.0013926628 0.013342135 0
0.019545367 0.024030378 0.18421432 0.99740821 -0.045398865 -0.055819213 0
0.02022282 0.027731031 0.18717982 0.99455941 -0.057229001 -0.087043054 0
-0.046783186 0.035072982 0.18525584 -0.99993408 0.008829792 0.0073385336 0
0.019701581 0.035875991 0.18341631 0.99135268 0.04815625 -0.12206915 0
0.02031167 0.034756243 0.18775487 0.99455726 0.039567474 -0.096386075 0
-0.046628628 0.045042858 0.18510053 -0.99977076 0.02130332 0.0021497668 0
0.018656133 0.044865083 0.18515725 0.97832388 0.20698418 -0.0063243713 0
