# .PCD v0.7 - Point Cloud Data file format
VERSION 0.7
FIELDS x y z normal_x normal_y normal_z curvature
SIZE 4 4 4 4 4 4 4
TYPE F F F F F F F
COUNT 1 1 1 1 1 1 1
WIDTH 263
HEIGHT 1
VIEWPOINT 0 0 0 1 0 0 0
POINTS 263
DATA ascii
-0.035642844 -0.10122631 -6.1543607e-05 -0.18781419 -0.051569112 -0.98084986 0
-0.042716745 -0.095420301 -5.7121229e-05 -0.041421488 0.096724182 -0.9944489 0
-0.038492605 -0.099241465 -5.5924407e-05 -0.15191974 -0.21265659 -0.96524477 0
-0.0022223021 -0.097303018 -5.9002963e-05 -0.17199025 0.11989691 -0.9777751 0
0.0011488886 -0.093392327 -0.00014591801 -0.60931826 0.47265276 -0.63665581 0
-0.04838375 -0.082501173 -6.6906221e-05 0.93876725 0.21739747 -0.26730967 0
0.004770685 -0.085685633 -9.4244431e-05 -0.034472439 -0.069304191 -0.99699986 0
-0.048881114 -0.079196908 -4.5412908e-05 0.39871916 0.014378927 -0.91696036 0
0.006161341 -0.075952999 -4.2712629e-05 0.056821581 -0.00015464945 -0.99838436 0
-0.044116765 -0.063603252 -7.2076407e-05 -0.08476679 0.00035962279 -0.99640077 0
0.0037354976 -0.067556642 -4.7916026e-05 -0.025275612 0.009937509 -0.99963117 0
-0.037982009 -0.057977226 -6.8034162e-05 -0.19626117 0.25381294 -0.94713277 0
-0.01539881 -0.05210923 -0.00030854196 -0.23188336 -0.84921747 -0.4744046 0
-0.020128608 -0.1100224 0.0099887615 -0.0071771438 -0.99193907 -0.12651244 0
-0.042062622 -0.1016796 0.0077808644 -0.59645772 -0.70975834 -0.37480831 0
-0.034317397 -0.10353328 0.0055770734 -0.36391255 -0.58432823 -0.72534686 0
-0.024958264 -0.10547777 0.005640184 0.031131417 -0.74815023 -0.66279858 0
-0.015022526 -0.10508537 0.0053924592 0.0088527873 -0.36242533 -0.93197072 0
-0.0057900907 -0.10310619 0.0059000072 0.25403917 -0.72281343 -0.64265466 0
0.0010394828 -0.10121001 0.0080597345 0.69630474 -0.69287485 -0.18730752 0
-0.050683111 -0.09132006 0.0078079002 -0.87872148 -0.40626842 -0.25058848 0
-0.044358511 -0.094733447 0.005455018 -0.54389977 -0.51305604 -0.664038 0
-0.035480909 -0.095513523 0.0060499255 0.70555967 0.70268738 -0.091739208 0
-0.024941787 -0.095152274 0.006624341 -0.23141776 -0.81099093 0.53734487 0
-0.014904039 -0.094794981 0.0064684167 -0.14430083 -0.65653247 0.74036646 0
-0.0043184077 -0.095450163 0.005505098 -0.78848642 0.57860231 -0.2085871 0
0.0035164442 -0.093761481 0.0053953999 0.67798835 -0.37185481 -0.63407874 0
-0.05151378 -0.084681563 0.0075682835 -0.85708672 -0.1638249 -0.48842981 0
-0.045693338 -0.084878705 0.0051683751 0.79079145 -0.10916379 0.60227251 0
-0.034970962 -0.085321546 0.0065249847 -0.12755466 -0.23309807 0.96405137 0
-0.025154823 -0.084950067 0.0064913668 -0.039325893 -0.027691035 0.99884272 0
-0.01514753 -0.084963031 0.0062879124 -0.14607933 -0.14609474 -0.97842586 0
-0.0049396721 -0.085045733 0.0063675465 0.60865319 -0.30805233 -0.73119426 0
0.0048615308 -0.085184723 0.0051652817 -0.032953728 -0.28112474 -0.95910525 0
0.010626514 -0.082814299 0.0082655791 0.94816005 -0.21510269 -0.23393026 0
-0.051753096 -0.075226948 0.008001795 -0.69241655 0.099190965 -0.71464711 0
-0.046099577 -0.074980892 0.0051388866 0.92679024 0.34381568 0.15116401 0
-0.034795262 -0.075212762 0.0062771747 -0.5269658 0.028478982 -0.84940916 0
-0.024841806 -0.074961826 0.0064437273 0.13685073 -0.10554839 0.98495251 0
-0.015176949 -0.074989118 0.0063437372 -0.24614815 0.087077841 -0.96531272 0
-0.0048336978 -0.075186014 0.0064481106 0.97263229 0.061222445 0.22413895 0
0.0050561298 -0.074856304 0.0052237939 -0.10008896 0.1270864 -0.98682892 0
0.010596605 -0.075196706 0.0084747151 0.96078032 0.11403903 -0.2527771 0
-0.051229585 -0.067151591 0.0080586756 -0.83798653 0.30686387 -0.45123515 0
-0.044937685 -0.065103732 0.0052617257 0.12861262 -0.74087 -0.65921962 0
-0.035192866 -0.064923361 0.0064572119 0.3811163 -0.28654388 -0.8790012 0
-0.024815578 -0.064980544 0.0064600334 0.024457248 0.19829361 0.97983748 0
-0.015164657 -0.065025799 0.0065061608 0.0076097674 0.20965256 0.97774637 0
-0.0046601663 -0.064695463 0.006470426 -0.31810397 -0.18510532 -0.92980957 0
0.0039002094 -0.065533377 0.0054910611 0.29861125 0.11491991 -0.94743055 0
-0.04286363 -0.057106562 0.0060130889 -0.65082681 0.63132179 -0.42173132 0
-0.034833111 -0.055307791 0.0046466626 -0.052884817 -0.0096220402 -0.99855429 0
-0.024844958 -0.054208748 0.0057131057 0.34428093 -0.9138751 -0.2151812 0
-0.014871253 -0.053954575 0.0055539748 -0.10624079 -0.75980991 -0.64140618 0
-0.0053271963 -0.05570982 0.0055517452 -0.0089156851 0.07992129 -0.99676132 0
0.0024638248 -0.057693589 0.0071870261 0.63433391 0.59207249 -0.49706191 0
-0.032781139 -0.048651684 0.0073768278 -0.41294092 0.79581106 -0.44290474 0
-0.024156874 -0.048011664 0.0063093472 0.021367311 0.84908581 -0.52782261 0
-0.016050674 -0.048137333 0.0072161304 0.12738204 0.70916128 -0.69344366 0
-0.0073856148 -0.048999999 0.0082405536 0.38481897 0.85879254 -0.3382155 0
-0.02344186 -0.11028335 0.015415949 -0.049229734 -0.99809098 -0.03729346 0
-0.01796723 -0.11021055 0.015586112 0.070526324 -0.99680555 -0.037478939 0
-0.042321455 -0.10185774 0.014959741 -0.69286162 -0.72075325 -0.021390177 0
-0.035205245 -0.10585439 0.014875569 0.51234752 0.84350801 -0.16122724 0
-0.02614687 -0.10855934 0.014868033 0.1688678 0.98506045 0.033757415 0
-0.014564862 -0.1082967 0.014737302 -0.20982817 0.97761893 -0.015275812 0
-0.0051657227 -0.10492574 0.014967366 -0.090128444 -0.99376011 -0.065709472 0
0.0013453218 -0.10136811 0.015072298 0.7023198 -0.71123886 -0.02976788 0
-0.050777018 -0.091398127 0.01450634 -0.92015004 -0.39156452 -0.0011111801 0
-0.046831764 -0.095757209 0.015157438 0.84572464 0.53357536 0.0068693398 0
-0.0011551933 -0.097693309 0.014692282 -0.88883632 0.45256618 0.071790047 0
0.0046368251 -0.094214983 0.014871254 0.98172677 -0.11006819 0.15523382 0
-0.051933121 -0.0843549 0.014840343 -0.89012915 -0.43552637 -0.13411461 0
-0.049577069 -0.089000106 0.015403235 0.9408884 0.33791777 -0.023251196 0
0.0067075137 -0.085745178 0.01521244 -0.95790523 -0.28162423 -0.055726286 0
0.010804291 -0.083253153 0.015519924 0.98069102 -0.19363102 -0.027426206 0
-0.052134089 -0.075027183 0.014839356 0.36440742 -0.43405437 -0.82389563 0
0.0035648239 -0.075017244 0.014791352 -0.94204235 -0.17893167 -0.28379533 0
0.011008665 -0.075330384 0.015152896 0.99534601 0.092854045 -0.025776938 0
-0.051436417 -0.066676393 0.014937883 -0.92945796 0.3687247 -0.012249419 0
-0.046546455 -0.064219497 0.015024743 0.55242568 -0.82938254 -0.083369255 0
-0.038312964 -0.060738388 0.016078804 0.40693447 -0.90792197 -0.10040916 0
-0.0028292181 -0.062940165 0.016064651 -0.67151362 -0.59778821 -0.437857 0
0.0058076456 -0.065215014 0.01445493 0.82840866 0.2950145 -0.47613606 0
0.010121676 -0.069629781 0.016524699 0.96413749 0.26395276 -0.027710166 0
-0.044127926 -0.055483893 0.015208544 -0.71619737 0.6976006 -0.020365231 0
-0.035215866 -0.055805761 0.014697656 0.33197317 -0.90723819 -0.25828806 0
-0.025190545 -0.054779749 0.014843429 0.23089607 -0.9060418 -0.35464811 0
-0.014909112 -0.054457854 0.014663788 -0.20406476 -0.86912578 -0.45053083 0
-0.0048959763 -0.055128131 0.014205026 -0.090052247 -0.11769203 -0.9889586 0
0.0031529886 -0.056888729 0.014669457 0.75920248 0.65072894 -0.012785407 0
-0.033510819 -0.048174918 0.014835698 -0.38291678 0.92371565 -0.011149828 0
-0.025259955 -0.045998611 0.014856923 -0.1300728 0.99136299 -0.016748613 0
-0.015186747 -0.046528034 0.014754888 0.19441321 0.98085833 -0.010973005 0
-0.0074864239 -0.048705012 0.015387169 0.40326357 0.91506052 -0.0065328344 0
-0.023599412 -0.11042296 0.025289467 -0.079272233 -0.99679434 -0.010809984 0
-0.017580502 -0.11038288 0.025406333 0.10684422 -0.99419719 -0.012500047 0
-0.042178862 -0.10202537 0.025059827 -0.68855232 -0.72505212 -0.013967829 0
-0.035076637 -0.10610393 0.0251652 0.043021351 -0.99598593 0.078493334 0
-0.025837746 -0.10858385 0.025046 0.13246498 0.99118745 0.00077129493 0
-0.014186192 -0.10830525 0.025084885 -0.15332204 0.98812437 0.010123219 0
-0.0050231609 -0.10493122 0.025122575 -0.57069379 -0.78536689 0.23980708 0
0.0015367798 -0.10148529 0.024624269 0.68949902 -0.72407377 -0.017558709 0
-0.050646812 -0.091713443 0.024619602 -0.92858231 -0.3711254 0.00090254558 0
-0.046824355 -0.095746234 0.024960704 0.85199237 0.5234319 0.011317339 0
-0.00054520706 -0.098846093 0.023523899 -0.87220699 0.46657181 0.14685251 0
0.0049446779 -0.094804049 0.025021371 0.84461814 -0.089980677 0.52775341 0
-0.051883005 -0.084684156 0.025044493 -0.85331756 -0.51978433 0.040906593 0
-0.049569033 -0.088945732 0.024760045 0.93914402 0.34273264 0.023300236 0
0.0072466535 -0.085683532 0.024906203 -0.94659144 -0.30834106 0.094289221 0
0.01089989 -0.0836071 0.025095748 0.98576123 -0.16780719 -0.0107456 0
-0.052112784 -0.075203866 0.02512078 0.9181599 0.34946853 -0.18669273 0
0.0034265905 -0.074858539 0.025343647 -0.90422457 -0.28997582 0.31351545 0
0.011120618 -0.075015247 0.024791487 0.99636948 0.084387906 -0.011252516 0
-0.051239159 -0.066752516 0.024827896 -0.92796659 0.37264639 -0.0035622392 0
-0.04636348 -0.063501015 0.024605939 0.42518121 -0.88555717 0.187108 0
-0.038237102 -0.060731199 0.023554571 0.40196186 -0.9078539 0.11928137 0
-0.0030192847 -0.064040877 0.024446238 -0.72615957 -0.59894568 0.33757409 0
0.0061377641 -0.06528613 0.025693284 0.87937784 0.36822939 0.30183059 0
0.010253226 -0.069431983 0.025187576 0.95843804 0.28473571 -0.017946506 0
-0.044349432 -0.055653211 0.025038203 -0.7263549 0.68730837 -0.0039715869 0
-0.035368826 -0.05626994 0.025474457 0.28282148 -0.86583287 0.41272935 0
-0.024989594 -0.055085037 0.025533803 0.16481452 -0.91895604 0.35826784 0
-0.015022068 -0.055885408 0.025241174 -0.26306996 -0.92347729 0.2792559 0
-0.0049730157 -0.055438116 0.025525505 0.28749475 -0.096798919 0.95287818 0
0.002913432 -0.056480613 0.025246546 0.74461716 0.66745031 -0.0074406629 0
-0.033813525 -0.048206568 0.025037993 -0.38182399 0.92421782 -0.005655773 0
-0.024894578 -0.045905333 0.024950506 -0.10399286 0.99457622 -0.0019155898 0
-0.014957697 -0.046507888 0.024760861 0.19443513 0.98088497 -0.0077247913 0
-0.007624215 -0.048623182 0.025203642 0.39123449 0.92028511 -0.0033063348 0
-0.023865772 -0.11050865 0.034864999 -0.090080567 -0.99584478 -0.013366243 0
-0.01708859 -0.11043551 0.034957252 0.12134 -0.9925335 -0.012407092 0
-0.042289741 -0.1020759 0.035264138 -0.66011691 -0.75114268 -0.0055086496 0
-0.035238001 -0.10629789 0.034822784 -0.27739051 -0.95820147 0.070032388 0
-0.025765801 -0.10854954 0.034904182 0.10453948 0.99436373 0.017672911 0
-0.014064925 -0.1083416 0.035110589 -0.11421327 0.99320453 0.022364367 0
-0.004994364 -0.10505314 0.035056513 -0.93751824 -0.27423215 0.21414077 0
0.0016324536 -0.10157046 0.035351031 0.68799919 -0.72562629 -0.011114908 0
-0.050765418 -0.091588631 0.034627322 -0.91660315 -0.39972705 -0.0075443657 0
-0.047033876 -0.095654659 0.035000153 0.83386564 0.55162781 0.01935792 0
-0.00011943548 -0.099862427 0.0309982 -0.72118098 0.69040585 0.056902416 0
0.0052043614 -0.095157504 0.034931269 0.81499505 0.49812454 0.29606587 0
-0.052086059 -0.084658846 0.035070606 -0.92931229 -0.36774433 0.033805307 0
-0.049681444 -0.089269355 0.034690712 0.91959679 0.39267245 0.012248087 0
0.0084776953 -0.08562839 0.034772921 -0.97439432 0.087908976 0.20694891 0
0.010937913 -0.08381819 0.035436697 0.98539376 -0.17020635 -0.0053858054 0
-0.052307706 -0.074984103 0.035030939 0.88759869 0.054920606 0.45733172 0
0.0079240883 -0.075137958 0.034650926 -0.92181349 -0.088261105 0.3774519 0
0.01123537 -0.075002551 0.035040889 0.99676114 0.07936845 -0.012955938 0
-0.051188841 -0.066777341 0.035057046 -0.92480201 0.38044873 0.0002286964 0
-0.048051246 -0.06315849 0.034579117 0.83916265 -0.49302438 0.22963685 0
-0.00096850732 -0.06051743 0.030832106 -0.53036994 -0.57588845 0.62214154 0
0.0064974376 -0.064604782 0.034770139 -0.38284066 -0.24654093 0.89030927 0
0.010280953 -0.069025956 0.035376836 0.96374089 0.26660156 -0.011271193 0
-0.043921299 -0.056296144 0.035128504 -0.78455782 0.54318839 0.29902411 0
-0.035861544 -0.053205036 0.034407545 0.3549549 -0.69887251 0.62095433 0
-0.026451686 -0.051503908 0.031003112 0.29472828 -0.54250604 0.78665268 0
-0.013889032 -0.052014749 0.031787682 -0.33422974 -0.62549943 0.70501143 0
-0.003980095 -0.053613 0.034563065 -0.27977523 -0.55917478 0.78041625 0
0.0027515553 -0.057288721 0.035320312 0.74039215 0.63721019 0.21396862 0
-0.033583529 -0.048408296 0.035546772 -0.38033867 0.92431253 0.031445161 0
-0.024977615 -0.047051296 0.035027791 0.10576385 0.43529493 0.89405382 0
-0.015450891 -0.04726566 0.035545494 0.037339035 0.8800897 0.47333694 0
-0.0075861099 -0.048740529 0.035060849 0.43255189 0.90158641 -0.0063916985 0
-0.024060747 -0.1106291 0.0448131 -0.096673392 -0.99523097 -0.013020709 0
-0.016870622 -0.11053185 0.045343976 0.13022409 -0.99140006 -0.01294289 0
-0.042357035 -0.10194492 0.045052391 -0.73446912 -0.67772681 -0.035236001 0
-0.035099987 -0.10631374 0.044858988 0.91017014 0.4142274 -0.0024602104 0
-0.025652263 -0.10865202 0.044852462 0.1099449 0.99385923 0.012486252 0
-0.014070241 -0.10843575 0.044961654 -0.15531525 0.98773122 0.016254757 0
-0.0047455849 -0.10509808 0.045070298 -0.83004183 0.54760522 0.10563678 0
0.0015922318 -0.10135047 0.045494702 0.70584637 -0.70834798 -0.0049079042 0
-0.050805189 -0.09162531 0.045024537 -0.8930369 -0.44986084 -0.010501895 0
-0.04705815 -0.095933519 0.045164932 0.79501516 0.60588205 0.029287396 0
0.0053558899 -0.09535443 0.045051746 0.97174114 0.19577739 0.13187264 0
-0.052162368 -0.084704846 0.044957567 -0.96000493 -0.27863026 -0.027491443 0
-0.049764328 -0.089410715 0.044578996 0.90149122 0.43239868 0.018572085 0
0.0087767486 -0.085624598 0.045016456 -0.97743422 0.21123141 0.0019158794 0
0.010949507 -0.084182091 0.045125186 0.9813807 -0.19114684 -0.01883374 0
-0.052654304 -0.075214781 0.044859223 0.96479237 0.044792891 0.25917026 0
0.0094797499 -0.074916154 0.044939879 -0.99324137 -0.11554372 0.011014793 0
0.01127252 -0.075235739 0.045062106 0.99463362 0.1029601 -0.010161751 0
-0.051308308 -0.066974953 0.045364093 -0.92665124 0.37589854 -0.0042060018 0
-0.048415679 -0.062830091 0.044904985 0.89294958 -0.44993296 0.014194929 0
0.0074101985 -0.06447877 0.045162469 -0.9315362 -0.36301664 0.021430211 0
0.010371494 -0.068842031 0.04575197 0.96218938 0.27202514 -0.013922594 0
-0.044045016 -0.056056704 0.045073289 -0.71287417 0.7012676 0.0058477088 0
-0.037402499 -0.051448144 0.044738781 0.47808871 -0.87828165 0.0072435346 0
-0.0033088997 -0.052169837 0.044815827 -0.50924945 -0.8593182 0.047300357 0
0.0027978751 -0.057149101 0.045071371 0.74938655 0.6617493 -0.022532817 0
-0.033199433 -0.048434049 0.04518126 -0.40667698 0.9135713 -0.0011574803 0
-0.025010919 -0.046746943 0.045048431 0.77059656 -0.62989062 0.097050764 0
-0.014956144 -0.047051262 0.045184519 -0.053250361 0.99480188 -0.086796381 0
-0.0074067102 -0.048815537 0.045085028 0.45975867 0.88795155 -0.012808565 0
-0.024153396 -0.11073381 0.055231787 -0.11218405 -0.99362475 -0.011157423 0
-0.016441457 -0.11060438 0.055385273 0.15590598 -0.98768687 -0.012960969 0
-0.04248368 -0.1020093 0.05532252 -0.71350092 -0.69979995 0.034589369 0
-0.035129093 -0.10652912 0.05503824 0.78827471 -0.61414933 0.037994709 0
-0.025648354 -0.10874512 0.055001065 0.09627261 0.9945786 0.039305162 0
-0.014163747 -0.10851766 0.055055495 -0.14432277 0.98929447 0.021619635 0
-0.0046372153 -0.10515933 0.054881036 -0.9252212 0.31545523 0.21084073 0
0.0016323698 -0.10153794 0.055171609 0.71677613 -0.6965819 -0.031711791 0
-0.050868303 -0.091859698 0.055318713 -0.88452858 -0.46614903 -0.01772676 0
-0.047129963 -0.095838629 0.054995388 0.83951849 0.54277426 0.024588926 0
0.0056586908 -0.095279597 0.054988895 0.99225092 0.12102194 -0.028139083 0
-0.052201468 -0.084811628 0.055097323 0.95586795 0.29198796 0.032549784 0
-0.049864646 -0.089647345 0.054408442 0.9062928 0.42214328 0.020699063 0
0.0090022841 -0.085594773 0.054921292 -0.9760555 0.21589635 0.026540756 0
0.011150219 -0.084295824 0.055032395 0.98038387 -0.19554387 -0.024696825 0
-0.05272004 -0.075053796 0.054981519 0.97926372 -0.20111749 0.024380621 0
0.0095688477 -0.074260391 0.055129196 -0.99111372 -0.13083972 0.023969509 0
0.011249214 -0.07534983 0.054681044 0.9924168 0.12111152 -0.020998348 0
-0.051341578 -0.06689325 0.054877073 -0.91066438 0.41314238 -0.0019476519 0
-0.048559777 -0.062765732 0.055014651 0.89414728 -0.44776949 -0.001778235 0
0.0073643434 -0.064259455 0.055042963 -0.90820163 -0.41850078 0.0051841103 0
0.010457546 -0.068694167 0.055311345 0.95398867 0.29945466 -0.015248859 0
-0.044023521 -0.055888757 0.054974325 -0.71823382 0.69578326 -0.0050916267 0
-0.037381701 -0.051373959 0.054856438 0.47586891 -0.87945455 0.010416567 0
-0.0030772055 -0.052138638 0.054858487 -0.55275023 -0.83334661 0.00075745251 0
0.0028662567 -0.056894369 0.055099804 0.74539804 0.66326559 -0.066787168 0
-0.03365678 -0.048506014 0.054919261 -0.41323438 0.91017973 -0.028463023 0
-0.025076717 -0.046630014 0.054899637 0.33066255 -0.92881846 0.16720806 0
-0.014988591 -0.04689255 0.054945648 -0.589221 0.74656069 0.30897531 0
-0.0074123638 -0.04883755 0.055227607 0.46657261 0.88447058 0.0046676598 0
-0.040573701 -0.11003031 0.066672854 -0.38187227 -0.89940774 0.21269542 0
-0.033663947 -0.11170949 0.067632958 -0.37677911 -0.92619228 -0.014332194 0
-0.024918389 -0.11204825 0.066410892 -0.086697675 -0.9954915 0.038472276 0
-0.015419779 -0.11204341 0.06662558 0.16228148 -0.98674452 0.00039422649 0
-0.0069218422 -0.11141512 0.06782072 0.41568643 -0.90453094 -0.095019512 0
-0.050352324 -0.10058532 0.067650907 -0.83993363 -0.53060704 0.11387596 0
-0.043764766 -0.10355061 0.066333227 -0.61043698 -0.75139898 0.25053209 0
-0.035317998 -0.10714473 0.065341614 0.4760806 0.7088595 0.52044737 0
-0.024854943 -0.10934375 0.064432167 0.052865423 0.99251354 0.1101004 0
-0.013777401 -0.10875303 0.064136349 -0.17903128 0.93645257 0.30166924 0
-0.0043507372 -0.10620483 0.065237828 -0.42351213 0.42324692 0.80093664 0
0.0028536604 -0.1027941 0.066452771 0.70355707 -0.7105822 0.0089686615 0
-0.052253809 -0.093611941 0.066879846 -0.89279109 -0.44536468 0.067633562 0
-0.047516249 -0.096156597 0.06483151 0.77781719 0.56517279 0.27491841 0
0.0064225649 -0.095632844 0.065209076 -0.63134444 0.64058781 0.4370943 0
0.011310382 -0.093004748 0.067632176 0.88003004 -0.40667978 -0.24527262 0
-0.053719498 -0.085002609 0.066169105 -0.73843205 -0.17463014 0.65132362 0
-0.049961161 -0.08986517 0.063994966 0.91087198 0.41230866 0.017711313 0
0.0092444811 -0.08550787 0.062853299 -0.97380382 0.18145442 0.13704143 0
0.012248565 -0.084704906 0.066234201 0.9456538 -0.28689179 0.15307531 0
-0.054252479 -0.075155988 0.065858178 -0.27765727 -0.10197939 0.95525211 0
0.0096753454 -0.074365146 0.063927062 -0.9908393 -0.1270677 0.045729931 0
0.012713011 -0.074976958 0.066437677 0.93324494 0.095702045 0.34625849 0
-0.052591346 -0.065907709 0.06626343 -0.88962257 0.43654099 0.1341778 0
-0.048561145 -0.062711835 0.06488926 0.86215901 -0.47716686 0.1702756 0
0.0078149792 -0.063958988 0.064856149 -0.78573751 -0.35490286 0.50661683 0
0.012022267 -0.066244625 0.067090645 0.93349236 0.35473305 -0.052502822 0
-0.051452789 -0.057897586 0.067908093 -0.81816036 0.53056794 0.22161087 0
-0.044846851 -0.055167262 0.065595523 -0.46993932 0.38462615 0.79449338 0
-0.037883818 -0.051409733 0.064174563 0.5147059 -0.8478471 0.127409 0
-0.0028264821 -0.051761407 0.064588048 -0.4822084 -0.82738835 0.28792962 0
0.0039740643 -0.055831872 0.065984279 0.64009118 0.55100667 0.5354203 0
0.010595743 -0.059231773 0.067185789 0.81352383 0.52677506 -0.24634743 0
-0.042115793 -0.048370462 0.067551032 -0.56113273 0.8266148 -0.042871892 0
-0.034133732 -0.047086466 0.066110037 -0.34314129 0.78863811 0.51019996 0
-0.024872132 -0.045179363 0.065906063 0.2739014 -0.020550949 0.9615382 0
-0.015010371 -0.045521464 0.065807305 -0.38829139 -0.51410508 0.76480442 0
-0.0059497594 -0.047524814 0.066362098 0.46404499 0.8856191 0.01846751 0
0.0011496868 -0.049168326 0.067745663 0.59191364 0.8058598 0.015105994 0
