# .PCD v0.7 - Point Cloud Data file format
VERSION 0.7
FIELDS x y z normal_x normal_y normal_z curvature
SIZE 4 4 4 4 4 4 4
TYPE F F F F F F F
COUNT 1 1 1 1 1 1 1
WIDTH 195
HEIGHT 1
VIEWPOINT 0 0 0 1 0 0 0
POINTS 195
DATA ascii
0.0035806461 -0.072725371 -3.9179831e-05 0.32517132 0.12804598 -0.93694603 0
-0.022658559 -0.068420634 -9.3197168e-06 -0.056249116 0.097226076 -0.99367154 0
-0.015889013 -0.065074682 -2.8666775e-05 -0.12470574 0.26318282 -0.9566521 0
0.0018178783 -0.068379357 -2.0196827e-05 -0.41560274 -0.14484134 -0.8979395 0
-0.032489248 -0.035450384 -9.2570599e-06 0.12746458 -0.15353973 -0.97988695 0
-0.052628964 -0.02256155 -3.0070964e-07 -0.74342978 -0.30845025 -0.5934397 0
-0.055035774 -0.016841158 -3.4262404e-05 0.045047395 -0.027872698 -0.99859589 0
-0.024954442 -0.010761434 -6.2656887e-05 -0.073104464 -0.083690993 -0.9938066 0
-0.026784172 -0.0080852415 -7.5437034e-05 0.087809891 0.031357292 -0.99564356 0
-0.021028651 -0.092296809 0.0049296971 -0.90452838 -0.41600063 -0.093657881 0
-0.015796466 -0.095843866 0.0048642354 0.40376371 0.031765182 -0.91431165 0
-0.0051569524 -0.093021981 0.004792871 0.09114752 -0.26656583 -0.95949715 0
0.0016367668 -0.090831891 0.0043695327 0.4262501 -0.90452456 -0.012093675 0
-0.023585003 -0.085034035 0.0047002616 -0.11347894 -0.030567927 -0.99307007 0
-0.013519404 -0.083035268 0.006316477 -0.18714586 -0.59299773 -0.78315395 0
-0.0058585727 -0.083480835 0.0062952787 -0.25936535 0.76697272 -0.58692616 0
0.006342344 -0.085719787 0.0046035289 -0.23830384 0.12731263 -0.96280986 0
0.01049434 -0.085889503 0.0060398178 0.98935992 0.1197538 -0.08261966 0
-0.030287459 -0.07231497 0.0060884627 -0.99889255 -0.024785621 -0.039993372 0
-0.026891438 -0.074576795 0.0047967234 0.39086902 -0.52069825 -0.75900906 0
-0.013670351 -0.075902745 0.0060308846 -0.0023882801 0.34670949 -0.93796957 0
-0.0055974657 -0.075791985 0.006226873 0.23493588 0.1149614 -0.96518856 0
0.0046272208 -0.074901789 0.0050399275 0.20640232 0.1569231 -0.96580184 0
-0.022989098 -0.068343192 0.0047958107 -0.37087667 0.89543313 -0.24627195 0
-0.0148411 -0.064939715 0.0048304829 0.14042374 -0.35035071 -0.92603219 0
-0.0044835033 -0.062695421 0.004778245 -0.33837521 -0.73523051 -0.58731449 0
0.0014181965 -0.066662021 0.0049351095 0.89878565 0.38776004 -0.20451523 0
-0.0033156499 -0.05906494 0.0049842214 0.018358044 0.99251562 -0.12073019 0
-0.043335065 -0.040934596 0.0049766432 -0.034074992 -0.99088842 -0.13030332 0
-0.050144423 -0.030361282 0.0054343664 -0.90609628 -0.42285749 -0.013456756 0
-0.04576901 -0.035638578 0.0045026597 -0.37141579 0.6350292 -0.67733908 0
-0.035106491 -0.036602609 0.0048945439 0.14616077 0.058510408 -0.98752898 0
-0.025801966 -0.032489706 0.0048494441 0.2340498 -0.82841569 -0.50886947 0
-0.019434474 -0.030259172 0.0057307882 0.44979224 -0.89075917 -0.065077916 0
-0.052100968 -0.024140799 0.0047850255 -0.81406474 -0.44771788 -0.36992869 0
-0.044327803 -0.024699222 0.0061552105 0.67580593 0.21270137 -0.70572263 0
-0.034553979 -0.024830025 0.005933383 0.27257434 -0.30722749 -0.9117645 0
-0.022184061 -0.025169495 0.0055984422 -0.87842923 0.2751362 -0.39072004 0
-0.018095624 -0.025799641 0.0041626594 0.94149846 0.08481466 -0.32617041 0
-0.054103184 -0.01502251 0.0046029594 -0.5333603 0.16218677 -0.83019406 0
-0.044632293 -0.014638349 0.0062047765 0.40548506 -0.78474718 -0.46877888 0
-0.03491025 -0.016452285 0.0062471405 0.055353779 0.30464274 -0.95085686 0
-0.02344756 -0.014991733 0.004781344 0.18069197 -0.052166656 -0.98215532 0
-0.019890765 -0.019775707 0.0059949164 0.90420562 0.42707747 -0.0041197478 0
-0.050114844 -0.0099416925 0.0042610634 -0.43282795 0.90142787 0.009366123 0
-0.04399956 -0.0080731306 0.0044349646 -0.35486716 0.8157174 -0.45680901 0
-0.034928631 -0.0042438195 0.005146096 -0.032324869 0.077381559 -0.99647748 0
-0.027481845 -0.0059756525 0.0047407798 0.58104032 0.56553209 -0.58529109 0
-0.021121571 -0.09251859 0.014923207 -0.90958947 -0.41550007 -0.0025794657 0
-0.015141756 -0.095213354 0.014105811 0.19059545 -0.98137861 -0.023863474 0
-0.0058421278 -0.092086233 0.014182044 0.41726315 -0.89357793 0.16555959 0
0.00076858036 -0.090319157 0.011495718 0.40811551 -0.88505763 0.22386302 0
-0.024013624 -0.084631041 0.014069483 -0.8914271 -0.40714353 -0.19897704 0
-0.01460375 -0.084795102 0.012495179 0.15100133 -0.076966487 -0.98553276 0
-0.0045017852 -0.085447267 0.013261775 -0.10263843 -0.016994584 -0.99457353 0
0.0054317089 -0.085083112 0.014032311 0.70566988 -0.70128334 -0.10115159 0
0.010398089 -0.084909908 0.012310412 0.99452102 -0.018157814 0.10294782 0
-0.030476738 -0.071789891 0.015337605 -0.99076116 -0.09331201 -0.09841311 0
-0.026036819 -0.074999049 0.013486577 -0.61428636 -0.34447372 -0.70992261 0
-0.01485521 -0.07551267 0.011857872 0.061723899 -0.070153244 -0.99562472 0
-0.0052762884 -0.075253747 0.011704525 -0.13635118 -0.18008639 -0.97415465 0
0.0048652692 -0.074995659 0.014158491 0.86843717 0.42897183 -0.24859622 0
-0.03293379 -0.065664105 0.019313704 0.054853868 0.17235355 -0.98350662 0
-0.024055919 -0.068139203 0.015219158 -0.40283427 0.91480637 -0.029220579 0
-0.014754601 -0.065099016 0.013762072 -0.40604514 0.83859712 -0.36315593 0
-0.0050950404 -0.064173535 0.012903932 0.056928571 0.47250882 -0.87948537 0
0.0018613866 -0.066615753 0.014754683 0.90822923 0.41808164 -0.018095434 0
-0.040145993 -0.050255805 0.019299641 -0.85816836 -0.41509116 -0.30207011 0
-0.037926447 -0.054582436 0.019474607 -0.0019284937 -0.066194065 -0.997805 0
-0.0038716674 -0.056402978 0.016307255 -0.011811187 0.95147604 -0.30749598 0
-0.043021824 -0.042623874 0.016347338 -0.068091854 -0.9724822 -0.22280481 0
-0.039784268 -0.042032212 0.016823089 0.62761134 -0.76113284 -0.16364825 0
-0.010837026 -0.041440547 0.019370317 -0.33883956 -0.11789457 -0.93342853 0
-0.0080404785 -0.046320014 0.019317105 0.20244156 0.11304116 -0.97274822 0
-0.050152346 -0.030251674 0.015811952 -0.90614235 -0.42293802 0.0054345857 0
-0.046223126 -0.03466462 0.013856275 -0.87256151 -0.22609633 -0.4330321 0
-0.034995031 -0.03592724 0.013818273 0.38351232 -0.78759021 -0.48230678 0
-0.025483232 -0.032863684 0.01451294 0.39896142 -0.90808284 -0.12733971 0
-0.015056094 -0.033456016 0.017848402 0.3799032 -0.75696278 -0.53167742 0
-0.05243551 -0.024711518 0.014434979 -0.89468455 -0.44526023 -0.035818662 0
-0.044822458 -0.024976008 0.012039183 0.14164209 -0.060457025 -0.98807007 0
-0.035553955 -0.025036775 0.012271954 -0.23527493 0.15954666 -0.95874429 0
-0.025767984 -0.024695192 0.011566634 -0.098624691 -0.025078917 -0.99480861 0
-0.017475497 -0.025674023 0.01515423 0.98444563 0.17387837 -0.02516355 0
-0.053851247 -0.015432408 0.014172202 -0.77556378 0.61479551 0.14327377 0
-0.045533244 -0.014024676 0.013507651 -0.078898497 0.49253109 -0.86671108 0
-0.035515841 -0.014909019 0.012110111 -0.12139485 0.036279101 -0.99194109 0
-0.024102533 -0.014881498 0.013554326 0.79177898 0.38992101 -0.47015706 0
-0.019860972 -0.019727016 0.014091764 0.90582234 0.42360514 -0.00667828 0
-0.042673253 -0.0086347116 0.01387706 -0.42941612 0.86431229 0.2618514 0
-0.034836192 -0.0058104931 0.013861468 -0.48314798 0.87509376 -0.027910214 0
-0.027080448 -0.0057021379 0.01472667 0.79321724 0.60886288 0.009612726 0
-0.021191508 -0.09210258 0.024946703 -0.85190994 -0.51638842 0.087134995 0
-0.015598427 -0.092836305 0.024284653 0.32442856 -0.82483971 0.46301794 0
-0.0081262058 -0.090745173 0.021808889 0.39301422 -0.83136302 0.39290634 0
-0.024570573 -0.084995188 0.025044251 -0.90634811 -0.42247778 0.0067478935 0
-0.012466089 -0.088886283 0.028325474 0.35980427 -0.76505142 0.53407615 0
-0.0044071493 -0.086757846 0.025680261 0.37094215 -0.79317886 0.48297974 0
0.0047747265 -0.083049178 0.024425205 0.4935275 -0.74047607 0.45620796 0
-0.030806739 -0.071605504 0.024566444 -0.90590233 -0.42344937 0.0056190938 0
-0.0285055 -0.076520234 0.024774347 -0.90708572 -0.42088348 0.0072538676 0
0.0058890022 -0.075039141 0.025067866 0.92584693 0.37605393 0.037296053 0
-0.03296937 -0.06456925 0.024548696 -0.81111753 -0.38425779 -0.44094703 0
-0.025025528 -0.066085897 0.025789037 -0.09009397 0.81827265 -0.56772602 0
-0.015343768 -0.063065507 0.025586784 -0.50817478 0.79840887 -0.32295749 0
-0.0027570629 -0.060936633 0.023876445 0.75085771 0.65635061 -0.073597729 0
0.0017864425 -0.066013344 0.025000256 0.906609 0.42193928 -0.0052269511 0
-0.040422969 -0.050765108 0.025485445 -0.90583628 -0.42302045 -0.022678901 0
-0.03601826 -0.055004057 0.025211787 -0.013637091 -0.018265083 -0.99974018 0
-0.025227794 -0.054605067 0.025986103 -0.17600867 -0.052914448 -0.98296541 0
-0.015907425 -0.05450657 0.026709082 0.05873657 -0.078836694 -0.99515569 0
-0.0055050063 -0.055326819 0.025267374 0.18117316 0.75201094 -0.63376319 0
-0.042228494 -0.044313997 0.024710095 -0.62996221 -0.75888616 -0.16504373 0
-0.036867123 -0.045263343 0.026780831 0.58332193 -0.081473634 -0.80814457 0
-0.025304506 -0.045735553 0.026028851 -0.36401495 0.18920206 -0.91197354 0
-0.014783107 -0.044954728 0.026239734 -0.29213768 0.014887333 -0.95626038 0
-0.0082593635 -0.046097759 0.024922103 0.87876195 0.46045151 -0.12554622 0
-0.05012976 -0.030159859 0.024558574 -0.90604126 -0.42312622 0.0072977566 0
-0.047729794 -0.035300054 0.024928337 -0.90628242 -0.42261586 0.0069205505 0
-0.034778398 -0.037968736 0.024661317 0.53773326 -0.83920449 -0.081108935 0
-0.024441056 -0.033969983 0.025134137 0.26829261 -0.95051783 -0.15663663 0
-0.014652587 -0.035043113 0.025202725 0.49648058 -0.47613627 -0.72581071 0
-0.052540313 -0.02483651 0.025220053 -0.92858541 -0.36858538 0.043289337 0
-0.017336115 -0.025052557 0.025097243 0.90853727 0.41777539 -0.0048741484 0
-0.05286425 -0.017504763 0.023850229 -0.58482218 0.68279725 0.43791667 0
-0.045205805 -0.014444586 0.025340907 -0.36777854 0.80184317 0.47094223 0
-0.036322795 -0.011639996 0.027438356 -0.35346025 0.77860796 0.51849347 0
-0.022245996 -0.014556251 0.025039673 0.90396202 0.42761201 0.00083093584 0
-0.019815035 -0.019701144 0.024792075 0.90632969 0.42256173 -0.0028540508 0
-0.040640857 -0.0097138975 0.020587562 -0.3842825 0.84724188 0.36675358 0
-0.033831868 -0.0080312025 0.023398764 -0.3746579 0.81852186 0.43549228 0
-0.026814476 -0.0071157515 0.024814861 0.40442154 0.84808946 0.34232658 0
-0.021342596 -0.09060397 0.030755259 -0.23256621 -0.83529788 0.49818704 0
-0.019591225 -0.090339571 0.030476384 0.30854481 -0.73853332 0.5994736 0
-0.023637833 -0.084592447 0.034799885 -0.64058656 -0.57934195 0.50399578 0
-0.015307629 -0.084585473 0.034770969 0.28707978 -0.65111417 0.70259207 0
-0.0059266109 -0.082321711 0.03267736 0.33619675 -0.70506066 0.62438869 0
0.0014454447 -0.080538452 0.030684106 0.34131426 -0.70812106 0.61811751 0
-0.030662464 -0.071614742 0.034121703 -0.90404409 -0.4228726 0.062314413 0
-0.026126422 -0.075657763 0.036741659 -0.70282185 -0.36277482 0.61191159 0
-0.014758935 -0.075066857 0.038795695 0.14250793 -0.049293023 0.98856544 0
-0.004874683 -0.075291865 0.037483711 0.2038004 -0.4828425 0.85166222 0
0.003654893 -0.07460507 0.033950843 0.74342912 -0.24599884 0.6219306 0
-0.033266529 -0.06460008 0.035281699 -0.87270242 -0.3919175 0.29118916 0
-0.024376944 -0.064861834 0.037086628 0.077680223 0.033901699 0.99640173 0
-0.014864572 -0.065174609 0.038649697 -0.028911008 -0.0073231487 0.99955517 0
-0.0043229568 -0.064270481 0.038070466 0.35581255 0.24329695 0.90233254 0
0.0016679224 -0.066342987 0.034268688 0.89275771 0.40759277 0.19196802 0
-0.040419936 -0.050816149 0.033223834 -0.90558416 -0.42376935 0.018353993 0
-0.035761803 -0.055229802 0.036380243 -0.62778586 -0.31244078 0.71292758 0
-0.025118392 -0.054423533 0.037159219 0.039895523 0.21107993 0.97665429 0
-0.014853917 -0.055095766 0.039046172 -0.1687312 -0.031488322 0.98515898 0
-0.0050760936 -0.055192627 0.035711925 0.78874594 0.34056744 0.51175553 0
-0.042650804 -0.044628508 0.034662802 -0.8642565 -0.41502997 0.2842724 0
-0.034740482 -0.044377834 0.036012214 0.16826785 0.5290494 0.83174068 0
-0.025274271 -0.044756796 0.036502119 -0.099021219 -0.019517029 0.99489391 0
-0.014694404 -0.044709273 0.038194127 0.14575934 0.11453022 0.98266834 0
-0.0080031594 -0.04581666 0.034496818 0.88689476 0.40877607 0.21522057 0
-0.050043743 -0.030212065 0.032508254 -0.90632868 -0.42251635 0.0069492087 0
-0.045753542 -0.034758788 0.036209133 -0.77807111 -0.34997287 0.52165526 0
-0.034469768 -0.035575695 0.037019875 0.17840995 -0.22242132 0.95848757 0
-0.025010753 -0.035881016 0.03547534 -0.11565354 -0.088913746 0.9893021 0
-0.014779487 -0.035588615 0.035449646 0.79401225 0.41379482 0.4453297 0
-0.051506303 -0.025672356 0.033082776 -0.93829709 -0.052734114 0.34178591 0
-0.04492414 -0.024591913 0.036590129 -0.26982051 0.47372243 0.83832204 0
-0.035070553 -0.025095453 0.038196292 -0.080279239 0.15287398 0.98497963 0
-0.025165619 -0.025033073 0.038837176 0.12729068 -0.032715317 0.99132574 0
-0.017622815 -0.025314363 0.03489697 0.85736424 0.4032886 0.31981996 0
-0.050351564 -0.019974712 0.030251216 -0.33640066 0.72870934 0.59650433 0
-0.04378476 -0.018304501 0.031892527 -0.33210206 0.72485131 0.60357165 0
-0.034724858 -0.016043983 0.033877376 -0.30196503 0.67698741 0.67119688 0
-0.024587641 -0.015054385 0.034641083 0.37104207 0.6694296 0.6435774 0
-0.019833004 -0.019641219 0.033834815 0.90219092 0.43013659 0.032155611 0
-0.025690202 -0.0095705511 0.030882271 -0.073771603 0.83710033 0.54205245 0
-0.022563946 -0.074725397 0.040688921 -0.092163339 -0.055175684 0.99421406 0
-0.01792744 -0.075007096 0.040716808 0.068314038 -0.058499444 0.9959473 0
-0.0059695025 -0.071189195 0.040967423 -0.056191698 -0.2933746 0.95434475 0
-0.030871687 -0.061589085 0.040867534 -0.53023279 -0.30385986 0.79153162 0
-0.026477199 -0.06324932 0.040393516 0.10760973 -0.031698029 0.99368769 0
-0.010175888 -0.066897668 0.040634405 -0.93731153 0.10828333 0.33124298 0
-0.0056527667 -0.06695094 0.040775307 0.080380857 0.18411981 0.97961164 0
-0.031349115 -0.057426117 0.0407978 0.062790945 0.2251002 0.97231025 0
-0.026477732 -0.057773583 0.040702913 0.025978155 -0.20996518 0.97736371 0
-0.013545531 -0.053359129 0.040619072 -0.047209527 -0.050871219 0.99758875 0
-0.009328587 -0.053209409 0.040746842 -0.11791091 0.043374497 0.99207646 0
-0.034023222 -0.045863573 0.040740341 -0.084032543 -0.13761105 0.98691529 0
-0.02371984 -0.042828579 0.040667776 0.36759734 -0.25515553 0.89429736 0
-0.016985033 -0.043533728 0.04042336 -0.0627582 0.18189996 0.98131227 0
-0.042581882 -0.033233467 0.040865112 -0.26592556 -0.022562178 0.96372944 0
-0.038101576 -0.032857593 0.040804453 0.3557345 -0.011519577 0.93451613 0
-0.022087537 -0.037699614 0.041001 0.10904925 0.2204449 0.96928447 0
-0.017143147 -0.037225015 0.040907685 0.16618893 0.038700849 0.98533422 0
-0.042271014 -0.028732635 0.040489189 0.025505358 0.1543517 0.98768669 0
-0.036077548 -0.027776683 0.040432055 -0.27413622 0.25402349 0.92753506 0
-0.026403258 -0.025507864 0.040710907 0.32986888 0.21067785 0.92021805 0
