# .PCD v0.7 - Point Cloud Data file format
VERSION 0.7
FIELDS x y z normal_x normal_y normal_z curvature
SIZE 4 4 4 4 4 4 4
TYPE F F F F F F F
COUNT 1 1 1 1 1 1 1
WIDTH 311
HEIGHT 1
VIEWPOINT 0 0 0 1 0 0 0
POINTS 311
DATA ascii
-0.061400916 0.017048845 -4.70472e-05 -0.9122923 -0.36456758 -0.18658325 0
-0.0040998547 0.02673699 -4.474289e-05 0.88743281 0.06571807 -0.45622823 0
-0.052645601 0.049235426 -2.2161279e-05 0.23093763 -0.40577707 -0.88431489 0
-0.014764516 0.049523912 -8.0687802e-05 0.65694177 0.65001208 -0.38198417 0
-0.021495432 0.054625135 -0.00011308547 0.25675106 0.81393802 -0.52113694 0
-0.017815862 0.052548237 -0.00015253032 0.41134953 0.37381473 -0.83129668 0
-0.052058566 -0.0016782985 0.007994391 -0.551709 -0.69270968 -0.46451098 0
-0.044478714 -0.002714168 0.0053172912 -0.44655862 -0.64024258 -0.62503976 0
-0.035050053 -0.0039415578 0.0054574767 0.086375073 -0.18768001 -0.97842509 0
-0.02492708 -0.0036024302 0.0054790457 0.34840733 -0.75141263 -0.56034952 0
-0.016762283 -0.001938459 0.0069040824 0.48882976 -0.77894586 -0.39279613 0
-0.061244339 0.007474992 0.0078653386 -0.78488821 -0.4390434 -0.43725437 0
-0.054431677 0.0053397869 0.0053752097 0.043566231 -0.26468363 -0.96335077 0
-0.045353256 0.0045196223 0.0062697227 0.23412658 0.9337315 -0.27079579 0
-0.035165723 0.0050713094 0.0067791617 0.84080553 0.2734772 -0.46717918 0
-0.024990654 0.0051094699 0.0064968341 -0.90400404 0.40731633 0.12988484 0
-0.014571669 0.0043348228 0.0052823466 -0.67166531 0.69191861 -0.26479122 0
-0.0075772931 0.0068055466 0.0065614209 0.71608448 -0.58632892 -0.37873659 0
-0.062703572 0.015901648 0.0049883449 -0.77338952 -0.29352835 -0.56188059 0
-0.055710446 0.01467057 0.0061124964 0.96329355 0.25252223 -0.091093794 0
-0.044964507 0.015189934 0.0066505875 -0.40090623 -0.0070090373 -0.91609228 0
-0.034952201 0.015061052 0.0064490777 -0.15234926 -0.98767066 -0.036005378 0
-0.025291974 0.015141924 0.006431384 0.0038221106 -0.68457127 0.7289359 0
-0.015005965 0.01512771 0.0065875407 -0.05592908 0.45296639 0.88977152 0
-0.0053203874 0.015220278 0.0054567764 0.47571054 0.34576228 -0.80879402 0
0.00057830609 0.018455826 0.0082892207 0.97282159 -0.17728059 -0.14896226 0
-0.063787058 0.024912985 0.0048223836 -0.48817968 -0.0018895096 -0.87274104 0
-0.054438181 0.024826514 0.0071714912 0.49023187 -0.31105149 -0.81419885 0
-0.045072652 0.025118239 0.0065995646 -0.15781903 -0.20212506 0.96656018 0
-0.034943331 0.024805006 0.006436435 -0.35775658 -0.022140518 0.93355244 0
-0.025080483 0.024972931 0.0064111087 0.240604 0.044168297 0.9696179 0
-0.015298453 0.025012467 0.0065213689 0.89875537 -0.43818092 -0.015371688 0
-0.0047487882 0.024911052 0.0051250318 -0.33329275 -0.060020745 -0.94091105 0
0.00087290129 0.025205534 0.00786281 0.96132511 -0.062611453 -0.26820478 0
-0.062860347 0.034740083 0.0049408157 -0.69578999 0.22799893 -0.68109667 0
-0.05503194 0.035594113 0.0063044932 0.66737187 -0.019006567 -0.74448204 0
-0.045061599 0.0349757 0.0064363158 -0.23614816 0.052899122 -0.97027612 0
-0.034908276 0.035156678 0.0063960678 0.073138207 0.10833734 -0.99142015 0
-0.025068063 0.035068519 0.0065513309 0.35534883 0.48564565 0.79867113 0
-0.015001419 0.035036072 0.0067393552 0.27843133 0.048939601 0.95920849 0
-0.0047920546 0.035136286 0.0053857137 -0.41907874 0.10936957 -0.90133864 0
0.0006658191 0.032036237 0.0077726436 0.93680793 0.279026 -0.21103422 0
-0.061701842 0.043012325 0.0074290922 -0.78012836 0.41446075 -0.46863836 0
-0.054922175 0.045240626 0.0049795955 0.51412714 -0.18355615 -0.83784276 0
-0.045069814 0.045048151 0.0064683729 -0.19792046 0.48967052 0.84914684 0
-0.0348727 0.045046046 0.0064942925 0.49105826 0.86839736 -0.068903327 0
-0.025033204 0.044991784 0.0066911923 0.023680177 0.083763808 0.9962042 0
-0.01456084 0.045598127 0.0056749331 -0.4120034 -0.85761458 0.30781543 0
-0.0068486095 0.043756742 0.006230976 0.6249451 0.43747801 -0.64657295 0
-0.052699402 0.052035447 0.0068810689 -0.47135058 0.75402385 -0.45746771 0
-0.044883911 0.053992372 0.0056418269 -0.21754235 0.47464782 -0.85286856 0
-0.03488858 0.054934286 0.0056936233 -0.10529456 -0.13282998 -0.9855299 0
-0.024910165 0.055063561 0.0054247514 -0.30012554 0.066576526 -0.95157349 0
-0.016009212 0.053062782 0.0058163381 0.55443603 0.74951226 -0.36170715 0
-0.0094240364 0.050778791 0.0087280255 0.69917047 0.69812715 -0.15420479 0
-0.033871923 0.060321573 0.0083802901 -0.075855613 0.98798436 -0.13465813 0
-0.028818032 0.060281176 0.0080195926 0.14276762 0.9783811 -0.14962555 0
-0.052285999 -0.0016359224 0.015300248 -0.66988415 -0.74243581 0.0066589559 0
-0.04487234 -0.0038780153 0.01498416 -0.85969722 0.088268965 0.50311953 0
-0.035057541 -0.0053110668 0.014829979 0.63797635 0.58731228 0.49804661 0
-0.024925098 -0.0058350265 0.014963422 0.97584403 -0.21765959 0.018782755 0
-0.015954213 -0.0027034194 0.014893169 0.40124902 -0.91452873 -0.05134654 0
-0.061784599 0.0072052241 0.015028151 -0.84821624 -0.52948523 -0.013214707 0
-0.055609796 0.0038004001 0.014752997 0.90068251 -0.098355263 -0.42319885 0
-0.013166924 0.0036625054 0.015027915 -0.68637764 0.63962805 -0.34606594 0
-0.0065243612 0.0060949554 0.014695876 0.78665447 -0.55870974 -0.26271307 0
-0.065366074 0.014731452 0.014879913 -0.94116718 -0.3372618 -0.021419406 0
-0.055651281 0.01513722 0.014920399 0.91736227 0.015561311 -0.39774904 0
-0.0029197412 0.014066539 0.01516768 -0.74919432 0.59420657 -0.29262009 0
0.00058357324 0.018110761 0.014512376 0.96941239 -0.24521279 -0.010501018 0
-0.067414708 0.024825623 0.015047022 -0.99893284 -0.043712351 -0.014916364 0
-0.055006489 0.024751341 0.014695007 0.99172032 -0.11889388 -0.048528537 0
-0.0014268432 0.024911398 0.015052111 -0.99469328 0.051930919 0.088816881 0
0.0012367315 0.025252886 0.01515247 0.99926555 -0.026718013 -0.027468378 0
-0.066267431 0.034809407 0.015138091 -0.96528107 0.26102051 -0.010033906 0
-0.055194277 0.035108369 0.015039838 0.99414718 0.10678303 0.016392503 0
-0.0019025241 0.035710726 0.015137779 -0.96792221 -0.24758305 -0.042769898 0
0.00075141247 0.032591797 0.014471647 0.9738971 0.22657692 -0.013686385 0
-0.062311593 0.044168014 0.015040418 -0.85874367 0.51151395 -0.030211391 0
-0.056496918 0.046015128 0.014884359 0.97740459 0.088609293 -0.19190785 0
-0.010500447 0.049520373 0.014960477 -0.67169583 -0.74051619 0.021459116 0
-0.0055398694 0.044839546 0.015004565 -0.72335255 -0.43943053 -0.53259915 0
-0.05356108 0.052824274 0.014957387 -0.57794058 0.8149209 -0.043458123 0
-0.045167509 0.057213943 0.014901461 -0.38987386 0.92077273 -0.013263539 0
-0.035231162 0.05824957 0.014711197 0.07665474 -0.99647081 0.034206308 0
-0.024085805 0.058023844 0.014892809 -0.21290547 -0.97664869 -0.028785303 0
-0.015186847 0.054293357 0.015064153 0.092233114 0.94707322 0.30748233 0
-0.0091109294 0.05098005 0.014806632 0.70171511 0.71206969 -0.023510372 0
-0.034512814 0.060462024 0.015100179 -0.056321617 0.99815768 -0.022562174 0
-0.028202325 0.060326215 0.014883864 0.15949042 0.98705214 -0.017056873 0
-0.052334789 -0.0019538684 0.025129545 -0.57223547 -0.8200298 -0.0098845111 0
-0.045063298 -0.0049393154 0.024977474 0.3091419 0.91148257 0.27135009 0
-0.035096355 -0.007063848 0.025007375 0.19683847 -0.39190546 0.89870173 0
-0.025022766 -0.0063908095 0.025278537 0.14949776 -0.98559481 0.07907699 0
-0.016184196 -0.0030506419 0.025259368 0.30074197 -0.95172161 -0.061484635 0
-0.06182579 0.0070280223 0.025551826 -0.8378861 -0.54572976 -0.011222892 0
-0.05528345 0.0038607083 0.025082298 0.92201829 -0.37973636 0.075382553 0
-0.014143881 0.0048797103 0.025113463 -0.80297279 0.59600991 -0.0026005642 0
-0.0062482385 0.0057919812 0.025194369 0.84185559 -0.53961605 -0.0096842786 0
-0.065585449 0.014961172 0.024607604 -0.94250256 -0.33383399 -0.015615207 0
-0.05470309 0.014912628 0.025090083 0.98030883 0.14157194 0.13766602 0
-0.0029409737 0.013785323 0.025118606 -0.60303587 0.77271849 0.19812597 0
0.00057452772 0.017741473 0.0251501 0.96225595 -0.27201527 -0.0084372209 0
-0.067548625 0.024984285 0.02499776 -0.99935263 -0.03408619 -0.011508901 0
-0.055800784 0.025077499 0.02496843 0.9782539 0.089725927 0.1869991 0
-0.0010214846 0.025005409 0.025000446 -0.99971575 0.023501176 0.004033803 0
0.0014100899 0.024755841 0.02491419 0.99947983 -0.027487705 -0.01686864 0
-0.066265821 0.035229482 0.025262712 -0.96326983 0.26811531 -0.01501435 0
-0.055668402 0.034932058 0.025124041 0.98128957 -0.13274604 0.13946061 0
-0.0015774554 0.035831813 0.025175015 -0.96313071 -0.25768635 0.077311039 0
0.00074086874 0.033063974 0.024531901 0.97970682 0.19988541 -0.014844589 0
-0.062498044 0.044183087 0.025035361 -0.85883808 0.51207411 -0.013315094 0
-0.056021981 0.045995355 0.025109578 0.96886748 0.24722345 -0.013279593 0
-0.010477001 0.049615212 0.025867557 -0.71003318 -0.70414239 -0.006027509 0
-0.0052142739 0.044746753 0.024972465 0.57516313 0.50241441 0.64557505 0
-0.053823259 0.052806586 0.025046414 -0.59155613 0.80602008 -0.019821344 0
-0.045194995 0.057243396 0.025080515 0.3554301 -0.9322893 0.067127541 0
-0.034505051 0.05865955 0.025283979 0.060941096 -0.99725121 0.042146258 0
-0.023860678 0.058172598 0.025021506 -0.19476335 -0.97907013 0.059068263 0
-0.014899504 0.054353062 0.024781359 0.26504451 0.96021277 0.08799424 0
-0.0088996561 0.050994519 0.024871256 0.7045036 0.70951509 -0.016217455 0
-0.04058253 0.060050827 0.026192529 -0.1683691 0.9855265 -0.019734301 0
-0.035235934 0.060623378 0.024822632 -0.0667862 0.9975453 -0.021047331 0
-0.027643148 0.060401257 0.025245341 0.15856174 0.98723167 -0.015225212 0
-0.052627318 -0.0018499497 0.035374664 -0.58297658 -0.81244797 -0.0081665125 0
-0.045097645 -0.0052974834 0.034931045 0.81256324 0.56555545 0.14102446 0
-0.035294201 -0.0075746034 0.034946363 -0.78205222 -0.61019045 0.12673625 0
-0.024919357 -0.0065831332 0.034938525 -0.18020758 -0.96421963 0.19443713 0
-0.01579055 -0.0030063794 0.035246294 0.35738122 -0.93253756 0.051500332 0
-0.0099287247 -4.2813117e-05 0.038964558 0.69926894 -0.71473843 -0.013114806 0
-0.061882254 0.0069299964 0.034850869 -0.84068888 -0.54133135 -0.014230715 0
-0.056138124 0.0036244544 0.034793466 0.91414976 -0.19337045 0.35628358 0
-0.013666322 0.0041243904 0.035084527 -0.76130986 0.61092812 0.21719606 0
-0.0063793524 0.0058970456 0.035420429 0.91737002 -0.37960854 0.11970658 0
-0.064788438 0.015692614 0.035857789 -0.92622793 -0.24199808 0.28903058 0
-0.057333745 0.01445486 0.034776405 0.82512951 0.30370939 0.47636315 0
-0.0021172846 0.013903396 0.035045452 -0.86555624 0.49263158 0.090146773 0
0.00066384737 0.017748434 0.034832016 0.96344483 -0.26738316 -0.016743615 0
-0.065670542 0.025297051 0.035799142 -0.57635349 0.1658446 0.8001951 0
-0.058169652 0.024355758 0.032450069 0.79533499 0.13540597 0.59085321 0
-0.00045669655 0.024783507 0.03461371 -0.9946478 0.034132343 0.097522989 0
0.0014292286 0.025087025 0.035344597 0.9995929 -0.025600227 -0.01259583 0
-0.064944968 0.034713611 0.035856824 -0.77278584 0.027769677 0.63405901 0
-0.057791445 0.035729282 0.033226393 0.83047146 -0.30219159 0.46797168 0
-0.0013285064 0.036082707 0.034813236 -0.95329916 -0.29763356 0.05133184 0
0.00090437161 0.033211026 0.035312731 0.97648305 0.21478021 -0.018716214 0
-0.062633164 0.044006843 0.035065312 -0.86676252 0.49870276 0.0042763134 0
-0.056668159 0.045697585 0.035259884 0.95133823 -0.083285324 0.29668009 0
-0.010357969 0.049605645 0.034737714 -0.71029073 -0.70321012 0.031348322 0
-0.0052416343 0.045087852 0.034771405 0.69016242 -0.70084196 -0.18026771 0
-0.053914592 0.052991375 0.034835324 -0.56604904 0.82423997 -0.014728851 0
-0.045277111 0.057472207 0.035244443 0.35017848 -0.9327836 0.085379899 0
-0.035120357 0.05889 0.034793396 0.078853376 -0.99666333 0.021081103 0
-0.024058241 0.058341555 0.035249121 -0.20764326 -0.97790462 0.024224289 0
-0.015058687 0.05465389 0.034856372 0.27822915 0.95876861 0.057890486 0
-0.0088183293 0.051148895 0.034869373 0.69466531 0.71909362 -0.018558953 0
-0.040799245 0.060180862 0.035827111 -0.2058506 0.97840136 -0.018877102 0
-0.035017602 0.060839798 0.035123888 -0.05629015 0.99824107 -0.018605223 0
-0.027317472 0.060500793 0.034638066 0.17694917 0.98404276 -0.018676229 0
-0.052750953 -0.0018673429 0.044974908 -0.5957998 -0.80312002 0.0045601767 0
-0.045148939 -0.0055443952 0.045124561 0.93855548 0.34344268 -0.034070741 0
-0.034992151 -0.0078083058 0.044782229 -0.063226938 -0.99790412 0.013773956 0
-0.024996508 -0.006797126 0.044995468 -0.64557248 0.59038389 -0.48444092 0
-0.015519582 -0.0030945432 0.045227457 0.44836959 -0.88942534 0.088810377 0
-0.0099160345 -0.00014839006 0.045309033 0.69829202 -0.71565574 -0.015003441 0
-0.061814249 0.0074984506 0.045397256 -0.84777761 -0.52637738 0.064808361 0
-0.057373039 0.0034723922 0.044738274 0.75822735 0.58036554 0.29709795 0
-0.012092221 0.0021790767 0.043945268 -0.67423469 0.67328811 0.30346435 0
-0.0060264971 0.0054174671 0.045166261 0.82257694 -0.55164218 0.13805053 0
-0.064771384 0.014913834 0.044860117 0.039543826 0.41518852 0.90887552 0
-0.059440956 0.010841753 0.040519536 0.53559399 0.55237967 0.63876122 0
-0.001730166 0.014182722 0.044755939 -0.94492739 0.32624727 0.025979061 0
0.00081858173 0.017515073 0.044993363 0.96672356 -0.25496575 -0.020925237 0
-0.066737108 0.024927784 0.04495611 0.97787017 0.098943949 0.18433671 0
-0.00020710897 0.024375159 0.044855271 -0.99787831 0.062327936 0.0188176 0
0.0011619335 0.02522222 0.045062982 0.99758142 -0.067529261 -0.016462401 0
-0.065515779 0.035269309 0.045049876 0.88562948 -0.46434894 0.0063631372 0
-0.0010094922 0.035654444 0.044870876 -0.96447414 -0.26349548 0.018969197 0
0.00091453269 0.033908442 0.045325868 0.9721424 0.23373909 -0.017470719 0
-0.062309191 0.04355168 0.044793267 -0.8678807 0.47799549 0.13529055 0
-0.057822511 0.047715031 0.044727203 0.69028884 -0.65600508 0.30521896 0
-0.010169143 0.049848013 0.043585476 -0.72145998 -0.6918416 0.029165071 0
-0.0050348411 0.045163713 0.045052275 0.93075073 0.36559519 0.0065716156 0
-0.053962871 0.053032525 0.045073349 -0.52543676 0.85022086 0.032260802 0
-0.045555487 0.057537593 0.045023624 0.29452518 -0.95515859 0.030446779 0
-0.035175417 0.059083551 0.045107123 0.076836161 -0.996925 0.015384212 0
-0.023832507 0.058478825 0.045037087 -0.19741385 -0.98030007 0.0062872423 0
-0.014953219 0.054790102 0.044963811 -0.26533586 0.9513849 0.15640841 0
-0.0087776566 0.051364888 0.045432653 0.68490571 0.72842908 -0.017183002 0
-0.041196831 0.060256924 0.045265354 -0.25126171 0.9677527 -0.017951597 0
-0.034858316 0.061025009 0.044854678 -0.056764014 0.9982301 -0.017733281 0
-0.027089346 0.060641374 0.045300111 0.18759649 0.98212051 -0.015708469 0
-0.052753545 -0.0020358376 0.055249128 -0.57312298 -0.81847733 -0.040310629 0
-0.045324348 -0.0056409035 0.05512999 0.7768786 0.62889385 0.030858995 0
-0.035112772 -0.0078801969 0.05515315 0.68175668 0.045963462 0.73013365 0
-0.024705799 -0.0068785655 0.054905761 -0.8622452 -0.22077726 0.45584068 0
-0.015342412 -0.0031108842 0.054903213 0.64407432 -0.76325828 -0.05103901 0
-0.0097317081 -0.00016613456 0.054150306 0.67718452 -0.73565173 -0.015417196 0
-0.061765812 0.0073433174 0.054925326 -0.79312569 -0.60904264 -0.0043186396 0
-0.05741965 0.002784411 0.054925703 0.65941811 0.75174284 -0.0071051386 0
-0.011099221 0.00086054095 0.055015098 -0.61999285 0.78445774 0.015329495 0
-0.0060048588 0.0051522627 0.054960139 0.72664654 -0.68675101 0.018914457 0
-0.065019004 0.014743753 0.054825384 0.77512336 0.63131952 0.02488894 0
-0.0013864934 0.014241463 0.054769758 -0.95571315 0.29310748 0.026463166 0
0.00086488668 0.016958803 0.055422164 0.96692151 -0.2544072 -0.018433474 0
-0.066923514 0.025001606 0.05501372 0.99340737 0.0065158787 -0.11445214 0
-0.00010834033 0.023865651 0.054367781 -0.99696684 0.075891718 0.01725184 0
0.0011633327 0.025126714 0.055145327 0.98191619 -0.15642336 -0.10664105 0
-0.065882675 0.035065062 0.055144034 -0.99709409 0.060168151 -0.046724513 0
-0.00095672585 0.035727795 0.05479002 -0.97142881 -0.23726247 0.0057192799 0
0.0010975256 0.033798456 0.054684792 0.97452199 0.22361368 -0.017429654 0
-0.062291298 0.043988883 0.055178732 -0.81493473 0.57950205 -0.0076645263 0
-0.058353808 0.048273072 0.055004537 0.73398751 -0.67872393 0.024413954 0
-0.010000346 0.049938031 0.051575582 -0.71279991 -0.7012434 0.013189251 0
-0.0048215035 0.045071423 0.054840181 0.77828932 -0.62770784 -0.015773233 0
-0.054015394 0.053171687 0.054998495 -0.67920512 0.73357016 -0.023565989 0
-0.045746844 0.057634916 0.055011909 0.37498325 -0.92686611 0.017518466 0
-0.035195448 0.059284084 0.055107776 0.061514847 -0.99786282 0.022037325 0
-0.023947632 0.058517531 0.054852188 -0.2051269 -0.97830307 0.029088829 0
-0.014708756 0.054809891 0.055027358 -0.46716437 0.86670691 -0.17486131 0
-0.008468641 0.05122887 0.055007324 0.68947363 0.72413522 -0.015947262 0
-0.041313507 0.060436957 0.055061899 -0.24460034 0.96933538 -0.023657661 0
-0.035157278 0.061215322 0.055212658 -0.058598198 0.9980514 -0.021439437 0
-0.02677265 0.060718618 0.055820879 0.19222566 0.98126501 -0.012968946 0
-0.043746926 -0.011433009 0.069026224 -0.26898018 -0.84548908 -0.46130028 0
-0.034709185 -0.012248215 0.068403997 -0.03322614 -0.55316126 -0.83241129 0
-0.025258904 -0.011901167 0.068544164 0.13824141 -0.65030503 -0.74698907 0
-0.018446587 -0.010633206 0.068729386 0.39090085 -0.87973756 -0.27066278 0
-0.061322905 -0.0013526255 0.068769231 -0.71759963 -0.57030851 -0.39974868 0
-0.053551864 -0.003209729 0.066239744 -0.17888437 -0.62502277 -0.7598334 0
-0.045238834 -0.0062355422 0.065363392 0.34575474 0.77904558 -0.52301204 0
-0.035075385 -0.0080745481 0.064901315 -0.0052491473 0.99568135 0.092688136 0
-0.024923641 -0.0072835512 0.065106332 -0.25288382 0.84829736 -0.46523261 0
-0.015146106 -0.0041967104 0.065985978 0.31185332 -0.27317804 -0.91001165 0
-0.0078117438 -0.0019887602 0.068110362 0.44624361 -0.58533627 -0.67694014 0
-0.062871322 0.0063157743 0.066228442 -0.69772846 -0.36366111 -0.61719173 0
-0.057265576 0.0025147169 0.064815685 0.66100764 0.74946737 0.036980182 0
-0.010987678 0.00070968503 0.064687669 -0.60034209 0.79193556 0.11147856 0
-0.0051063672 0.0050250087 0.065640502 0.46714815 -0.49550074 -0.73229212 0
0.0011903371 0.0070697153 0.068601035 0.72758925 -0.39170492 -0.56318843 0
-0.071161255 0.017338712 0.068922833 -0.89633793 -0.21437824 -0.38809839 0
-0.065881535 0.01461887 0.065860458 0.10438301 0.082555234 -0.99110484 0
-0.0012312608 0.014130322 0.064941302 -0.94821876 0.30716088 0.080829158 0
0.0022647292 0.015994038 0.066373833 0.81653279 -0.29925314 -0.49368182 0
-0.071684495 0.025058245 0.068595283 -0.46959996 -0.072755747 -0.87987632 0
-0.067489758 0.025026619 0.065011278 0.91160023 -0.1316689 -0.38942054 0
-7.2344759e-05 0.021997301 0.063924499 -0.98596513 0.16577236 0.019807963 0
0.002321261 0.025053326 0.06558159 0.088767968 0.047607861 -0.99491394 0
-0.071084961 0.034546126 0.068604842 -0.82873505 0.23141281 -0.50955504 0
-0.066486962 0.035255566 0.065762803 0.76044899 -0.19629171 -0.61902094 0
-0.00099888712 0.035745442 0.064356044 -0.96864378 -0.24457458 0.043731917 0
0.0023386122 0.034076869 0.06620083 0.88894665 0.226712 -0.39796421 0
-0.070209339 0.04025111 0.069179446 -0.88838673 0.20808133 -0.40923244 0
-0.063669465 0.044202112 0.066474654 -0.44116408 0.26479194 -0.85747272 0
-0.058332276 0.048318394 0.065242991 0.74844736 -0.66210961 0.037911713 0
-0.010019654 0.049899448 0.068443902 -0.76317936 -0.64512467 -0.037032947 0
-0.0043592053 0.045316763 0.065386295 -0.30783191 -0.63273811 -0.71055049 0
0.0015216717 0.043752134 0.068643846 0.57977843 0.35072392 -0.73542488 0
-0.062034592 0.052379683 0.068419151 -0.49718788 0.42921448 -0.75404185 0
-0.054750949 0.054042183 0.0656517 -0.346342 0.32106715 -0.88145518 0
-0.045679092 0.057575386 0.065159209 0.38584125 -0.91998476 -0.068952911 0
-0.035103597 0.059445344 0.064654619 0.055309225 -0.99740565 0.046074569 0
-0.024411323 0.058751278 0.06491816 -0.21450038 -0.97196776 0.096271761 0
-0.014588863 0.055592265 0.065618157 -0.21279791 -0.21955059 -0.95211065 0
-0.007232795 0.053051852 0.067017801 0.58657241 0.64580613 -0.4887405 0
-0.051833175 0.06087419 0.068778463 -0.3939923 0.88767594 -0.23833063 0
-0.043843176 0.062080879 0.067186601 -0.22608089 0.82166797 -0.52321047 0
-0.034878101 0.062422052 0.066420689 -0.066435792 0.96537781 -0.25225365 0
-0.025564836 0.062178597 0.066735253 0.16002084 0.83575076 -0.52527511 0
-0.016678732 0.061461631 0.068283297 0.30701888 0.56985331 -0.76223785 0
-0.042614665 -0.011060504 0.070568174 -0.18542044 -0.4653784 0.86547226 0
-0.03434176 -0.01167355 0.070898436 -0.0025763768 -0.28451493 0.95866817 0
-0.026280597 -0.011282645 0.070887834 0.11486772 -0.34386256 0.93196779 0
-0.019775534 -0.010389807 0.070143469 0.24698123 -0.71664304 0.65224469 0
-0.060884841 -0.0010965951 0.070565104 -0.48248607 -0.41083995 0.77357465 0
-0.054745506 -0.0039916784 0.070931673 -0.065548614 -0.11466262 0.99123961 0
-0.046009444 -0.007589573 0.070886016 0.060258023 0.1419089 0.98804396 0
-0.0360769 -0.008947297 0.070773348 0.057823613 0.47294718 0.87919134 0
-0.023880756 -0.0080143167 0.070674241 -0.095874563 0.26628613 0.95911407 0
-0.014865777 -0.0057401606 0.070695169 0.021429695 -0.017076787 0.99962449 0
-0.0078171585 -0.0021110212 0.070769399 0.24670902 -0.30834126 0.91872758 0
-0.063719496 0.0057333088 0.070961177 -0.15846545 -0.058169644 0.98564953 0
-0.057861369 0.0015066965 0.070953541 0.40895823 0.36712071 0.83544928 0
-0.0031408328 0.0042135506 0.070939802 -0.18551877 0.089040972 0.97859824 0
0.0011350582 0.00733884 0.070710018 0.69596899 -0.25681719 0.67057586 0
-0.070708364 0.017355734 0.07059285 -0.6397267 -0.21583806 0.73767447 0
-0.066865757 0.01437839 0.070881598 0.18682344 0.040950846 0.98153961 0
-0.00083809864 0.011926391 0.070767522 -0.59023213 0.21306731 0.77860665 0
0.0025386729 0.0152422 0.070959508 0.16338968 -0.065277979 0.98439968 0
-0.071197718 0.024759673 0.070835195 -0.44452932 -0.0093637388 0.89571536 0
-0.068584934 0.024789395 0.070962347 0.27198532 0.013720042 0.96220368 0
0.0040732878 0.025166845 0.070979916 -0.031417198 -0.005430718 0.99949157 0
-0.070784062 0.034055542 0.070710383 -0.63706261 0.12512918 0.76058793 0
-0.067200236 0.036399629 0.07073728 0.20842148 -0.031986132 0.97751594 0
-0.00086083781 0.038433935 0.070630006 -0.64385545 -0.22596864 0.73101872 0
0.0030384918 0.03497744 0.070973977 0.075035624 0.017187851 0.9970327 0
-0.064808138 0.045197755 0.070914373 -0.036489673 -0.034149621 0.99875045 0
-0.058999009 0.048590001 0.070539869 0.41664734 -0.37322739 0.82891881 0
-0.0028937098 0.045979284 0.07094302 -0.13450208 -0.073404379 0.98819077 0
0.0016626851 0.042512432 0.070940651 0.40641519 0.26073736 0.87569565 0
-0.061856974 0.051302213 0.070899293 -0.28357759 0.29309654 0.91305977 0
-0.055628631 0.054864753 0.070790678 0.012579701 0.0063873869 0.99990046 0
-0.046804324 0.058142107 0.070547007 0.14973608 -0.30977371 0.93894589 0
-0.022606945 0.059169777 0.070843756 -0.21699005 -0.67967123 0.70068705 0
-0.013873704 0.056436922 0.070886657 -0.10554055 -0.19411552 0.97528476 0
-0.0070349621 0.053025946 0.070828013 0.20674758 0.2138634 0.95473439 0
-0.050459433 0.060264498 0.07084877 -0.37075892 0.80079019 0.47039655 0
-0.044093549 0.062112883 0.070956022 -0.10350958 0.24381076 0.96428323 0
-0.03474763 0.063584611 0.070937753 -0.021805145 0.0040295762 0.99975413 0
-0.025128415 0.062621877 0.07111311 0.027908597 0.12836938 0.99133372 0
-0.017843651 0.061453331 0.070878759 0.26522964 0.51763278 0.81345534 0
