# .PCD v0.7 - Point Cloud Data file format
VERSION 0.7
FIELDS x y z normal_x normal_y normal_z curvature
SIZE 4 4 4 4 4 4 4
TYPE F F F F F F F
COUNT 1 1 1 1 1 1 1
WIDTH 92
HEIGHT 1
VIEWPOINT 0 0 0 1 0 0 0
POINTS 92
DATA ascii
-0.041246958 -0.081290543 -0.00011677398 0.11926133 0.0091353869 -0.99282086 0
-0.034227174 -0.082490638 -8.9278969e-05 -0.049279176 -0.062405784 -0.9968335 0
-0.026565609 -0.081276491 -7.312408e-05 0.0079196692 0.052595735 -0.99858451 0
-0.015310727 -0.080139019 -1.1419733e-05 -0.046440825 -0.12567665 -0.99098366 0
-0.04218892 -0.074625708 -0.0001244439 0.13831714 0.0043951236 -0.9903782 0
-0.016875997 -0.07988207 -1.0399304e-05 -0.13979602 0.36946383 -0.91866946 0
-0.043776475 -0.065307096 -0.00011991421 0.029318901 0.013729719 -0.99947584 0
-0.013636217 -0.06448622 -7.8641016e-05 -0.027266687 -0.013035117 -0.99954325 0
-0.043211982 -0.055173859 -0.0001352017 -0.0078342399 0.028578179 -0.99956083 0
-0.034675177 -0.052402664 -0.00011042975 -0.0056621693 0.027758466 -0.99959862 0
-0.025834436 -0.050999079 -7.5108641e-05 -0.0053367359 0.01977809 -0.99979007 0
-0.015859054 -0.055214521 -3.9528251e-05 -0.023361992 -0.0043848339 -0.99971747 0
-0.041371156 -0.082514651 0.0047701807 -0.8118099 -0.54971677 -0.19691651 0
-0.035184488 -0.082467385 0.0049379719 0.45559329 0.25358328 -0.85330546 0
-0.025793782 -0.081562825 0.0046809842 0.15689398 -0.95219934 -0.26210821 0
-0.015823893 -0.080764651 0.0050496599 0.16339932 -0.98350751 -0.077548407 0
-0.042054314 -0.074962683 0.0048440043 -0.047063671 0.12605642 -0.990906 0
-0.032211289 -0.071792334 0.0061941775 -0.59211266 -0.79407847 -0.13726626 0
-0.025370428 -0.074012063 0.0056251106 0.21640053 0.9125883 -0.34691986 0
-0.013320472 -0.075810574 0.0046496461 0.21081781 0.79372734 -0.57057226 0
-0.04362404 -0.065015294 0.0049568275 0.047353677 -0.46123806 -0.88601184 0
-0.033143442 -0.064966351 0.0059319395 -0.2609553 0.55117381 -0.79253376 0
-0.024370005 -0.064310029 0.0057768584 0.22848801 -0.11196975 -0.96708637 0
-0.013442219 -0.065029636 0.004902273 -0.17407119 0.019637709 -0.98453724 0
-0.043868743 -0.055419486 0.0049200794 -0.58739942 0.7391181 -0.3296459 0
-0.035050217 -0.052763928 0.0049267402 0.092093118 0.25531328 -0.96246243 0
-0.026109647 -0.052660912 0.0051560048 0.16550571 -0.8623535 -0.47849163 0
-0.015661798 -0.054714806 0.0047724228 0.1124218 -0.78046322 -0.61501092 0
-0.023069333 -0.049497355 0.0049821963 -0.15764964 0.98641264 -0.046225257 0
-0.017093047 -0.048870955 0.005150442 0.20022199 0.97090483 -0.13135837 0
-0.04173426 -0.082946613 0.015034582 -0.87724942 -0.4800213 0.0036018917 0
-0.035173152 -0.083283409 0.014336916 0.20463106 -0.97351962 -0.10190994 0
-0.025276797 -0.082089096 0.014846354 0.15767391 -0.98734075 -0.017237745 0
-0.015554587 -0.080765657 0.014935729 0.16015637 -0.98709154 -0.00051488751 0
-0.042906847 -0.07452748 0.014472382 -0.99164546 -0.10984915 -0.067619815 0
-0.035486609 -0.075248197 0.013350273 0.30812842 0.36242223 -0.87960613 0
-0.025007568 -0.074929938 0.013478983 -0.1301702 0.50750268 -0.85176104 0
-0.013347151 -0.074793808 0.013747788 0.79004866 0.28990039 -0.54016745 0
-0.043741684 -0.065056294 0.013993102 -0.92059273 -0.21156652 -0.32825109 0
-0.034610528 -0.064735197 0.013824341 0.16618459 -0.3003132 -0.93925214 0
-0.024697388 -0.065479986 0.013348361 -0.33434576 -0.53205359 -0.77790219 0
-0.014359676 -0.065136045 0.013779193 0.81759512 0.065920696 -0.57200766 0
-0.044081651 -0.055298243 0.014350085 -0.76424789 0.59425128 -0.25058061 0
-0.034811936 -0.053727955 0.013794713 -0.075102739 0.76992756 -0.63369644 0
-0.025961034 -0.054494988 0.012992291 -0.11734943 0.35372293 -0.92795968 0
-0.015481812 -0.054888114 0.013813568 0.93062019 0.049126681 -0.36267436 0
-0.02314253 -0.04948926 0.014833903 -0.15846354 0.98736441 0.00088034745 0
-0.016939156 -0.048809957 0.015094036 0.18771227 0.98220342 0.0063697482 0
-0.041760623 -0.08276692 0.024807394 -0.87919307 -0.47646478 0.00093140302 0
-0.034965787 -0.083763763 0.024988541 0.16062954 -0.98699856 0.0056560463 0
-0.025045922 -0.082193531 0.025031252 0.15160105 -0.98844117 0.0010870958 0
-0.015473478 -0.080731213 0.024835683 0.1584482 -0.98734266 0.0069768992 0
-0.043274604 -0.075036481 0.024858546 -0.98811859 -0.15360215 -0.0052895281 0
-0.010924752 -0.075147703 0.024751132 0.99865848 0.051646076 0.0037430509 0
-0.044835936 -0.06496986 0.024992058 -0.98805183 -0.15406255 -0.0042695394 0
-0.012445817 -0.064960375 0.025075385 0.9880476 0.15404542 0.0056559122 0
-0.044646207 -0.054675922 0.024949288 -0.80477405 0.59357888 0.0016958498 0
-0.034956038 -0.05131175 0.025090622 -0.14993447 0.98869258 -0.0026124225 0
-0.028214516 -0.050284825 0.024984829 -0.15431584 0.98802 -0.0017415007 0
-0.013969338 -0.055053052 0.025033286 0.98838115 0.15182346 0.0072305263 0
-0.023160018 -0.049480535 0.024975006 -0.15812834 0.98741549 -0.0024700994 0
-0.017008496 -0.048778214 0.024994511 0.17085895 0.98529422 -0.0015426183 0
-0.041613992 -0.082620308 0.034289315 -0.83507586 -0.51213521 0.20091282 0
-0.035047639 -0.083050497 0.035585597 0.11827435 -0.91582149 0.38377348 0
-0.025300585 -0.081953071 0.03510274 0.14663997 -0.95418096 0.26083609 0
-0.015935749 -0.080695949 0.034228057 0.16550748 -0.98380882 0.068757132 0
-0.042745635 -0.074967548 0.035364039 -0.91359371 -0.14608048 0.37948245 0
-0.035126101 -0.075030401 0.039257303 -0.071172565 0.044194505 0.9964844 0
-0.025278246 -0.075161956 0.038890079 -0.011708185 -0.066296026 0.99773133 0
-0.013084942 -0.075412452 0.036369 0.80771446 -0.090262063 0.58262336 0
-0.044084396 -0.064867698 0.035589684 -0.90374625 -0.17248069 0.3917821 0
-0.034808803 -0.065401584 0.038856182 0.08481966 -0.037746198 0.99568105 0
-0.025147991 -0.065180965 0.038751073 -0.07465253 -0.025670443 0.99687916 0
-0.014186235 -0.065060973 0.036265381 0.81774288 0.16328275 0.55193782 0
-0.044112097 -0.05519402 0.035359953 -0.75791019 0.52321064 0.38964438 0
-0.034753125 -0.053516999 0.036513183 -0.06476979 0.78892326 0.61106873 0
-0.025749676 -0.053821653 0.037789885 -0.20496327 0.47283199 0.85698307 0
-0.015064823 -0.05504144 0.03590858 0.8941828 0.17161281 0.41350493 0
-0.023309369 -0.049520459 0.034361474 -0.15619148 0.98617947 0.055266436 0
-0.017145922 -0.048893224 0.034182921 0.2025972 0.96746546 0.15154153 0
-0.034778349 -0.080193102 0.040679388 -0.031694241 -0.97413766 0.22372171 0
-0.035104524 -0.075562768 0.04128233 0.0028553763 0.083696835 0.9964872 0
-0.022078622 -0.073762245 0.04138042 -0.027221059 -0.16289584 0.98626775 0
-0.016926866 -0.074283183 0.041353174 0.26756629 -0.39985877 0.87665343 0
-0.041213121 -0.061672721 0.040973075 -0.57451183 -0.26893339 0.77305293 0
-0.03635896 -0.062491141 0.041289516 0.2361027 -0.09310554 0.96725744 0
-0.022008291 -0.063967876 0.041298471 -0.39369428 -0.25309235 0.88371319 0
-0.018323436 -0.066712037 0.041071814 0.53809381 0.55891991 0.63092279 0
-0.04097005 -0.057992198 0.04117104 -0.56198174 0.23918253 0.79181325 0
-0.036488988 -0.057269547 0.041505538 0.22600104 0.11110438 0.96777028 0
-0.02361046 -0.056091327 0.041147161 -0.19996294 0.31363457 0.92825007 0
-0.018578989 -0.056825679 0.041234266 0.30884516 0.15533918 0.93834132 0
