# .PCD v0.7 - Point Cloud Data file format
VERSION 0.7
FIELDS x y z normal_x normal_y normal_z curvature
SIZE 4 4 4 4 4 4 4
TYPE F F F F F F F
COUNT 1 1 1 1 1 1 1
WIDTH 247
HEIGHT 1
VIEWPOINT 0 0 0 1 0 0 0
POINTS 247
DATA ascii
-0.041146453 -0.01510876 -0.00013128965 -0.097565733 -0.014816493 -0.99511886 0
-0.034796536 -0.014782305 -0.00022868249 0.0018787677 -0.02709615 -0.99963111 0
-0.025091458 -0.014741005 -0.00018526721 0.0031996057 -0.0097435126 -0.99994743 0
-0.015219803 -0.014059325 -0.00012262323 0.010265958 -0.0006387477 -0.99994713 0
-0.0046361936 -0.014364807 -9.2380782e-05 -0.0025768513 -0.0034807713 -0.99999058 0
0.0016765442 -0.014030992 -5.7664343e-05 0.03857439 -0.0072388873 -0.99922943 0
-0.041147549 -0.0052709272 -7.9894089e-05 -0.069304749 0.00088213565 -0.99759513 0
-0.035135698 -0.0049609821 -0.00012344655 0.008975205 0.01511092 -0.99984556 0
-0.026000619 -0.0075420202 -6.4544911e-05 0.011360384 0.029049119 -0.99951339 0
-0.016437231 -0.0094750663 -1.7681989e-05 0.0072580548 0.038952246 -0.99921471 0
0.0050451998 -0.0093818381 -8.758404e-06 -0.014862772 0.0087755714 -0.99985105 0
-0.040682316 0.0042872028 -5.8929178e-05 -0.036228217 0.0098703206 -0.99929482 0
-0.037441935 0.0034352103 -4.2942665e-05 0.014957171 0.011010054 -0.99982756 0
-0.040746816 0.012613933 -1.1452499e-05 -0.038560815 0.00061341707 -0.99925607 0
-0.039507546 0.011719256 -4.9767855e-06 0.014620977 0.0012460995 -0.99989235 0
-0.03913838 0.03860186 -7.2113908e-06 -0.018149398 -0.0039522811 -0.9998275 0
-0.040366091 0.048241898 -2.3760778e-05 -0.096278988 -0.016659966 -0.99521494 0
-0.035576474 0.045756452 -7.6295029e-05 -0.00074687228 -0.015760977 -0.99987549 0
-0.027119093 0.048588119 -4.6858804e-05 0.014848772 -0.032979969 -0.99934572 0
-0.040304776 0.050304126 -5.7374695e-05 -0.099734142 0.014676249 -0.99490589 0
-0.034490172 0.051787276 -0.00011131899 -0.012650561 0.038307253 -0.99918592 0
-0.025257964 0.052349325 -6.6717992e-05 0.0097159641 0.019235063 -0.99976784 0
-0.016752033 0.052211855 -1.3604656e-05 0.004885497 -0.0024406326 -0.99998516 0
-0.041705061 -0.020340741 0.006544271 -0.16762125 -0.98285359 -0.076823518 0
-0.035114396 -0.020371074 0.0054605226 0.0085360268 -0.99829155 -0.057801992 0
-0.024961332 -0.020277239 0.0056200111 0.0096353777 -0.99939591 -0.033389594 0
-0.014751129 -0.020253912 0.0053067538 -0.0052459785 -0.99897182 -0.045030501 0
-0.0049314122 -0.020253841 0.0051435037 0.0011352219 -0.99930942 -0.037140522 0
0.0022723903 -0.020241953 0.0060135862 0.057474595 -0.99729294 -0.045862816 0
-0.043674964 -0.01541338 0.0044529513 -0.96335948 -0.16064847 -0.21478032 0
-0.035066705 -0.019753547 0.00035114936 -0.020814678 -0.8503834 -0.52575171 0
-0.024819428 -0.019771347 0.0004449632 0.0056983442 -0.91984516 -0.39224029 0
-0.013751399 -0.018944122 0.00017666566 0.027772091 -0.24292548 -0.96964735 0
-0.0059980215 -0.017361393 0.00013054939 -0.018240096 -0.16135918 -0.98672724 0
0.0050506457 -0.015160979 0.0038439473 0.92064774 -0.17642716 -0.34825423 0
-0.043676414 -0.0047737192 0.0044841617 -0.98401046 0.029177014 -0.17570488 0
-0.031012945 -0.00039816205 5.0317963e-06 0.015314319 0.016578129 -0.99974531 0
-0.02401242 -0.0031664537 6.0447168e-05 0.013935537 0.018685637 -0.99972832 0
-0.014738268 -0.0045234696 0.00013938433 0.0086711813 0.025400547 -0.99963981 0
-0.0048794602 -0.0048288265 0.00017517898 0.00013560572 0.027216228 -0.99962956 0
0.0048696366 -0.0049331817 0.0030957926 0.8325485 -0.012691853 -0.55380672 0
-0.043393988 0.0051025013 0.0047975504 -0.98217517 0.030215375 -0.18552352 0
-0.03298787 0.0058154771 5.0600742e-05 0.015840443 0.011023294 -0.99981374 0
-0.024955222 0.0048421649 0.00017021391 0.016228946 0.0120814 -0.99979532 0
-0.015101744 0.0050040018 0.00030793442 0.0089294827 0.013364553 -0.99987084 0
-0.0050451532 0.0050057815 0.00034764991 0.0016048274 0.012117538 -0.99992526 0
0.0049536154 0.0050044726 0.0030386054 0.81220895 -0.01500796 -0.58317345 0
-0.042993531 0.01520516 0.0042462787 -0.95704651 0.011649705 -0.28970048 0
-0.03486637 0.01505841 7.8683137e-05 0.017293975 0.0011996662 -0.99984974 0
-0.025234336 0.015055799 0.00026021685 0.01762169 0.0063359938 -0.99982464 0
-0.01490128 0.015017234 0.00041295745 0.012333417 0.0081177773 -0.99989098 0
-0.0049347244 0.015090788 0.00047860327 -0.00066430843 0.011139417 -0.99993771 0
0.0052772644 0.015132422 0.0031825749 0.82916754 -0.012213866 -0.5588668 0
-0.042850472 0.02490275 0.0041632685 -0.95245463 0.010649434 -0.30449408 0
-0.034895074 0.024671122 8.4760577e-05 0.016322916 0.0024783139 -0.99986368 0
-0.024818458 0.024944799 0.00029921625 0.021120869 0.001138809 -0.99977624 0
-0.015102551 0.02484717 0.00047306035 0.012693845 0.0040192232 -0.99991137 0
-0.005038633 0.024891371 0.00053862564 -0.0046912772 0.0029600912 -0.99998462 0
0.0054133916 0.024869682 0.0030118979 0.79760337 -0.011215183 -0.60307813 0
-0.042805593 0.035198666 0.0043108412 -0.94740182 -0.0099505428 -0.31989187 0
-0.034747425 0.03470587 0.0001043437 0.0166502 -0.0056964341 -0.99984515 0
-0.02512479 0.035050992 0.00027331887 0.018950559 -0.0083509302 -0.99978554 0
-0.015179195 0.03514393 0.0004515773 0.015314376 -0.011105229 -0.99982113 0
-0.0050030821 0.034878831 0.00052510196 -0.0034084388 -0.009537477 -0.99994874 0
0.0054306737 0.034994669 0.0029767754 0.79192418 -0.015973706 -0.61041057 0
-0.04304507 0.044985943 0.0041424218 -0.94452065 -0.025690651 -0.32744586 0
-0.032872941 0.041709326 3.5130633e-05 0.009488509 -0.022178045 -0.99970901 0
-0.024939934 0.044097211 0.00012525111 0.018953757 -0.025815146 -0.99948704 0
-0.015038149 0.044883523 0.00024153058 0.010675951 -0.031653423 -0.99944186 0
-0.0051679262 0.04497594 0.00030124042 -0.00099739968 -0.030865882 -0.9995231 0
0.0055622295 0.044902898 0.0031486601 0.80239391 0.00028903963 -0.59679466 0
-0.042549741 0.053613037 0.0045593539 -0.81249601 0.4954659 -0.30718693 0
-0.0353567 0.055480693 0.0041442071 0.0260099 0.97866035 -0.20383173 0
-0.025062239 0.055291321 0.0047653303 0.034525096 0.99466974 -0.097160339 0
-0.014624643 0.054392617 0.0038722132 0.041085072 0.95743531 -0.28570905 0
-0.0049560368 0.053788111 0.0035527612 0.049444359 0.91238594 -0.4063338 0
0.0044746608 0.052953314 0.0047191577 0.53991079 0.77133697 -0.33695045 0
-0.041913413 -0.02061834 0.015020893 -0.1730808 -0.98477614 -0.016092444 0
-0.034754071 -0.020636467 0.014916687 0.019825391 -0.99957383 -0.021428168 0
-0.024939347 -0.020454641 0.015072459 0.014712893 -0.99974644 -0.017044943 0
-0.015086539 -0.020399082 0.014922312 -0.0047025522 -0.99993175 -0.010701125 0
-0.0046918252 -0.020404426 0.015152824 0.0064296247 -0.99996239 -0.0058189207 0
0.0027733771 -0.020356124 0.014915765 0.068249501 -0.99762994 -0.0087499777 0
-0.044292334 -0.015190808 0.01513441 -0.99821746 -0.058013745 -0.014006154 0
0.0060337032 -0.015002548 0.014980905 0.99564809 -0.089589402 -0.025661552 0
-0.044053216 -0.005102138 0.015163905 -0.99944776 0.032206461 -0.0081820292 0
0.0063409144 -0.0048740469 0.015007025 0.99919027 -0.024711549 -0.031751625 0
-0.043776255 0.0049187182 0.015228263 -0.99970251 0.023251446 -0.0073686582 0
0.0065666982 0.0053996779 0.014900884 0.99920797 -0.021071371 -0.033756543 0
-0.043571696 0.014807197 0.014980514 -0.999825 0.017739624 -0.0059329625 0
0.0067692646 0.015118154 0.014826204 0.99927717 -0.0198029 -0.032449581 0
-0.043423537 0.024866104 0.015060715 -0.99991983 0.011017079 -0.0062440946 0
0.0069514024 0.025051901 0.015140252 0.99945301 -0.014835706 -0.029555574 0
-0.043395836 0.03487416 0.014877478 -0.9999088 -0.010969085 -0.0078739831 0
0.0071276701 0.035077959 0.014855727 0.99942327 -0.019900015 -0.027516721 0
-0.043639302 0.044862892 0.015088478 -0.99946964 -0.032544155 0.0011091887 0
0.0072774435 0.044863041 0.015200702 0.99960214 -0.014598011 -0.024134533 0
-0.042904753 0.053880252 0.015244783 -0.82783997 0.56081283 0.013036992 0
-0.034783747 0.055535536 0.015063483 0.044051312 0.99856597 0.030421743 0
-0.025210002 0.055072244 0.015140775 0.043554068 0.9984659 0.034189846 0
-0.015060066 0.054687262 0.015012679 0.033917639 0.99893546 0.031267595 0
-0.004901581 0.054332007 0.015334321 0.035697613 0.99906957 0.024201503 0
0.0048952443 0.053361155 0.015228568 0.44910917 0.89347142 -0.003107209 0
-0.042035054 -0.020685654 0.024725644 -0.21788853 -0.97593957 -0.0081596524 0
-0.034950156 -0.020804815 0.025025416 0.02338901 -0.999663 -0.011262566 0
-0.024921993 -0.020595385 0.024980497 0.015694795 -0.99981004 -0.011558504 0
-0.015103314 -0.020514254 0.024954278 0.00019004995 -0.99991393 -0.013117795 0
-0.0049369582 -0.020490233 0.025125518 0.0082688499 -0.99988919 -0.012373699 0
0.0032428459 -0.020429607 0.025239389 0.09485577 -0.99533719 -0.017498195 0
-0.044320956 -0.015142832 0.024948139 -0.99875361 -0.049576845 0.0057716146 0
0.0063159224 -0.014845883 0.025108188 0.99894065 -0.040648211 -0.021569502 0
-0.044066332 -0.0050594276 0.024883039 -0.99935037 0.036008257 -0.0014996179 0
0.0066102296 -0.0052734585 0.02465855 0.99932319 -0.027190713 -0.024775976 0
-0.043796901 0.0051583662 0.025022935 -0.9997884 0.020545781 -0.00099064503 0
0.0068427902 0.0051901159 0.025004061 0.99961293 -0.018085521 -0.021141885 0
-0.043619324 0.014796078 0.025092172 -0.99986196 0.016142732 -0.0039293957 0
0.007015422 0.014923383 0.024968022 0.99969488 -0.017872341 -0.017051915 0
-0.043477159 0.0249916 0.024900844 -0.99989361 0.011226095 -0.0093156779 0
0.0071947165 0.025344791 0.02486833 0.99972641 -0.016066119 -0.01699705 0
-0.043444309 0.035087328 0.024928842 -0.99996954 -0.006432991 -0.004414706 0
0.0073467251 0.034989551 0.024981089 0.9997735 -0.015011624 -0.015085177 0
-0.043608654 0.044859566 0.025234032 -0.99953866 -0.030361736 0.00080205867 0
0.0074411775 0.045097619 0.02482933 0.99990886 -0.0082630692 -0.010672655 0
-0.042916387 0.053653073 0.025092969 -0.81126732 0.58370805 0.033618715 0
-0.035107076 0.055167396 0.024865136 0.03995683 0.99801582 0.048659731 0
-0.025076907 0.054695487 0.024926765 0.042886306 0.99813968 0.043335401 0
-0.015052558 0.054378532 0.024822813 0.022041745 0.99924624 0.031955913 0
-0.0049831048 0.054149032 0.025003107 0.025393158 0.99956203 0.015197963 0
0.0049665086 0.053272139 0.024811864 0.470981 0.88213968 0.002541034 0
-0.041805565 -0.020752735 0.034634255 -0.26385236 -0.96452719 0.008321166 0
-0.035042372 -0.020863477 0.035194885 0.011495365 -0.99992973 -0.0028846646 0
-0.025090115 -0.020712651 0.034975491 0.01154999 -0.99986529 -0.01166427 0
-0.015169648 -0.020662336 0.035103273 0.0019952622 -0.99982899 -0.018387835 0
-0.0051254407 -0.020636706 0.035013951 0.0031192582 -0.99982637 -0.018370098 0
0.0031765508 -0.020584591 0.034912258 0.10818496 -0.99379712 -0.025754085 0
-0.044265535 -0.015013001 0.035218045 -0.99538589 -0.095798902 0.0054321294 0
0.006419572 -0.014979612 0.035020873 0.99793196 -0.064189188 -0.0034085407 0
-0.044112124 -0.0050100014 0.035001077 -0.99940044 0.034329202 -0.0044915169 0
-0.021983799 -0.0041570775 0.038855545 0.44185555 0.14273857 0.88565755 0
-0.016437244 -0.0042214333 0.038577981 -0.24651994 0.11800766 0.96192634 0
0.0067672059 -0.0047138766 0.034962434 0.99965703 -0.025533689 -0.0058132764 0
-0.043832503 0.0051184609 0.035184711 -0.99977595 0.019239757 -0.0088240569 0
-0.021092467 0.00086811068 0.039335698 0.45834866 -0.78262514 0.42120588 0
-0.017532412 0.00091680192 0.039224047 -0.19805865 -0.65060687 0.7331326 0
0.0069824988 0.0050782831 0.034842279 0.99979734 -0.018619973 -0.0076460214 0
-0.043704715 0.015014813 0.035054646 -0.99982679 0.0090684323 -0.016252248 0
-0.022127923 0.016269252 0.038710915 0.46652415 0.2067342 0.86000949 0
-0.016202789 0.016195679 0.038211025 -0.25376689 0.22517507 0.94069046 0
0.0071377447 0.014879474 0.035038259 0.99987102 -0.015592176 -0.0038454104 0
-0.043618064 0.024803333 0.035176992 -0.99988908 0.010489661 -0.010573341 0
-0.021074509 0.021543203 0.038855068 0.44191402 -0.5845719 0.68043196 0
-0.016835619 0.021621088 0.038693558 -0.25488782 -0.66652894 0.70055073 0
0.00730565 0.024912665 0.035086561 0.99986893 -0.015318173 -0.005239082 0
-0.043520633 0.035134289 0.035065588 -0.99998242 0.0037248051 -0.004613122 0
-0.021836204 0.037421986 0.038764667 0.47212517 0.37909055 0.79585689 0
-0.016204201 0.037171613 0.038499873 -0.21014495 0.35364202 0.9114694 0
0.0074318931 0.03503865 0.03487394 0.99993014 -0.010795691 -0.0048131528 0
-0.043621391 0.044834226 0.034943327 -0.9997381 -0.022310035 0.0050948095 0
-0.021703083 0.04167296 0.038631745 0.50462776 -0.43698305 0.74457812 0
-0.016474169 0.042437784 0.038430654 -0.24897937 -0.42257532 0.87145823 0
0.0075214338 0.04510694 0.034910765 0.99993724 -0.0098677175 -0.0052976827 0
-0.042904329 0.053111117 0.034942254 -0.83268428 0.5514825 0.050038826 0
-0.034850024 0.054532856 0.035040181 0.039357025 0.99671429 0.07079304 0
-0.025009831 0.054214794 0.03498067 0.021111 0.99863529 0.047768798 0
-0.014923766 0.054052547 0.035112303 0.009509718 0.99958587 0.027158748 0
-0.0052255909 0.053970121 0.035175938 0.012062087 0.99977249 0.017592432 0
0.0050927051 0.053233515 0.035138927 0.45874849 0.88849372 0.011347868 0
-0.041919339 -0.020741416 0.045059696 -0.27489409 -0.96147448 -0.00036548715 0
-0.034948695 -0.020989241 0.045022454 0.0014938493 -0.99995512 0.009352304 0
-0.025134454 -0.020960907 0.044970471 -0.00012392405 -0.9997043 -0.024318246 0
-0.015205656 -0.020977998 0.045051288 -0.0010536598 -0.99836057 -0.057227805 0
-0.0050063943 -0.020959482 0.045322046 0.0015099919 -0.99970305 0.024321821 0
0.0031601961 -0.020850332 0.04490675 0.16159391 -0.98225838 0.095162697 0
-0.043644518 -0.014907169 0.045583423 -0.97486073 -0.051732469 0.21672639 0
-0.035234932 -0.015000457 0.049926769 -0.0019950231 -0.0033493696 0.99999243 0
-0.024651496 -0.014923899 0.049880531 0.014600812 0.02313477 0.99962574 0
-0.015138746 -0.014497616 0.04958697 0.0043586507 0.14787929 0.98899579 0
-0.0050817328 -0.015028059 0.049809057 0.0064492896 0.0061578164 0.99996024 0
0.0049857735 -0.014949375 0.046609025 0.81884211 -0.054694802 0.5714072 0
-0.043997169 -0.004913989 0.045151882 -0.99827677 0.018812643 0.055584006 0
-0.039520089 -0.0093154013 0.049993563 -2.6639458e-05 -0.027541194 0.99962074 0
-0.023349416 -0.0054339156 0.045238033 0.95747197 0.23107669 0.17277493 0
-0.013776754 -0.0060137738 0.045401365 -0.81770372 0.40847296 0.40559888 0
-0.0048017083 -0.0050713411 0.049768575 0.0037074045 -0.00027156205 0.99999309 0
0.0053091515 -0.0050875815 0.04672882 0.81675726 -0.01390241 0.57681394 0
-0.043877482 0.0052506654 0.044797391 -0.99987537 0.0080875093 0.013560412 0
-0.021675302 0.0030840952 0.047304794 0.38376641 -0.61225921 0.69127566 0
-0.015415868 0.0039156619 0.048158631 -0.108724 -0.44991434 0.88642877 0
-0.0048440769 0.0050980356 0.049759991 0.0057108877 0.0025097693 0.99998057 0
0.0053308257 0.0050383103 0.046603404 0.81249565 -0.014766905 0.58278018 0
-0.043788936 0.014884988 0.045074645 -0.99943084 0.014852798 0.030288389 0
-0.023417478 0.014899966 0.045723401 0.84791613 0.43198913 0.30728424 0
-0.014264333 0.014010292 0.045654137 -0.6604538 0.61201102 0.43502101 0
-0.0048017274 0.014983707 0.04970938 0.0019368052 0.006129425 0.99997932 0
0.0054751663 0.015097701 0.046510901 0.81866139 -0.011999708 0.57415104 0
-0.04360367 0.024825806 0.04519232 -0.99924254 0.015312585 0.035776045 0
-0.02215923 0.02334816 0.046942383 0.52462488 -0.61577255 0.58787143 0
-0.015295404 0.024292342 0.047078054 -0.24973918 -0.60334951 0.75736362 0
-0.0052067619 0.024869032 0.049661078 0.0028000062 0.0051961681 0.99998254 0
0.0055293757 0.024872493 0.046700694 0.78690463 -0.017442955 0.61682802 0
-0.043490849 0.034927376 0.04482837 -0.99988884 0.0082535325 0.012414916 0
-0.02311773 0.035757832 0.046438809 0.73970187 0.44903708 0.50120533 0
-0.014526396 0.034647051 0.046076361 -0.50241035 0.69383782 0.51591945 0
-0.0049626059 0.035282716 0.049587373 -0.00024847381 0.0079261251 0.99996853 0
0.0058528441 0.034781307 0.046810824 0.78851318 -0.0039842268 0.61500502 0
-0.043453548 0.04505714 0.044968031 -0.99936557 -7.1655545e-06 0.035614617 0
-0.02339012 0.043969851 0.0471115 0.56611735 -0.4742105 0.67426664 0
-0.014887885 0.044449594 0.046372131 -0.38666078 -0.7351526 0.55681598 0
-0.0048938622 0.045020666 0.049519807 0.0083523132 0.0025199652 0.99996197 0
0.0056840917 0.044896707 0.046925008 0.73361981 -0.0090247784 0.67950016 0
-0.04249144 0.052679561 0.044493865 -0.74693984 0.64829147 0.14764473 0
-0.035117097 0.053734824 0.045164149 -0.00064574764 0.99554211 0.09431608 0
-0.024816906 0.053449981 0.045621447 -0.0020223504 0.98827243 0.15268748 0
-0.015019183 0.053363863 0.045950629 0.0055642352 0.951527 0.30751482 0
-0.0049800766 0.053249624 0.046162043 0.0072298427 0.92756128 0.37360105 0
0.0044946801 0.052783959 0.045413923 0.4253673 0.83741724 0.34321272 0
-0.041709919 -0.020254117 0.050136648 -0.03200528 -0.065786958 0.99732029 0
-0.034337144 -0.020490961 0.050140217 0.0031114428 -0.15944539 0.98720187 0
-0.024845259 -0.020721521 0.050119601 -0.0049789622 -0.16445899 0.98637134 0
-0.015276833 -0.020819688 0.050114673 0.0026354645 -0.19385886 0.98102593 0
-0.0088316565 -0.020723846 0.050109606 0.089863323 0.093839169 0.9915235 0
-0.042621601 -0.015632235 0.050187986 -0.074831396 -0.0056587206 0.9971801 0
-0.034414124 -0.014593948 0.050043873 0.019763131 0.069038205 0.99741822 0
-0.02925697 -0.011860218 0.050013136 0.010744288 0.018744463 0.99976659 0
-0.016052701 -0.019868903 0.050032545 0.0023114644 0.13403033 0.99097455 0
-0.041872825 -0.0051963064 0.050204866 -0.059357405 -0.013922274 0.9981398 0
-0.035003021 -0.0048059737 0.050094724 -0.00049204635 -0.014829121 0.99988991 0
-0.027398473 -0.0045779692 0.050057612 0.015696123 -0.0094811767 0.9998318 0
-0.042022862 0.005092931 0.050284415 -0.05561465 -0.012867672 0.9983694 0
-0.035031147 0.0051656906 0.050235003 0.0049762432 -0.012498879 0.99990946 0
-0.026742762 0.0047130347 0.050104368 0.026709145 -0.0021944391 0.99964088 0
-0.04179908 0.014648092 0.050432928 -0.072486795 -0.0042128204 0.99736053 0
-0.034905892 0.015099616 0.050318915 0.018420093 -0.003927771 0.99982256 0
-0.027732931 0.014833351 0.050137967 0.054095712 -0.00078917167 0.99853545 0
-0.041897297 0.025499661 0.050438337 -0.077272259 -0.0010849278 0.99700946 0
-0.03493483 0.02479882 0.050324682 0.019099822 0.0030608869 0.9998129 0
-0.026877791 0.025270062 0.050113373 0.036717348 0.0012890518 0.99932492 0
-0.041832078 0.034904186 0.050381586 -0.14740689 0.0086758034 0.98903793 0
-0.035100088 0.034734823 0.050268777 0.021842651 0.0073872027 0.99973416 0
-0.027599148 0.034637887 0.05006123 0.033211339 0.0088164406 0.99940944 0
-0.041618984 0.044897877 0.050389722 -0.072106138 0.0056662257 0.99738091 0
-0.035124607 0.045069937 0.05022395 0.029323416 -0.00093866786 0.99956948 0
-0.028772393 0.044275083 0.050037932 0.030618893 0.0048722979 0.99951929 0
-0.041267294 0.050976772 0.05024616 -0.025187349 0.089207113 0.99569458 0
-0.034552623 0.051739652 0.050197005 0.0023596184 0.06554506 0.99784678 0
-0.02591408 0.052733891 0.050126415 0.022768933 -0.0023181192 0.9997381 0
-0.018446833 0.053199902 0.050030656 0.016091373 -0.015297099 0.99975348 0
