# .PCD v0.7 - Point Cloud Data file format
VERSION 0.7
FIELDS x y z normal_x normal_y normal_z curvature
SIZE 4 4 4 4 4 4 4
TYPE F F F F F F F
COUNT 1 1 1 1 1 1 1
WIDTH 355
HEIGHT 1
VIEWPOINT 0 0 0 1 0 0 0
POINTS 355
DATA ascii
-0.0012501264 -0.00034783653 -2.1372474e-05 -0.51053357 -0.75863427 -0.40475872 0
0.018390507 -0.0046900189 -7.0421542e-05 -0.020014556 -0.13776805 -0.99026227 0
0.025396939 -0.0029685316 -0.00019178397 0.14439774 -0.43055239 -0.89093995 0
0.030466121 -0.00055829843 -6.1345243e-05 0.003650124 0.10272094 -0.99470347 0
-0.011057766 0.0087814843 -0.00011955796 -0.14918058 -0.11842827 -0.98169237 0
-0.0076988214 0.00459948 -0.00011999427 0.0543085 -0.25765181 -0.96471041 0
0.038036551 0.0065498464 -7.0692477e-05 0.12646827 -0.18706994 -0.97417176 0
-0.014772612 0.015753269 -0.0001275028 0.24359064 0.12860852 -0.96131337 0
0.042238038 0.012633642 -2.7865291e-05 -0.46481282 0.25389379 -0.84822571 0
-0.016957717 0.021388991 -9.8469951e-05 0.37689328 0.17414226 -0.90973955 0
0.046516683 0.027326176 -6.8113441e-05 -0.094220944 -0.020262619 -0.99534506 0
0.045340266 0.035312176 -0.00010073336 0.58255601 0.13816805 -0.80096072 0
-0.012726023 0.046381656 -0.00018542937 -0.45015222 0.065215796 -0.89056718 0
-0.0098107085 0.049816389 -0.0003158086 -0.10829318 0.16686581 -0.98001444 0
0.038700078 0.048010089 -0.00017224259 0.69228172 0.56772721 -0.44545686 0
0.042044666 0.043723308 -0.00011118941 -0.87913537 -0.44664189 -0.16622904 0
-0.0039577135 0.054002579 -0.00017624725 -0.08349368 0.14046045 -0.98655951 0
0.0043703751 0.058201905 -8.7072149e-05 0.013389114 -0.016074318 -0.99978107 0
0.015589463 0.059751526 -0.00013669149 0.020742273 -0.07053791 -0.99729347 0
0.020138707 0.059629343 -9.9217483e-05 0.19428088 0.93472373 -0.29756755 0
0.035947733 0.051299963 -0.00011022253 -0.61633396 -0.51316983 -0.59731835 0
0.0095298979 0.060250498 -0.0001125158 -0.017780118 0.96922541 -0.24553193 0
0.012454422 0.060070705 -0.00014862625 0.038031403 0.78637427 -0.61657858 0
-0.0036564209 -0.0020307102 0.0068481294 -0.41755369 -0.74970418 -0.51341265 0
0.0051689148 -0.0039007035 0.0053231693 -0.22280768 -0.53453404 -0.81524849 0
0.014993919 -0.0048889071 0.0053733313 0.00095887197 -0.46649259 -0.88452452 0
0.02499002 -0.0034414663 0.0053693363 0.49273521 -0.6615715 -0.56527436 0
0.032918662 -0.001881644 0.0072834776 0.46171117 -0.71447641 -0.52568644 0
-0.012740794 0.0068868631 0.006247852 -0.72729743 -0.55695873 -0.40104282 0
-0.005204259 0.004772719 0.0052829478 0.62895668 0.73008513 0.26718754 0
0.0048316647 0.0047532837 0.0064072008 0.14588061 0.90074044 0.40912771 0
0.015150743 0.0049403701 0.0065157898 -0.00013800296 -0.14555258 0.9893505 0
0.025244452 0.0044676405 0.0062994147 -0.38730952 0.7081911 0.59030229 0
0.035178501 0.0046312059 0.0051010824 -0.89696866 0.41685846 0.14722863 0
0.042295631 0.0071245078 0.0068208924 0.77330536 -0.54250181 -0.32816264 0
-0.020821515 0.017693283 0.007701023 -0.8964681 -0.31560302 -0.31103 0
-0.014980512 0.015139002 0.0055031981 0.084328666 0.059931286 -0.99463409 0
-0.0049797329 0.014862127 0.0066107679 0.12164558 0.083445407 -0.98905981 0
0.005059605 0.014680342 0.0063895639 -0.84016579 -0.26269272 -0.47446167 0
0.015168563 0.014894264 0.0062234439 -0.16979599 -0.096389912 -0.98075396 0
0.025240595 0.01494376 0.0062582758 0.63008374 -0.40780625 -0.66082412 0
0.034940783 0.014903017 0.0064652939 -0.4701362 0.79890823 0.37512329 0
0.044642285 0.015132588 0.0053772801 0.49066186 -0.28713977 -0.82267964 0
0.050365649 0.019241499 0.0080527952 0.98747849 -0.13241607 -0.085745469 0
-0.021715688 0.024825156 0.0075618722 -0.87710029 -0.047813464 -0.47792152 0
-0.01579478 0.025040787 0.0053209378 0.8524344 0.08309368 -0.51618892 0
-0.0050259675 0.024913548 0.0066469698 -0.01133663 -0.056370754 -0.99834555 0
0.0048168013 0.025064413 0.0064102896 -0.35730582 0.012590242 -0.93390262 0
0.015083406 0.025039256 0.0062560108 -0.56410903 -0.32498819 0.75905448 0
0.02488938 0.024864482 0.0062465603 0.54439223 0.096575126 -0.83325285 0
0.035168696 0.025011249 0.0065937112 0.74785596 0.42601055 0.50914282 0
0.045527466 0.024896709 0.005258162 -0.98465735 0.078724712 0.15573144 0
0.050640166 0.024535367 0.0080972863 0.95031846 -0.019831734 -0.31064692 0
-0.02142127 0.03437933 0.0081636431 -0.8906405 0.23153284 -0.39134648 0
-0.0155292 0.035078805 0.0056522721 0.98724556 -0.052007571 -0.15047075 0
-0.0051047569 0.03509726 0.0066012363 -0.25355709 0.054982342 -0.9657566 0
0.0051177768 0.03495758 0.0063657286 -0.87494642 -0.30211887 0.37840855 0
0.01529715 0.035235133 0.0062170494 -0.25858098 0.081839249 0.96251661 0
0.02496855 0.035106525 0.0063874996 0.71804398 0.00023822594 0.69599771 0
0.035143197 0.034988344 0.0066006104 -0.017757859 0.0066782427 -0.99982005 0
0.045349732 0.035120144 0.0053050774 -0.02685624 0.13565929 -0.99039149 0
0.050603043 0.034073487 0.0083900802 0.95695502 0.12454153 -0.26215732 0
-0.020064522 0.04050646 0.0093866903 -0.93962234 0.32691321 -0.10118093 0
-0.014060203 0.044634707 0.0054430091 -0.60753947 0.35362417 -0.71122825 0
-0.0050227907 0.045159336 0.0063220537 0.52239299 -0.84772569 -0.092014708 0
0.0049896622 0.045275692 0.006195596 -0.18323484 0.087888502 -0.97913253 0
0.015211338 0.04503268 0.006233667 -0.49013013 0.59480238 -0.63716763 0
0.025035478 0.044803046 0.0063485247 0.42504802 0.054540653 0.90352613 0
0.035568457 0.04551411 0.0059069111 -0.63656086 -0.4535813 0.6237421 0
0.043557443 0.044388995 0.0058120112 0.63534176 0.41246665 -0.65284914 0
-0.011953043 0.052062377 0.0079691513 -0.6638844 0.57701427 -0.47572258 0
-0.0046626623 0.05420465 0.0054562264 -0.23398745 0.3879247 -0.89149559 0
0.0045826943 0.055794843 0.0052681379 0.063408531 -0.97680545 0.20452508 0
0.015078289 0.055661056 0.0055742613 -0.073421389 -0.98407829 0.1618617 0
0.025190834 0.0556961 0.0050226646 0.13754158 -0.10257781 -0.98517007 0
0.034413304 0.054322992 0.0057331207 0.41798568 0.69147664 -0.58919275 0
0.041504975 0.051808693 0.0078177014 0.69172353 0.57274616 -0.43986404 0
-0.001728473 0.060926024 0.0079113636 -0.46590737 0.84296018 -0.26897651 0
0.0054417006 0.061791483 0.0070972247 -0.22042495 0.83059496 -0.51139492 0
0.014833757 0.062153444 0.0059542246 0.0059165182 0.94299477 -0.33275509 0
0.023695568 0.061816264 0.0071745059 0.35912803 0.81837094 -0.44866031 0
0.030729067 0.060394116 0.0091450438 0.47316176 0.87683564 -0.085306808 0
-0.0042772288 -0.0027415236 0.014731848 -0.38876092 -0.9212721 -0.011076228 0
0.0049735811 -0.0064472007 0.014977949 -0.70803654 0.6712786 0.21924736 0
0.014995752 -0.0074032121 0.014838471 0.40548518 0.64479399 -0.64793718 0
0.025244048 -0.0062385849 0.014997932 0.13975082 -0.98966157 0.032244593 0
0.033701599 -0.0026616226 0.015015106 0.57811022 -0.8147186 -0.044968769 0
-0.013608567 0.005702721 0.014473869 -0.73572469 -0.65189356 -0.18369496 0
-0.0070435726 0.0033510716 0.015382115 0.77494514 0.62540871 -0.091236085 0
0.038005009 0.0015752794 0.014853223 -0.63003576 0.77497429 -0.04969769 0
0.043062679 0.0060653808 0.014985042 0.69052088 -0.71734071 -0.092753135 0
-0.020962838 0.017180096 0.01536232 -0.94377619 -0.33017063 -0.016546695 0
-0.015842572 0.01383726 0.014974188 0.80650812 0.43965214 -0.39528561 0
0.047483917 0.014323082 0.014742332 -0.95272118 0.30270541 -0.026300225 0
0.050361499 0.018802118 0.015313271 0.97057211 -0.24069077 -0.0075999503 0
-0.022368141 0.025079029 0.015007404 -0.99746841 -0.069226064 -0.016261879 0
-0.017468516 0.025123913 0.014898463 0.97219872 0.14246681 -0.18582989 0
0.04908096 0.0252534 0.015095102 -0.99465132 0.10324837 0.0029216425 0
0.051077381 0.025005646 0.014863209 0.99656337 -0.075728431 -0.033565484 0
-0.021690376 0.035006605 0.01461725 -0.97597498 0.21689361 -0.020734653 0
-0.018456927 0.034821928 0.015050635 0.98807043 0.019582545 -0.15275256 0
0.048809063 0.035559922 0.015126146 -0.97533023 -0.22047478 0.011036961 0
0.050892662 0.034015711 0.015422095 0.98702341 0.15938957 -0.019489156 0
-0.020200169 0.040615503 0.015440807 -0.95421481 0.29839474 -0.020848587 0
-0.016669106 0.045347057 0.015004268 0.18280059 -0.98000103 -0.078625359 0
0.045603283 0.045107204 0.014958401 -0.67421746 -0.11052938 0.73021513 0
-0.012440468 0.052362334 0.014881089 -0.77691627 0.62649298 -0.062511787 0
-0.0057998905 0.05576833 0.014678918 0.27459371 -0.59697014 -0.75380701 0
0.001424095 0.058738619 0.015885806 0.69771326 -0.70652288 -0.11841294 0
0.02900229 0.05960983 0.014823623 -0.4121339 -0.9111014 -0.0063161477 0
0.035608128 0.056255657 0.015089653 -0.56542176 -0.71567541 -0.41000852 0
0.04172102 0.051984359 0.015381766 0.82103908 0.56710166 -0.06550131 0
-0.0021708671 0.060993962 0.015261125 -0.47166735 0.88162535 -0.016325897 0
0.0055175568 0.062742211 0.014909054 -0.011462532 0.99848342 -0.053846523 0
0.015014131 0.063767515 0.015009736 0.27704632 -0.89926869 0.33846882 0
0.024699198 0.062431086 0.014919957 0.2831291 0.9400121 -0.19030276 0
0.031224014 0.060702611 0.015820732 0.49037212 0.86958754 -0.057901844 0
-0.010089186 -8.6106615e-05 0.028482616 -0.63258535 -0.77426839 -0.018554257 0
-0.0043806955 -0.0028456093 0.025111297 -0.42163569 -0.90130925 0.099322543 0
0.0050461558 -0.0068864455 0.024974842 -0.42986444 -0.90074265 0.062284742 0
0.014921671 -0.0076540429 0.025010115 0.56762791 0.65203178 0.50264615 0
0.025041772 -0.0064702169 0.024911378 0.34153929 -0.93165952 -0.1239409 0
0.033845741 -0.0026030568 0.025067044 0.62457979 -0.78058553 -0.024214488 0
-0.013571798 0.0056068092 0.025284113 -0.76173812 -0.60023367 0.24387392 0
-0.0080185849 0.0027401673 0.024267757 0.76102728 0.60754073 0.22744624 0
0.038118999 0.0016402281 0.024799688 -0.68590122 0.72663856 0.039192148 0
0.043189678 0.0059946813 0.024962932 0.74526232 -0.66675198 0.0050913882 0
-0.021062125 0.017125044 0.024705222 -0.95301354 -0.30280885 -0.0084916921 0
-0.017208608 0.01392679 0.024637999 0.76653826 0.46112403 0.44697171 0
0.047694512 0.014233857 0.024712272 -0.97202718 0.17313121 0.15870996 0
0.050369039 0.018596334 0.025440535 0.97588921 -0.21805447 -0.0096181436 0
-0.022160778 0.024598166 0.025336655 -0.99823457 -0.059315898 0.0030789324 0
-0.018264916 0.025280301 0.02444127 0.94823819 -0.16876589 0.26900268 0
0.048980646 0.024954766 0.025229774 -0.99348408 0.11167625 0.022755006 0
0.051295523 0.024874547 0.024902785 0.99517459 -0.096764356 -0.016252492 0
-0.021838509 0.035062417 0.024681367 -0.98195094 0.18863168 -0.013798535 0
-0.01794227 0.035024058 0.024874594 0.99705887 0.063807763 0.042451669 0
0.048866212 0.035665985 0.024963541 -0.98241472 -0.1850003 0.025222387 0
0.050998349 0.034262534 0.024799895 0.98577112 0.16729398 -0.016375182 0
-0.020268112 0.041055597 0.025262779 -0.95365912 0.30025217 -0.019565867 0
-0.016578732 0.045695305 0.024858344 0.81164503 -0.57837039 0.081975549 0
0.046017867 0.045293674 0.025084555 0.64164269 -0.71257782 0.28377363 0
-0.012448465 0.052420378 0.025203057 -0.7963416 0.60386699 0.034419756 0
-0.0055172816 0.055511914 0.025060169 0.37090468 -0.81576931 0.4437905 0
0.00083094271 0.058646034 0.023835395 0.8667621 -0.4545272 0.20525202 0
0.028962633 0.059663974 0.025139714 -0.39093938 -0.92011315 0.023625705 0
0.035289381 0.055490471 0.025096787 -0.69430023 -0.7100327 -0.11747688 0
0.042041764 0.052075341 0.02507221 0.81877828 0.57310188 -0.034005988 0
-0.002112502 0.061157946 0.024775406 -0.44802985 0.8939141 -0.013666278 0
0.0053865276 0.062817298 0.024971027 0.24766302 0.94480848 0.21447611 0
0.015057709 0.063849621 0.02516792 -0.098015688 -0.99421805 0.043857303 0
0.024473799 0.062602386 0.025059378 0.28228918 0.95913291 -0.019409476 0
0.031505216 0.060926124 0.024967594 0.47717932 0.87853903 -0.021655124 0
-0.010145762 -0.00019255598 0.036860745 -0.64567566 -0.76349425 -0.013398091 0
-0.0047013341 -0.0030152674 0.035131603 -0.53306925 -0.84606922 -0.0020138961 0
0.0047981841 -0.006828459 0.034710485 0.33499426 0.93306398 0.13103588 0
0.015025384 -0.008212571 0.035052527 0.065256521 -0.78083211 0.62132353 0
0.025043398 -0.0066371327 0.035348065 0.6879974 0.26510996 0.67555624 0
0.034014646 -0.0027165057 0.034928508 0.60067666 -0.79948282 0.0038390891 0
-0.013862158 0.0052939611 0.034916721 -0.75435418 -0.65421969 0.054280713 0
-0.0085350918 0.0012157006 0.034679659 0.60188168 0.79839754 0.017311087 0
0.038371645 0.0014867296 0.034920253 -0.67558247 0.73699629 0.020608451 0
0.04327419 0.0058740801 0.035019442 0.7696557 -0.6375249 0.034525897 0
-0.020968411 0.016524639 0.034934822 -0.95409459 -0.29930627 -0.010922805 0
-0.018290626 0.014007076 0.0350063 0.92884403 0.3689231 0.033830591 0
0.047830775 0.01421946 0.034958079 -0.96166688 0.27326256 0.022900116 0
0.050449435 0.018112624 0.034897733 0.96500123 -0.26098752 -0.025655672 0
-0.021651099 0.024714747 0.03524581 -0.90073514 -0.25678706 0.35033786 0
-0.019567391 0.026831847 0.031330608 0.92469537 -0.069463626 0.37431714 0
0.04937949 0.025120413 0.035132408 -0.99669737 0.071914561 0.037718628 0
0.051470805 0.024727361 0.035336938 0.99548936 -0.092139669 -0.022610627 0
-0.021624165 0.034289155 0.035662424 -0.97862822 0.20487031 0.017749036 0
-0.019156964 0.035518751 0.033959754 0.97342265 -0.12755926 0.19020268 0
0.049104095 0.035334308 0.03449358 -0.98820096 -0.14914569 0.034848545 0
0.051098697 0.034513142 0.034900729 0.98298329 0.18319774 -0.013509154 0
-0.020451948 0.041041404 0.03535974 -0.94015104 0.34051722 -0.012809946 0
-0.016988747 0.045551445 0.035031773 0.84749234 -0.50620168 0.15973905 0
0.046448015 0.045046039 0.035190098 0.99233001 0.12361237 -0.001026845 0
-0.012400616 0.052657306 0.035410561 -0.72856575 0.68464196 0.021383926 0
-0.0059933355 0.057184897 0.034908134 0.51955944 -0.8009122 0.29765353 0
0.00018619925 0.059787124 0.032560445 0.90045619 -0.42533123 0.090950772 0
0.029523982 0.059749454 0.034604941 -0.47430387 -0.87999511 0.025388256 0
0.035528332 0.056429114 0.034811236 -0.59348452 -0.69365489 0.40818992 0
0.042118985 0.052045099 0.035516962 0.80254436 0.59591246 0.02847808 0
-0.002129945 0.06116667 0.035315312 -0.45185837 0.89207077 -0.0058079986 0
0.0050878953 0.062965035 0.035182778 0.4596923 -0.80798632 0.36856622 0
0.014882213 0.064240046 0.034846317 -0.27097389 0.96039099 0.064979091 0
0.024802817 0.062657058 0.035262663 -0.48550808 0.12241807 0.86561871 0
0.03167586 0.061058402 0.034836426 0.4745985 0.88000798 -0.018500613 0
-0.010285261 -0.00022432735 0.045414291 -0.63544434 -0.77198923 -0.015592989 0
-0.004538734 -0.0032954838 0.044955593 -0.55721325 -0.83032435 -0.0086553609 0
0.0049784044 -0.0071972031 0.044810303 -0.31284258 -0.94969922 -0.0141772 0
0.015032429 -0.0083855465 0.045015704 0.96138239 0.23005354 -0.15106054 0
0.024902305 -0.0067767031 0.044941444 0.007683848 -0.99807543 -0.06153468 0
0.034084305 -0.002901563 0.044642717 0.56261432 -0.82665002 0.010718198 0
-0.014018271 0.005377722 0.045006808 -0.66041368 -0.73924387 0.13180414 0
-0.0084939022 0.0010623243 0.044639233 0.63162553 0.77495098 0.022363076 0
0.03829195 0.0013665791 0.044405993 -0.64581633 0.7634818 -0.0040896521 0
0.043500546 0.0058885165 0.044799063 0.81285781 -0.58245635 0.0026145892 0
-0.021056943 0.016665995 0.045172751 -0.9538995 -0.29970902 -0.015821615 0
-0.018520415 0.0140786 0.044934582 0.93193257 0.36205035 0.020521771 0
0.047945064 0.014117245 0.045056552 -0.95206279 0.30565044 0.012417533 0
0.050694052 0.018154809 0.045321181 0.94701207 -0.32062238 -0.019220321 0
-0.021734059 0.024888419 0.045062799 0.47146946 -0.87492192 -0.11058178 0
0.049644098 0.024639804 0.044438526 -0.99597603 0.085696727 0.026226593 0
0.051417388 0.025531355 0.045325115 0.99667728 -0.08126197 -0.0055647008 0
-0.021512855 0.034358781 0.044906206 -0.96643221 0.25621206 0.019085599 0
-0.019509025 0.037721917 0.044815317 0.96989965 -0.24288896 0.01730521 0
0.049274519 0.035294645 0.044917848 -0.98285896 -0.18346439 0.018137848 0
0.051172901 0.034847833 0.04520357 0.98091209 0.19396512 -0.01374866 0
-0.020503867 0.041247584 0.045027547 -0.92284328 0.38478065 -0.017440286 0
-0.017015206 0.045486126 0.045022152 0.88712072 -0.46150112 0.0057937228 0
0.04639779 0.045213275 0.044781458 -0.69292051 -0.71000397 0.12552099 0
-0.012459512 0.052843578 0.044997174 -0.72484672 0.68890792 0.0017935046 0
-0.0062783514 0.057580538 0.044891525 0.56859636 -0.82123017 0.047741257 0
0.029876048 0.059926618 0.044443186 -0.45896184 -0.88749087 0.041398458 0
0.03599906 0.056841537 0.04503163 -0.54914302 -0.83245844 0.073856853 0
0.04211548 0.052211083 0.044960942 0.76272374 0.64669311 0.0063692154 0
-0.0020124097 0.061002295 0.044800486 -0.45341358 0.89109957 -0.018916667 0
0.0049381554 0.06321121 0.045079567 -0.27819893 0.95921433 -0.050131813 0
0.014912567 0.064311139 0.045029983 -0.047810931 -0.99511063 0.086422563 0
0.024924569 0.062907398 0.045131516 -0.18437703 0.96849692 0.16738789 0
0.032026943 0.061038017 0.044899855 0.48571715 0.87394369 -0.0173561 0
-0.010408415 -0.00040087197 0.05543321 -0.63260663 -0.7740131 -0.026692126 0
-0.0048051234 -0.0032408785 0.05506045 -0.48562676 -0.87399495 -0.017305953 0
0.0050602183 -0.007335823 0.055073399 -0.32939905 -0.93450463 0.13489786 0
0.015004436 -0.0085010305 0.055174753 0.20491989 0.97780949 -0.043547247 0
0.025107132 -0.006993854 0.055033408 0.1738217 -0.98060268 0.090577416 0
0.034218997 -0.0028920164 0.054904386 0.51365227 -0.85738111 0.032544706 0
-0.014269717 0.005353807 0.055008002 -0.8662703 -0.49869096 -0.029717086 0
-0.0088144401 0.00099331548 0.055281911 0.64073169 0.76747245 0.021188371 0
0.038340498 0.0014648325 0.055129703 -0.63067365 0.77526271 0.034907367 0
0.043414637 0.0055580488 0.054911885 0.78155494 -0.62375939 0.0097986823 0
-0.02123837 0.017050806 0.055016104 -0.95407617 -0.29854378 -0.024704821 0
-0.018530656 0.013674936 0.05471047 0.94119525 0.33786282 -0.00022949162 0
0.047998488 0.01388029 0.05502034 -0.97360921 0.22812861 -0.0065268981 0
0.050780788 0.01796212 0.05505095 0.95408434 -0.29946771 -0.0064882757 0
-0.021887299 0.024993727 0.055043735 -0.74946356 -0.66063178 0.04324453 0
0.049606893 0.022452595 0.054663543 -0.99215716 0.12397971 0.01590953 0
0.051246483 0.025662713 0.055168655 0.99680352 -0.079217277 0.010361569 0
-0.02161916 0.034352262 0.05518841 -0.94765812 0.31868294 -0.019630237 0
-0.019602418 0.038271368 0.054667965 0.96861744 -0.24695671 0.028152442 0
0.049304813 0.035766169 0.054809399 -0.9767136 -0.21336932 0.022451546 0
0.051105905 0.034577306 0.054983228 0.97883379 0.2044524 -0.0091430442 0
-0.020638047 0.041533757 0.055749353 -0.92702287 0.37437421 -0.021736972 0
-0.017217483 0.045740839 0.054928325 0.88365346 -0.46619269 0.042672649 0
0.046577644 0.045405217 0.054948583 -0.40532148 -0.91304165 0.045490518 0
0.050093204 0.040295269 0.058195852 0.94513661 0.32538879 -0.028963925 0
-0.01257461 0.052861795 0.055098411 -0.68230867 0.73103994 -0.0059603155 0
-0.0064455895 0.05758908 0.054919604 0.5483138 -0.83584422 0.026766377 0
0.03594913 0.057246611 0.054980531 -0.51727122 -0.85551989 0.022719301 0
0.042252347 0.052309588 0.054968894 0.74331576 0.66686672 -0.05263596 0
-0.00231429 0.061188798 0.055034459 -0.43489361 0.9001351 -0.024988154 0
0.0048825196 0.063369721 0.054917034 -0.30115673 0.95275605 -0.039502587 0
0.014986655 0.064689726 0.054898754 0.067193903 0.99764979 -0.013411074 0
0.025144592 0.063039124 0.054799847 0.064778373 0.99708146 -0.040400986 0
0.031937674 0.061125286 0.055190902 0.45775387 0.88892233 -0.016687118 0
-0.0023338047 -0.011187497 0.068806328 -0.18466637 -0.69460946 -0.69528115 0
0.0050818911 -0.012534627 0.069224566 0.011448227 -0.040794782 -0.999102 0
0.01493417 -0.012521651 0.068535998 -0.019540003 -0.36175922 -0.93206674 0
0.024328155 -0.012181588 0.069194533 0.049968857 -0.011432321 -0.99868536 0
0.031584281 -0.010697242 0.069232889 0.36166275 -0.8098886 -0.46182296 0
-0.012154388 -0.0024149334 0.068257585 -0.38448498 -0.35851121 -0.85067093 0
-0.0051807733 -0.0041738595 0.065657251 -0.36483535 -0.58605462 -0.72348821 0
0.0046955096 -0.0074142069 0.065137826 0.039720647 -0.086909473 -0.99542403 0
0.015187794 -0.0086461045 0.064905837 0.1024411 0.78420216 0.61199093 0
0.024964815 -0.0073231217 0.065376021 0.20462894 -0.72450018 -0.65819943 0
0.034492083 -0.0037712094 0.065702051 0.46231171 -0.6518144 -0.60117036 0
0.043105956 -0.0026729514 0.069160931 0.23665914 -0.24338293 -0.94061536 0
-0.02135589 0.0067252521 0.069434516 -0.33302197 -0.1142616 -0.93597043 0
-0.014723518 0.005110085 0.065262802 -0.43062195 -0.2014517 -0.87976241 0
-0.0090644332 0.0010005685 0.064488955 0.67035151 0.74181157 0.018560741 0
0.038541924 0.0012148006 0.065246068 -0.68719792 0.72234356 0.077322848 0
0.044202339 0.0051529426 0.065980159 0.34906554 -0.30793956 -0.88505727 0
0.051432725 0.0074375696 0.068434574 0.62177795 -0.19569926 -0.75834942 0
-0.022641711 0.016444739 0.066638611 -0.77052963 -0.39468151 -0.50051039 0
-0.018690463 0.013443035 0.064929128 0.92394322 0.37962916 0.047018338 0
0.048120871 0.014063831 0.065225326 -0.96582657 0.25359869 -0.053542025 0
0.052104875 0.016646072 0.066889003 0.87228048 -0.20281583 -0.44496337 0
-0.022964051 0.024849078 0.065984763 0.048100866 -0.021937998 -0.99860156 0
0.049702134 0.021434879 0.064109109 -0.98182106 0.18455854 0.04433452 0
0.052283891 0.02530059 0.06644205 0.63542014 -0.05303365 -0.77034318 0
-0.022860339 0.034726929 0.066088445 -0.32920474 0.17354785 -0.92817312 0
-0.01970828 0.039034344 0.064898349 0.95284808 -0.30248281 0.024181869 0
0.049270939 0.037001614 0.064743362 -0.96417689 -0.26484561 0.014824649 0
0.051926754 0.034332111 0.066102907 0.79475719 0.15304734 -0.58731383 0
-0.022488331 0.043927025 0.067568511 -0.71269131 0.24931207 -0.65567869 0
-0.017447688 0.045708291 0.064984001 0.88974386 -0.45624939 -0.01386803 0
0.04685352 0.045454316 0.064985059 -0.87595373 -0.45035991 -0.17286138 0
0.052059956 0.043508302 0.068460226 0.4820272 0.20438857 -0.85198307 0
-0.021080518 0.051346242 0.068712756 -0.64672267 0.49003789 -0.58447635 0
-0.013743063 0.053833481 0.066103272 -0.33516288 0.35879532 -0.87116688 0
-0.0069078128 0.057657629 0.064955086 0.50052041 -0.86135781 0.086845115 0
0.036396522 0.057136755 0.064986385 -0.59411949 -0.80436498 -0.0043637129 0
0.043612376 0.05348406 0.066588201 0.44784287 0.42834055 -0.78483182 0
0.050191477 0.050469864 0.069244906 0.8634553 0.45069543 -0.22653581 0
-0.011373891 0.061453644 0.068953358 -0.45937553 0.54981893 -0.69761974 0
-0.0033607825 0.062585808 0.066680275 -0.31317523 0.685583 -0.65718883 0
0.0048642168 0.06426587 0.065967686 -0.036499202 -0.15658624 -0.98698962 0
0.014970618 0.06531778 0.065816246 0.0078594042 -0.22119519 -0.97519785 0
0.024893343 0.064313069 0.066025823 -0.0075310534 0.16700727 -0.98592693 0
0.033117622 0.062348392 0.066608258 0.40895933 0.71682805 -0.56472105 0
0.041462328 0.060634233 0.069507018 0.38771874 0.50956553 -0.76812571 0
0.0087799458 0.070492908 0.069426052 -0.069846705 0.7972945 -0.59953558 0
0.014757558 0.070577353 0.069526136 0.059311859 0.60466355 -0.79426962 0
0.021419093 0.070229173 0.06958095 0.18526718 0.97961235 -0.077689916 0
-0.0022411388 -0.010940658 0.071313068 -0.31837022 -0.76756823 0.55630863 0
0.005394117 -0.012140112 0.071725339 -0.15022255 -0.63250917 0.75984561 0
0.015038086 -0.012601746 0.071770869 -0.01573839 -0.45933998 0.88812107 0
0.02463235 -0.01264467 0.071941927 0.19416724 -0.62269831 0.75798815 0
0.031795356 -0.010700958 0.071362928 0.39612988 -0.88936186 0.22829078 0
-0.012817279 -0.002526093 0.071630113 -0.52466226 -0.54987079 0.64990133 0
-0.0056322259 -0.0051923562 0.071649015 0.083005667 0.20895438 0.97439623 0
0.0045661284 -0.0080735898 0.071535073 0.18788604 0.69185925 0.69715828 0
0.014800788 -0.0088126175 0.071330428 0.086566284 0.81073183 0.57898206 0
0.025135357 -0.0078101819 0.071532622 -0.17186411 0.70647967 0.68654877 0
0.035673164 -0.0053816987 0.071423478 -0.015729083 0.033315498 0.9993211 0
0.042319931 -0.0027673435 0.071679644 0.44651166 -0.52094686 0.72749001 0
-0.022341803 0.007202113 0.071537971 -0.67182475 -0.42513642 0.60655636 0
-0.015710387 0.0044668252 0.071498983 0.35227883 0.25925434 0.89927018 0
-0.0091426922 0.00065103167 0.070519321 0.68802232 0.69755679 0.2000995 0
0.039529625 0.0010974533 0.070818834 -0.67839664 0.4828749 0.55372357 0
0.045367394 0.0046954053 0.071912862 -0.15863939 0.12196776 0.97977412 0
0.051442727 0.007536795 0.071455754 0.74559224 -0.36762056 0.5558303 0
-0.023274295 0.015513449 0.071710385 -0.28538948 -0.070545971 0.9558118 0
-0.018818712 0.012266294 0.071218029 0.67272669 0.34340701 0.65537059 0
0.048392415 0.01378471 0.071160577 -0.66787624 0.26108709 0.69697547 0
0.052758422 0.016124729 0.071667269 0.50397605 -0.16035132 0.84870225 0
-0.025013376 0.024749167 0.071840569 -0.070086531 -0.0098047825 0.99749273 0
0.049891908 0.020769764 0.070926324 -0.46644816 0.16053565 0.86985886 0
0.053501014 0.024841653 0.071611106 0.0072597209 0.032353938 0.99945009 0
-0.02401717 0.035547625 0.071827903 0.076544218 0.017109808 0.99691933 0
-0.019865619 0.039164323 0.0709664 0.91343588 -0.36465749 0.18072058 0
0.049432978 0.037610117 0.071155205 -0.8870824 -0.2584579 0.38247123 0
0.052927341 0.034885302 0.071517617 0.23779285 -0.014773102 0.97120357 0
-0.022606801 0.043800157 0.071638212 -0.51349372 0.26061678 0.81755924 0
-0.018140173 0.046726719 0.071373425 0.69644189 -0.37420827 0.61232084 0
0.047549427 0.045620684 0.071345523 -0.62243831 -0.2690987 0.73495334 0
0.052308962 0.044201836 0.071942143 0.52503008 0.19010647 0.82958007 0
-0.020743396 0.051748566 0.071219914 -0.75004447 0.52454799 0.4028433 0
-0.014585508 0.054589748 0.071561255 -0.043399364 0.0037589944 0.99905068 0
-0.0079720896 0.058261082 0.071148477 0.47506347 -0.62690026 0.61750364 0
0.036965109 0.057988066 0.071285814 -0.48751429 -0.70640349 0.51315105 0
0.044228617 0.054476641 0.071694858 0.18763356 0.18727553 0.96422064 0
0.0503929 0.050891627 0.071461193 0.86676824 0.49671409 0.044586599 0
-0.011765362 0.061955228 0.071499676 -0.54024309 0.67743874 0.49921367 0
-0.0043625962 0.063469701 0.071698681 -0.064558014 0.20501101 0.9766283 0
0.0045869374 0.065785497 0.071560957 -0.014019966 -0.10288459 0.99459451 0
0.014731131 0.066661157 0.071903452 -0.011488675 -0.22709981 0.9738037 0
0.025417401 0.065971814 0.07164602 0.089113824 0.1681421 0.98172659 0
0.034067463 0.062772967 0.071559444 0.13717429 0.33718592 0.93139082 0
0.040833175 0.061210398 0.07120657 0.57372701 0.73983884 0.35139126 0
0.0083518783 0.070320979 0.071075492 -0.11903944 0.83777034 0.53288865 0
0.014275851 0.070587784 0.070870914 0.032379828 0.83542794 0.54864538 0
0.020439913 0.070242859 0.07039424 0.22658387 0.92200166 0.31396303 0
