# .PCD v0.7 - Point Cloud Data file format
VERSION 0.7
FIELDS x y z normal_x normal_y normal_z curvature
SIZE 4 4 4 4 4 4 4
TYPE F F F F F F F
COUNT 1 1 1 1 1 1 1
WIDTH 642
HEIGHT 1
VIEWPOINT 0 0 0 1 0 0 0
POINTS 642
DATA ascii
0.034956988 -0.11887294 0.0086768074 -0.063908368 0.82098722 -0.56735849 0
0.044120934 -0.11917902 0.009018247 0.16674393 0.83015978 -0.53200674 0
-0.075232647 -0.062627345 0.0069449604 -0.20019528 -0.73222619 -0.65097368 0
-0.066097692 -0.062641159 0.0076481621 0.36138499 -0.54711503 -0.75502717 0
-0.080161825 -0.051231731 0.0040231245 -0.98550582 -0.084212616 -0.14726348 0
-0.076723665 -0.055528853 0.0039242394 -0.63457358 -0.21420838 -0.74258411 0
-0.065557674 -0.054951631 0.0041552121 0.79892218 -0.21890885 -0.56018072 0
0.027945604 -0.054520104 0.0067763957 -0.84679198 -0.34018296 -0.40892401 0
0.03530116 -0.054415222 0.0057094027 0.097876541 -0.64589828 -0.75712323 0
0.042652562 -0.053298116 0.0067961183 0.78607434 -0.42444488 -0.44937041 0
-0.080437049 -0.045078911 0.0041897614 -0.99803978 -0.020976925 -0.058961492 0
-0.076538861 -0.045421023 0.0035527414 -0.53158611 -0.021093434 -0.84674162 0
-0.065812007 -0.045000274 0.0038004203 0.84007579 0.10272503 -0.53265393 0
0.02739623 -0.044920705 0.0052034282 -0.92227501 -0.13408008 -0.36253443 0
0.034753501 -0.045008797 0.0018154754 -0.11380906 -0.24922414 -0.96173537 0
0.042011045 -0.04511825 0.0046862038 0.97817373 0.046379384 -0.20254634 0
-0.080930166 -0.035848841 0.0061823125 -0.88774616 0.21617846 -0.40641567 0
-0.07525 -0.03485287 0.0053398847 -0.057140242 0.62589246 -0.77781337 0
-0.066615179 -0.035824042 0.0057652402 0.70216244 0.45984569 -0.54360825 0
0.026954336 -0.034653552 0.0041641463 -0.91020656 0.012357716 -0.41397017 0
0.035191823 -0.035329569 0.0011619596 0.06038522 0.15726994 -0.98570788 0
0.041466963 -0.034928314 0.0049181678 0.97718209 0.074171789 -0.19903173 0
-0.071813777 -0.029593572 0.009908217 -0.13272388 0.74736553 -0.65102166 0
-0.068034932 -0.029315103 0.0097502833 0.024546608 0.62856305 -0.77737117 0
0.02722238 -0.027184764 0.0074290903 -0.48811361 0.60847628 -0.62570107 0
0.035063215 -0.026234325 0.0061678616 -0.12292892 0.72859997 -0.67381787 0
0.041352991 -0.027113719 0.0065620607 0.9606998 0.22990495 -0.15556218 0
-0.0038794361 0.087480389 0.0055673914 -0.52805799 -0.84262592 -0.1055287 0
0.0053731287 0.085850291 0.005812801 -0.5309912 -0.69878829 -0.47931534 0
0.01136028 0.088230669 0.0047622556 0.8053937 -0.59035748 -0.053094652 0
-0.013066758 0.096251942 0.0044160988 -0.62813419 -0.72795659 -0.2748211 0
-0.0075156903 0.092755489 0.0071826 0.62524509 0.56952739 -0.53357959 0
0.0058872281 0.090548798 0.008840519 -0.29623663 0.92278188 -0.24640927 0
0.015170863 0.094876297 0.0052760965 0.63584828 -0.63286471 -0.44179085 0
0.020380143 0.099480458 0.0074375411 0.83138573 -0.47840595 0.28271112 0
-0.01277689 0.10490452 0.0051622507 -0.70041454 0.6309393 -0.33366892 0
-0.0059191491 0.10578593 0.0065044817 -0.16475879 -0.57802528 -0.79921293 0
0.0038272438 0.1056376 0.0078037824 0.40075469 -0.45943907 -0.79266095 0
0.016168561 0.10512168 0.0052659009 -0.77592576 -0.32790145 -0.5389061 0
0.020772574 0.10358314 0.0054791062 0.99679458 0.05406395 -0.058971006 0
-0.010457497 0.11013555 0.0029325737 -0.82365072 0.52994615 -0.20188244 0
-0.0044056657 0.11433677 0.0045350958 -0.47177488 0.8804279 -0.047699515 0
0.0047501903 0.11574736 0.0056216144 0.33373407 0.8944968 -0.29748437 0
0.012689233 0.1119489 0.0055605997 0.63432831 0.77199584 0.040621344 0
0.0022391519 0.12039354 0.0078806644 -0.15118742 0.98203486 -0.11291496 0
-0.011132509 -0.18144895 0.013850221 -0.25820345 -0.96191388 -0.089736685 0
-0.0087535037 -0.18123427 0.015318942 0.38788846 -0.90705764 -0.16367318 0
-0.051841289 -0.17027913 0.019435238 -0.17293756 -0.75488263 -0.63264906 0
-0.044095524 -0.17140314 0.01947155 -0.14517181 -0.25624686 -0.95564777 0
-0.033996493 -0.17142983 0.01824137 -0.28906241 0.2409384 -0.92649424 0
-0.025621021 -0.17164174 0.016954551 -0.085180916 -0.90599686 -0.41462493 0
-0.014048914 -0.17438643 0.014432038 -0.72471613 -0.67518908 -0.13749972 0
-0.0058631864 -0.17366019 0.014090055 0.78229481 -0.59851712 -0.17260377 0
0.0015563926 -0.17012814 0.016535787 0.076214023 -0.99659318 -0.03151786 0
-0.072256029 -0.16233081 0.01563636 -0.70522428 -0.69392562 -0.14534767 0
-0.064664483 -0.16296409 0.014931785 0.010091249 -0.9485423 -0.31648967 0
-0.055573136 -0.16490352 0.016793225 0.41075745 -0.53185683 -0.7405448 0
-0.048964422 -0.16912498 0.018579876 0.67211342 0.60293174 -0.42981017 0
-0.023567976 -0.16962078 0.016804297 -0.15433288 0.9850505 -0.076530039 0
-0.014955383 -0.16800497 0.015236781 -0.28223646 0.94538045 -0.16308995 0
-0.0054332847 -0.16607361 0.014989714 -0.021870039 0.85780239 -0.5135141 0
0.0049737613 -0.16742601 0.016817477 0.38487193 0.25129372 -0.88810199 0
0.01318879 -0.1682525 0.018445175 0.3526763 0.069254145 -0.93317914 0
0.024611071 -0.16587156 0.0196141 -0.23505673 0.44237483 -0.8654784 0
-0.072653838 -0.15546703 0.01468761 -0.99990672 0.013022508 0.0041222512 0
-0.060259447 -0.15965302 0.010048591 0.16833259 -0.63902748 -0.75053847 0
-0.057387564 -0.15486787 0.014840294 0.99778038 0.05455688 -0.038182124 0
0.035341844 -0.15484704 0.015636288 -0.80026597 -0.55908048 -0.21680306 0
0.04607499 -0.15471368 0.014711684 0.38742149 -0.88678724 -0.2520178 0
0.050259646 -0.15408926 0.014866543 0.99598455 0.089523256 0.00052371103 0
-0.073237881 -0.14444919 0.01480757 -0.99318987 -0.065486059 -0.096360676 0
-0.056000285 -0.14351173 0.015902577 0.96325803 0.21302955 -0.16356146 0
-0.045283545 -0.14116941 0.017484922 0.10366923 -0.2862837 -0.95252001 0
-0.034937166 -0.14073259 0.017815374 0.10749605 -0.47435501 -0.87374592 0
-0.025520524 -0.140332 0.018362943 0.069374248 -0.99514228 -0.069850564 0
0.033397347 -0.14494379 0.015149556 -0.99677241 -0.074190065 -0.030669745 0
0.048901122 -0.1450562 0.014953739 0.99309373 0.10993221 0.040984061 0
-0.074109055 -0.13470407 0.015250157 -0.99229163 -0.12322582 0.013144952 0
-0.058685645 -0.13500026 0.015221634 0.99844176 0.052651916 -0.01848915 0
-0.044511523 -0.139789 0.019394459 -0.048832655 0.93245554 -0.3579694 0
-0.034110177 -0.13955373 0.019066207 -0.033967011 0.81565338 -0.5775429 0
-0.026371619 -0.13647264 0.019129377 0.022184659 0.51678544 -0.85582745 0
-0.015617193 -0.13939063 0.018902816 0.11968926 -0.20027243 -0.97240186 0
-0.0035994649 -0.13874035 0.019297501 -0.13890815 -0.39217111 -0.9093439 0
0.004935876 -0.1367033 0.018619137 -0.014631731 0.34831271 -0.9372642 0
0.015431064 -0.13702017 0.017513443 -0.066128954 -0.68949968 -0.72126079 0
0.02517093 -0.13613626 0.016156098 -0.15040606 -0.0049356953 -0.988612 0
0.032402035 -0.13569766 0.015095893 -0.99486887 -0.067211971 -0.07562042 0
0.048093785 -0.13472204 0.014985008 0.99875623 0.049329549 -0.007250634 0
-0.074229367 -0.12606734 0.014734299 -0.86047858 0.49983674 -0.098690435 0
-0.064967342 -0.12264116 0.014708245 -0.15916927 0.92334944 -0.34941512 0
-0.059169546 -0.12573805 0.015291608 0.99237776 0.10703007 -0.061081428 0
-0.028402561 -0.12484559 0.019168109 0.36017072 0.040856361 -0.9319914 0
0.0020591409 -0.12362535 0.019388514 -0.75056618 -0.16107844 -0.64086205 0
0.032081649 -0.12502338 0.014876856 -0.99666655 -0.08153639 -0.0027701345 0
0.047785349 -0.12514916 0.015212703 0.9997685 0.0079146698 -0.020007009 0
-0.060759529 -0.11524419 0.018614382 -0.79122078 -0.048303191 -0.60961998 0
-0.059626311 -0.11531085 0.018706189 0.99709696 0.048750211 -0.058489781 0
-0.030405153 -0.11364182 0.019576734 -0.95145369 -0.068281665 -0.30012244 0
-0.028923023 -0.11548588 0.019063974 0.21410397 0.027000371 -0.97643763 0
0.0015084456 -0.11596414 0.019345623 0.32782131 -0.010521552 -0.94468117 0
0.033011481 -0.11520035 0.0153783 -0.29364938 0.87859493 -0.37661776 0
0.045539916 -0.11647099 0.015429469 0.59371769 0.71977806 -0.35974836 0
-0.061008435 -0.10463294 0.018854583 -0.29044864 0.030529231 -0.95640349 0
-0.059887215 -0.1081387 0.018760078 0.99898654 0.037337761 0.025136193 0
-0.030878603 -0.1048322 0.019393871 -0.81412333 -0.045781553 -0.57888454 0
-0.029554399 -0.10791379 0.019285802 0.75503188 0.11572049 -0.6453957 0
-0.00046025869 -0.10494514 0.019452978 -0.90641701 -0.11009703 -0.40778285 0
0.00098545465 -0.10553653 0.019159853 0.61285704 0.039584044 -0.78920168 0
0.029918954 -0.10125381 0.0193047 -0.99397755 -0.095958382 0.052921109 0
0.030667735 -0.10623135 0.018287458 0.13162394 -0.075530082 -0.9884181 0
-0.061487515 -0.094857134 0.019220809 -0.094512932 0.01461528 -0.99541634 0
-0.031582307 -0.09493117 0.019451691 -0.080663659 -0.037774824 -0.99602532 0
-0.0010700613 -0.093902715 0.019221066 -0.5494175 -0.041540202 -0.83451474 0
0.00045288872 -0.095939122 0.019125698 0.81308198 0.053886205 -0.57964981 0
0.029393895 -0.094546624 0.019191913 -0.93034291 -0.085767828 -0.35651931 0
0.030716155 -0.093933553 0.019148154 0.35913897 0.027586697 -0.93287629 0
-0.06202152 -0.084041752 0.018346792 -0.49589473 -0.12354975 -0.85954857 0
-0.031499706 -0.084539883 0.019334853 0.081401736 -0.078898765 -0.99355358 0
-0.0011825159 -0.084945388 0.019256089 0.050049614 0.00079482049 -0.99874645 0
0.00010350178 -0.088695347 0.019576598 0.99760538 0.06816528 -0.011707878 0
0.02892077 -0.084415026 0.01918735 -0.67517668 -0.029414007 -0.73706937 0
0.030534208 -0.085844025 0.019377338 0.82234341 0.088398539 -0.56208277 0
-0.062746614 -0.074827217 0.016531829 0.64307976 -0.08632613 -0.76091808 0
-0.032384474 -0.075511865 0.019219633 -0.43032017 -0.031953257 -0.90211064 0
-0.0017441326 -0.074726559 0.019118316 0.096430488 0.0018448199 -0.99533802 0
0.028949602 -0.075682186 0.019325482 0.47673354 0.14068986 -0.86771625 0
0.030030556 -0.079970524 0.019597547 0.97794074 0.12156191 -0.16986667 0
-0.076646529 -0.065938622 0.015186581 -0.69510007 -0.69968146 -0.16517171 0
-0.064588971 -0.066123806 0.014911956 0.79647964 -0.56133151 -0.22478224 0
-0.032899406 -0.065389842 0.019270748 -0.14702298 -0.011635658 -0.98906469 0
-0.002555547 -0.064698182 0.019245494 -0.071967505 0.081694186 -0.99405569 0
0.028242936 -0.06356778 0.017815245 -0.34423196 -0.80568069 -0.4820613 0
0.034234796 -0.06090837 0.017524224 0.10663612 -0.96507084 -0.23930539 0
0.04177133 -0.060527109 0.018912064 0.11220422 -0.96800596 -0.224443 0
-0.081314392 -0.050504237 0.019183174 0.98185158 -0.14809845 0.11846688 0
-0.079184212 -0.055279665 0.015547673 -0.99882752 -0.048218608 -0.0043108752 0
-0.063976765 -0.055174027 0.0141799 0.99648696 0.081696935 -0.01841964 0
-0.033345029 -0.055355672 0.019141383 0.197422 0.084515147 -0.97666872 0
-0.003836497 -0.056614295 0.019409023 -0.82013273 -0.023167944 -0.57170403 0
0.027475219 -0.056199841 0.014660513 -0.98991984 -0.13569519 -0.040565148 0
0.035286926 -0.059023056 0.012602153 0.14580446 -0.91807741 -0.36861232 0
0.04322027 -0.054795731 0.015121511 0.98778546 -0.090069227 -0.12715147 0
-0.080506936 -0.045810923 0.017411679 -0.99852419 0.018441135 -0.05108279 0
-0.079708427 -0.046243444 0.014800754 -0.99804235 -0.062519632 -0.0016764285 0
-0.063960448 -0.045640282 0.015367476 0.97825783 0.19978884 -0.05564167 0
-0.054805275 -0.046861377 0.017050849 0.10664741 0.32006764 -0.94137287 0
-0.045289058 -0.046455152 0.018223088 0.13179313 -0.62227142 -0.77162743 0
-0.035415281 -0.046016872 0.018940633 0.31434482 -0.16496268 -0.93486613 0
-0.026980648 -0.044350054 0.019448472 0.20756374 -0.4233816 -0.88185328 0
-0.014513114 -0.043529455 0.019559748 0.057190854 -0.843786 -0.53362387 0
-0.004207707 -0.044519514 0.019466212 0.45367703 -0.2448978 -0.85685599 0
0.005391513 -0.042343996 0.018305071 -0.26828867 0.60163021 -0.75237113 0
0.015356142 -0.041948076 0.017152939 -0.19879711 0.036676791 -0.97935408 0
0.024843713 -0.04281332 0.015525121 -0.98094535 -0.1577321 -0.11343125 0
0.042184938 -0.044179618 0.015101954 0.99471623 -0.039610248 -0.094713256 0
-0.080965355 -0.035294946 0.015115625 -0.98855972 -0.14989732 -0.016749343 0
-0.078380227 -0.030125132 0.010636692 -0.13272388 0.74736547 -0.6510216 0
-0.065460578 -0.035394508 0.01508742 0.99858141 0.052472632 -0.0090442086 0
0.026007822 -0.03537973 0.015129033 -0.99597043 -0.089057997 -0.01056494 0
0.041696507 -0.035637014 0.014699169 0.98992914 0.13421838 -0.045008469 0
-0.08167313 -0.02845362 0.015612144 -0.772313 0.58652723 -0.24396411 0
-0.075008661 -0.027703086 0.015187652 -0.063913479 0.9736253 -0.21901782 0
-0.065839246 -0.02597142 0.015535348 0.48758677 0.72338206 -0.48885325 0
0.025873212 -0.023905693 0.014774397 -0.94652265 0.19554283 -0.25662768 0
0.034612123 -0.021377778 0.01262787 -0.015973642 0.8353377 -0.54950505 0
0.041178156 -0.024744978 0.015223522 0.99938804 -0.020599097 -0.028272023 0
-0.061906375 -0.018537361 0.019195227 -0.57076198 0.51749951 -0.63751477 0
-0.054646246 -0.016323958 0.019249374 0.084455006 -0.44826367 -0.88990271 0
-0.044676527 -0.015190968 0.019159693 0.03786524 0.06298282 -0.99729604 0
-0.034666877 -0.014810557 0.019311525 0.054450855 0.12199315 -0.9910363 0
-0.025231201 -0.014160522 0.019379443 -0.094386816 0.3251462 -0.94094157 0
-0.014783327 -0.013625929 0.019333001 -0.022438463 -0.45941359 -0.88793904 0
-0.0043851594 -0.01253286 0.01928493 -0.069299623 0.34730777 -0.9351871 0
0.0049251784 -0.0115729 0.019199351 -0.068292722 0.30380604 -0.95028317 0
0.014532277 -0.011632148 0.019125709 0.026082469 -0.13930625 -0.98990583 0
0.024953196 -0.017965822 0.017956153 0.086105131 0.92288065 -0.37533608 0
0.035195116 -0.01935905 0.017153881 -0.040097628 0.9864701 -0.15896234 0
0.041023985 -0.019268285 0.017225804 0.35279202 0.91659784 -0.18811202 0
0.012811891 -0.0098825376 0.019718006 -0.095319197 0.99467409 -0.039213277 0
-0.0030198493 0.089614123 0.012507969 -0.080376126 -0.98333412 0.16307551 0
0.0041495925 0.089493684 0.012408849 -0.010713383 -0.98739356 0.15792128 0
-0.010379095 0.098802336 0.012297961 -0.9135769 -0.36827028 0.17249429 0
-0.0051730112 0.094552331 0.015263855 -0.37337011 -0.65971643 -0.6522032 0
0.0052117016 0.09371873 0.015605487 -0.051920332 -0.32480001 -0.94435656 0
0.012601933 0.096314028 0.014436753 0.7597993 -0.64696771 -0.064325981 0
-0.010457058 0.10087321 0.011833239 -0.95855814 0.18885906 0.21330364 0
-0.0072064586 0.10435633 0.01459256 -0.99813193 -0.046996571 0.039038494 0
0.0068330881 0.10522174 0.012731016 0.56075531 -0.33138081 -0.75877547 0
0.012762013 0.10425436 0.014146991 0.89941877 0.39675844 0.18338107 0
-0.0034570289 0.11083764 0.014363104 -0.17816347 0.97448593 0.13650995 0
0.005759757 0.11163256 0.014246804 0.12108322 0.98151278 0.14822787 0
0.010223875 0.11013633 0.012734167 0.78545898 0.60162807 0.14525129 0
-0.010398175 -0.18097064 0.020578746 -0.96217167 -0.14269321 0.23208709 0
-0.0087551856 -0.18157761 0.023621218 0.60947639 -0.65932918 0.44025397 0
-0.051798273 -0.17071915 0.025076397 -0.37569031 -0.92659545 -0.016666716 0
-0.044395622 -0.17193322 0.024403578 -0.31192181 -0.71280408 -0.62818396 0
-0.034829903 -0.17158507 0.025046241 0.34728673 0.85516024 -0.38482851 0
-0.02617589 -0.17161144 0.024969259 0.062793545 -0.998007 0.0062498264 0
-0.013706473 -0.17293942 0.024145918 -0.37466478 -0.91452515 0.15254554 0
-0.0065615717 -0.17334005 0.024474353 0.38537988 -0.91772908 0.096206136 0
0.0029182681 -0.17024273 0.025303479 0.077847719 -0.99686188 -0.014355446 0
-0.072490498 -0.16242342 0.0249862 -0.79806948 -0.60225821 0.019239735 0
-0.064896114 -0.16324773 0.025445607 0.030391455 -0.97837633 0.20458771 0
-0.055377468 -0.16532852 0.024914484 0.8403545 0.22292773 0.49407235 0
-0.046505082 -0.16876578 0.025684988 0.29824588 0.93220913 -0.20502572 0
-0.038031355 -0.16715106 0.028210193 0.4804942 0.44400349 -0.75629777 0
-0.023489801 -0.16976881 0.025125461 -0.063944355 0.99794829 -0.0032168604 0
-0.015076562 -0.16920213 0.025088575 -0.084145129 0.99605793 0.028075239 0
-0.0048384336 -0.16726612 0.024847977 -0.2482971 0.92719853 0.28044859 0
0.0052403873 -0.1649226 0.025348179 -0.47063115 0.78637189 0.40015689 0
0.015241362 -0.16608413 0.024702385 0.36728227 -0.10030485 -0.92468518 0
0.024796436 -0.16614603 0.024429999 0.26327801 0.026917165 -0.96434444 0
0.031654246 -0.16205327 0.024822224 0.80743825 -0.55458218 -0.20120154 0
-0.073245965 -0.15494965 0.02473644 -0.99164349 -0.12116273 -0.044304114 0
-0.057222255 -0.15491769 0.025589373 0.99744415 0.070642889 -0.010709835 0
0.034877747 -0.15631978 0.024802381 -0.74439692 -0.65853268 0.11048918 0
0.04580323 -0.15494396 0.025041481 0.36902922 -0.91880542 0.14004973 0
0.050268911 -0.15356824 0.025215514 0.9957962 -0.089920968 -0.017437918 0
-0.07414972 -0.14509447 0.025134576 -0.9996593 -0.021373104 -0.014981963 0
-0.056180872 -0.14337194 0.025360873 0.94645476 -0.3183156 -0.053839341 0
-0.04512034 -0.14168191 0.02563964 0.061390433 -0.99807596 -0.0087001938 0
-0.034499135 -0.14097376 0.025111323 0.06618049 -0.99775398 -0.010349435 0
-0.024919299 -0.1403468 0.025255268 0.065060467 -0.99785304 -0.0075111939 0
-0.019763211 -0.14001782 0.026388319 0.065974094 -0.99777293 -0.0098263836 0
0.033206988 -0.14529477 0.024794348 -0.99511617 -0.097417407 -0.015923867 0
0.048873588 -0.14477542 0.025062136 0.9935509 0.10497873 -0.042850759 0
-0.07428126 -0.13492204 0.025233166 -0.99825758 -0.058893058 -0.0036380005 0
-0.056735549 -0.13629644 0.024810292 0.90025699 0.42814842 -0.078906305 0
-0.044586439 -0.13936119 0.024981299 0.018753121 0.99781388 -0.06337031 0
-0.034781225 -0.13891232 0.024973709 -0.066419885 0.99761045 -0.019020388 0
-0.026688242 -0.13511802 0.025098041 -0.034070387 0.93593359 -0.35052457 0
-0.014784357 -0.13821845 0.025068047 -0.047468264 -0.26136425 -0.96407241 0
-0.0048959791 -0.13698819 0.0253291 -0.32665795 0.099886678 -0.93984956 0
0.0043109343 -0.13556871 0.024658965 0.65871751 -0.38822609 -0.6444934 0
0.01468469 -0.13666704 0.025373144 -0.04073742 -0.98719889 -0.15420389 0
0.024983257 -0.13601165 0.025044546 0.071762115 -0.99437797 -0.077863187 0
0.032193962 -0.13460597 0.024823418 -0.99198323 0.12254465 -0.030854695 0
0.048249725 -0.13507903 0.024665667 0.99899691 0.040745322 -0.018574623 0
-0.074055374 -0.12514599 0.025103744 -0.76382756 0.64258486 0.060431518 0
-0.064988889 -0.12252456 0.025512887 -0.30736887 0.92016751 0.24252035 0
-0.059092686 -0.12584262 0.024795596 0.99819797 0.059787031 0.0051386631 0
-0.030023415 -0.1205918 0.025527999 -0.99764246 -0.068399504 -0.0055756392 0
-0.027684303 -0.12519997 0.025581267 -0.64934629 0.018014047 -0.76027948 0
-0.015773186 -0.1267468 0.026976287 -0.0056182272 -0.29062918 -0.9568193 0
-0.0064498493 -0.12373453 0.02713649 0.19316745 -0.39325377 -0.89890915 0
0.0015998204 -0.12512137 0.025007693 -0.63712633 0.020362705 -0.77049029 0
0.032052204 -0.12524536 0.025039535 -0.99665165 -0.081255935 -0.0091033541 0
0.04803266 -0.12501808 0.024971955 0.99933618 -0.0084283538 -0.035441812 0
-0.061941825 -0.11454503 0.025368437 -0.99960107 -0.024158988 -0.014627798 0
-0.05971536 -0.11520798 0.024817629 0.99853432 0.052783247 0.011967113 0
-0.030436611 -0.11466972 0.025158212 -0.9975456 -0.069995627 -0.0018190774 0
-0.02694845 -0.11484049 0.026289955 0.93835318 0.013698295 -0.34540659 0
-0.013957866 -0.1157249 0.026805259 -0.10242156 0.10627976 -0.98904729 0
-0.0036136999 -0.11508799 0.027517503 -0.65487784 0.069827773 -0.7525019 0
0.0015247664 -0.11526983 0.024407331 0.99409795 0.039550405 -0.10101984 0
0.033332348 -0.11443576 0.025089385 -0.36497697 0.93068278 0.024925767 0
0.045497473 -0.1163731 0.024914917 0.50515234 0.8187235 0.27297053 0
-0.061263014 -0.10498463 0.024969112 -0.99473864 -0.042498142 0.093215264 0
-0.059948258 -0.10832767 0.021466995 0.99898654 0.037337761 0.025136195 0
-0.031093311 -0.10485727 0.024139019 -0.99765497 -0.068038248 -0.0074332794 0
-0.026185142 -0.10508146 0.026058836 0.59585327 -0.1169059 -0.79453886 0
-0.015138776 -0.10385616 0.027882772 0.019825524 -0.4262279 -0.9043985 0
-0.0036785689 -0.10432757 0.02650613 -0.75197059 -0.13090609 -0.64606792 0
0.0012976939 -0.10527166 0.024992514 0.99767131 0.067533813 -0.0095473286 0
0.029961891 -0.10027195 0.025013039 -0.99585354 -0.088540398 0.020888671 0
0.031305794 -0.10521808 0.024471147 -0.23005569 -0.20928755 -0.95040673 0
-0.061635014 -0.094887786 0.025002915 0.99196982 -0.10970295 -0.062937394 0
-0.031458437 -0.095645338 0.024254754 -0.97293735 -0.095302306 -0.2105003 0
-0.02608419 -0.094781302 0.026889781 0.36734965 0.2026408 -0.90773952 0
-0.01462369 -0.094677277 0.02732615 0.13134411 0.19637108 -0.97169292 0
-0.0044412673 -0.095094644 0.026837118 -0.56324714 0.061416902 -0.8240028 0
0.00057073991 -0.094558395 0.025253359 0.99760532 0.068165354 -0.0117079 0
0.029579291 -0.095478639 0.024086064 -0.99588031 -0.086826406 0.026146185 0
0.031780478 -0.09552528 0.024376027 0.99442703 0.072619826 -0.076427571 0
-0.062571317 -0.084890492 0.025309257 -0.29480585 0.013193669 -0.95546615 0
-0.031576019 -0.084952809 0.024856621 -0.98622137 -0.097625494 -0.13355406 0
-0.022788625 -0.086117774 0.027551826 -0.59894502 0.22589304 -0.768269 0
-0.015298566 -0.085205555 0.026106693 0.33364096 -0.33612496 -0.8807404 0
-0.0018391174 -0.084924072 0.024970455 -0.92087096 -0.026716273 -0.38895112 0
0.00014699997 -0.088372476 0.025162842 0.99760526 0.068165325 -0.01170788 0
0.02890867 -0.085435577 0.025111681 -0.99837279 -0.046654385 0.032787327 0
0.031007448 -0.084925346 0.024997754 0.99514115 0.079493858 -0.058092665 0
-0.063543946 -0.07514777 0.024806315 -0.9742083 -0.0015803725 -0.22564499 0
-0.032123778 -0.074694358 0.025176024 -0.89446205 -0.24522138 -0.37390393 0
-0.02125076 -0.074234821 0.027501225 -0.71945554 -0.2486981 -0.64848518 0
-0.015108146 -0.074838609 0.026879294 -0.27297685 -0.44937822 -0.85061318 0
-0.0028850408 -0.074890323 0.025487248 0.10799881 -0.32909006 -0.93810236 0
0.028767012 -0.074571699 0.024269475 -0.99695694 -0.00067098631 -0.077950932 0
0.030492831 -0.075601526 0.026854008 0.99516898 0.071011268 -0.067794278 0
-0.076270647 -0.065646395 0.025038248 -0.53702748 -0.82857549 0.1583163 0
-0.064493075 -0.066233799 0.025372485 0.91275191 -0.40190393 0.073193036 0
-0.032632995 -0.064985022 0.025048213 -0.053684238 0.095462315 -0.99398446 0
-0.02443064 -0.063872039 0.027261158 -0.40703845 -0.20660403 -0.88973844 0
-0.014545803 -0.065161936 0.024259642 -0.42665017 0.50968927 -0.74711871 0
-0.0038443077 -0.064869523 0.025159264 0.70704019 0.031143142 -0.70648736 0
0.028436117 -0.06513989 0.024563342 -0.88973874 -0.34476143 -0.299173 0
0.033651285 -0.061905738 0.024329077 0.25352409 -0.95469981 0.15580076 0
0.042198736 -0.060296163 0.021744369 0.23680124 -0.94687593 0.21760295 0
-0.081685103 -0.051049232 0.021574313 0.98185158 -0.14809836 0.11846688 0
-0.079267569 -0.054827914 0.024617275 -0.99952793 -0.028932875 -0.010340005 0
-0.06383127 -0.054793496 0.025065877 0.99680984 0.078441419 -0.014733519 0
-0.033450425 -0.054986842 0.024892028 -0.36342093 0.52561998 -0.76918715 0
-0.024092678 -0.055974659 0.027463868 -0.19593088 0.0155839 -0.98049384 0
-0.014719052 -0.055309735 0.027421709 0.1124564 0.16435029 -0.97997063 0
-0.0040271142 -0.055089787 0.024928536 0.22146489 0.35929003 -0.90656716 0
0.027175372 -0.054790791 0.025353456 -0.99808842 -0.061099332 -0.0092937984 0
0.037004896 -0.059385233 0.028367942 0.18952762 -0.94310009 0.27320611 0
0.043016396 -0.054713946 0.024892854 0.9785558 -0.17475227 0.10904232 0
-0.080700241 -0.044036865 0.02303447 -0.25519529 -0.85536194 0.45081192 0
-0.079753026 -0.045943629 0.024579583 -0.99805528 -0.062088367 -0.0055437325 0
-0.063375756 -0.046198402 0.024787376 0.98676485 -0.14413087 -0.074305899 0
-0.054999594 -0.047105573 0.024870256 -0.075901665 0.99282855 -0.092359379 0
-0.044973511 -0.046607893 0.024891729 0.096424721 -0.97459865 -0.2021383 0
-0.034626689 -0.046552833 0.024943413 -0.20551997 0.63007307 -0.7488454 0
-0.025119347 -0.045086369 0.025576452 0.17105524 0.32963705 -0.92848235 0
-0.014823731 -0.04475468 0.02568236 0.0288314 0.40472803 -0.91398245 0
-0.004841533 -0.044875544 0.024840822 -0.069807291 0.16821508 -0.98327541 0
0.0051204194 -0.042849839 0.02518541 -0.30505034 -0.88381451 -0.35470581 0
0.014720208 -0.042545412 0.024932466 0.036688246 -0.97126955 -0.2351371 0
0.024625456 -0.042862337 0.025040444 -0.99584699 -0.025802962 -0.087309495 0
0.042418588 -0.045961883 0.025371371 0.99767345 0.0002810804 0.068172023 0
-0.080904268 -0.035770088 0.025530305 -0.97987694 -0.19396386 -0.047107752 0
-0.065377615 -0.035087146 0.02512807 0.99882478 0.047048267 -0.011646079 0
0.025923282 -0.035012309 0.02564108 -0.99591762 -0.090174623 -0.0040686703 0
0.041705631 -0.035154797 0.024600385 0.98781639 0.15519831 0.011499583 0
-0.08161898 -0.029092776 0.024717929 -0.71213675 0.69277871 0.11366149 0
-0.07535401 -0.027860643 0.024924016 -0.13152654 0.98370504 0.12257665 0
-0.065409251 -0.024551334 0.025183551 0.3739143 0.90227246 -0.21469145 0
0.025258839 -0.024617568 0.025268739 -0.99967551 -0.025454754 -0.00098857435 0
0.033678472 -0.020245705 0.029104626 -0.068260595 0.96788961 0.24193016 0
0.041468758 -0.024656573 0.025013527 0.99823266 -0.050052781 -0.032037687 0
-0.062190656 -0.018538279 0.02488615 -0.59795606 0.79989576 -0.051139824 0
-0.055122096 -0.016204637 0.024944115 -0.25600556 0.96421075 -0.068983331 0
-0.044996262 -0.015025256 0.024582343 0.16213487 -0.96024573 -0.22724527 0
-0.03483006 -0.014175632 0.025118975 -0.59676868 -0.053674977 -0.80061615 0
-0.024824092 -0.013779837 0.024031315 -0.034625806 -0.92901379 -0.36842161 0
-0.01522297 -0.013237222 0.024744451 0.5587734 -0.65170258 -0.51288998 0
-0.0048831338 -0.012368167 0.024875717 -0.45440102 0.72996336 -0.5105617 0
0.0050078104 -0.011603779 0.025169864 -0.093111582 -0.97556287 -0.19901597 0
0.015611097 -0.011949503 0.024780059 0.24716383 -0.95866108 -0.14099269 0
0.023480248 -0.016532559 0.024845585 0.10524184 0.95575655 -0.27468827 0
0.035034765 -0.019464424 0.024354804 -0.0093224356 0.99526751 0.096724287 0
0.040761657 -0.019568676 0.025560822 0.0023888256 0.99671769 0.08092124 0
-0.030051555 -0.0096744103 0.029959992 -0.94431061 0.32720938 -0.034808684 0
-0.024969433 -0.0053902133 0.02462372 -0.5804559 0.51091969 -0.63405997 0
-0.018000003 -0.0044976142 0.026369449 0.88514537 0.1057137 -0.4531472 0
0.013348897 -0.0098484783 0.025162032 0.018091595 0.99978012 -0.010604051 0
-0.020666903 0.00033429731 0.027684918 -0.38558307 0.9215194 -0.046127219 0
-0.019153027 0.0005314257 0.026364183 0.47544605 0.82989186 -0.29194281 0
-0.0047569708 0.094286755 0.02472927 -0.68739814 -0.69072372 0.22446531 0
0.0052364762 0.092195876 0.024845339 0.25763556 -0.94675297 0.19308732 0
0.012180292 0.097447991 0.024000226 0.86127484 -0.47899482 0.16961585 0
-0.0056272424 0.10610143 0.025002686 -0.84850585 0.47675779 0.22965141 0
0.0066253808 0.1089236 0.027577382 0.51772177 0.83777589 0.17348137 0
0.012123778 0.10360285 0.024948431 0.90335208 0.38016304 0.19857265 0
-0.0013624792 0.11019678 0.021629201 -0.16716039 0.97668606 0.13469148 0
0.0047186613 0.11065353 0.023851682 0.0068304716 0.98641664 0.16412033 0
-0.051861931 -0.1708481 0.035022587 -0.46021932 -0.88778001 -0.0067020543 0
-0.044931721 -0.17282508 0.034986887 -0.14943825 -0.98874408 -0.0073073716 0
-0.033991836 -0.17238206 0.034433614 0.09939336 -0.99449927 -0.033047371 0
-0.025205379 -0.17190878 0.034680892 0.068276651 -0.99764818 0.0060405592 0
-0.014618107 -0.17150345 0.034728706 0.069326401 -0.99753076 0.011232676 0
-0.0045233094 -0.17080118 0.034730628 0.06991376 -0.99749923 0.010357577 0
0.0034735997 -0.17022319 0.03495004 0.073906317 -0.9972555 0.0044055046 0
-0.072875328 -0.16116427 0.0313791 -0.60434043 -0.62458593 0.49463627 0
-0.06486664 -0.16109812 0.032171756 0.062539227 -0.92216229 0.38171402 0
-0.055219069 -0.16530757 0.034965411 -0.93266499 -0.36037463 -0.016312955 0
-0.045295451 -0.16582739 0.035184398 -0.56202734 0.6957252 -0.44731611 0
-0.034348737 -0.16441301 0.033663001 0.46833453 0.43947572 -0.76650101 0
-0.025729986 -0.16803752 0.036145125 0.28559297 0.89934528 -0.3310813 0
-0.015632415 -0.16922176 0.034954932 -0.061739866 0.99806195 -0.0077779642 0
-0.0049589733 -0.16851634 0.035113636 -0.073581658 0.99728447 0.0030719906 0
0.005579147 -0.16540119 0.034849618 -0.70220292 0.53750014 -0.46690968 0
0.014433041 -0.16697504 0.034445792 -0.0088793766 -0.99479967 -0.10146278 0
0.02574145 -0.16546923 0.03501156 0.85362524 -0.45874399 -0.24673426 0
0.032097895 -0.16262807 0.03545754 0.81600457 -0.5720278 -0.083190791 0
-0.072988324 -0.15453929 0.035294574 -0.90888155 -0.2730689 0.31522632 0
-0.064741857 -0.15557812 0.037336651 0.12203623 -0.39722714 0.90957004 0
-0.057721239 -0.15503128 0.035838161 0.99822634 0.038302019 0.045575697 0
-0.042348966 -0.15936939 0.039006703 -0.33950153 0.74824101 -0.56997728 0
-0.034456745 -0.15769041 0.038012058 0.040916912 0.6983788 -0.71455789 0
-0.029236676 -0.15832314 0.039731301 0.62882233 0.32062802 -0.70836437 0
0.0063219117 -0.15745546 0.038027208 -0.32435361 0.45919243 -0.82700491 0
0.016012948 -0.15566431 0.036717284 -0.025779778 0.59394193 -0.80409479 0
0.022212841 -0.15668972 0.038213629 0.53668618 0.20655099 -0.81811047 0
0.035151429 -0.15518908 0.034865245 0.26543093 -0.7667979 0.58443773 0
0.044776857 -0.15315366 0.032690432 0.076733828 -0.80949235 0.58209443 0
0.05042937 -0.15203078 0.031957857 0.99876493 0.049638208 -0.0021706275 0
-0.073932059 -0.14476778 0.035121232 -0.99909526 -0.033783451 -0.025834439 0
-0.063404813 -0.14537518 0.038516689 0.10980991 -0.025883939 0.99361551 0
-0.056191955 -0.14326794 0.034953889 0.92557657 -0.37810847 -0.018491212 0
-0.04476409 -0.14170635 0.03477541 0.048492473 -0.99882334 -0.00067192432 0
-0.035182394 -0.14114012 0.034993459 0.066414103 -0.99771768 -0.012190292 0
-0.025420167 -0.14048469 0.035048075 0.067092575 -0.99766642 -0.012661745 0
-0.018890627 -0.14006667 0.036709484 0.067092553 -0.99766642 -0.012661745 0
0.017726718 -0.14998266 0.039891407 -0.070359766 0.47272858 -0.87839472 0
0.02478895 -0.14121175 0.038421962 0.02722544 -0.77192408 -0.63513154 0
0.034548111 -0.14503476 0.036121245 -0.90079993 -0.24899389 0.35575476 0
0.046401467 -0.14516079 0.036261246 0.608477 -0.32779676 0.72270674 0
0.050221872 -0.14736323 0.035440668 0.99778163 0.063365176 -0.020414202 0
-0.07396698 -0.13441268 0.036201417 -0.90129113 0.037741136 0.4315668 0
-0.064068832 -0.13521612 0.038679834 -0.029048435 0.045725137 0.99853158 0
-0.055892166 -0.13610643 0.034923524 0.6432656 0.76036495 -0.089746803 0
-0.045569934 -0.13716933 0.03544572 0.23172414 0.91943759 -0.31770828 0
-0.035133068 -0.13874538 0.034971435 -0.06656906 0.99760246 -0.018916894 0
-0.027433436 -0.13372567 0.033382956 -0.867944 0.10708872 -0.48497969 0
-0.014876996 -0.13665794 0.033361096 0.028573684 -0.84735548 -0.53025675 0
-0.0053488901 -0.13780284 0.034209751 0.038802326 -0.98453301 -0.17084828 0
0.0049739289 -0.13637199 0.035526685 0.7353788 -0.67692256 -0.031525891 0
0.015035319 -0.1365647 0.034718446 -0.14631411 0.92905957 -0.33976543 0
0.025206299 -0.13639453 0.034788914 -0.4310956 0.19506419 -0.88096911 0
0.031970173 -0.1354543 0.034970991 -0.99267924 -0.10371673 -0.061892856 0
0.048491366 -0.13476759 0.034584936 0.99892843 0.038908366 -0.025061939 0
-0.07386326 -0.12773573 0.033628367 -0.51178545 0.69343895 0.50716668 0
-0.063588604 -0.12511618 0.035229754 -0.75735903 0.53309625 0.37711483 0
-0.059128601 -0.12518774 0.034945298 0.99766827 0.06730698 -0.011302616 0
-0.047139052 -0.12988918 0.038954046 -0.80356383 0.53266734 -0.26561394 0
-0.030089796 -0.12112337 0.035180457 -0.99778074 -0.065356724 -0.012728549 0
-0.027771259 -0.12598515 0.032724272 -0.82520807 -0.090166591 -0.55758548 0
-0.014360277 -0.1245359 0.03118141 0.096500881 0.18873478 -0.97727519 0
-0.0038738272 -0.12593254 0.030852586 0.071846284 -0.1216388 -0.98997074 0
0.0026928305 -0.12491924 0.034324039 0.99635798 0.077828512 -0.034835178 0
0.033730134 -0.124468 0.036048751 -0.88991994 0.19000675 0.41465625 0
0.046300743 -0.12444485 0.036378112 0.6577543 0.39090717 0.64385623 0
-0.061842535 -0.11453672 0.034742977 -0.99832964 -0.047310736 -0.033160452 0
-0.059736937 -0.11591581 0.03509067 0.99800098 0.06317728 -0.0015897332 0
-0.030480748 -0.11513775 0.035088599 -0.99777746 -0.065449871 -0.012509842 0
-0.025019061 -0.11551184 0.030261649 0.039953552 -0.043464739 -0.99825579 0
-0.013274482 -0.11623125 0.031518921 0.20113932 -0.60711455 -0.76873589 0
-0.0064559244 -0.11475162 0.030891305 -0.21567492 0.10391977 -0.97091973 0
0.0020256888 -0.11495704 0.035486411 0.99689353 0.076920301 -0.016930345 0
0.032917812 -0.11542445 0.034681242 -0.58708149 0.69605166 0.41333693 0
0.044728402 -0.1185883 0.032534603 0.14705928 0.89620471 0.41855797 0
-0.061599214 -0.1049924 0.034662466 -0.99268216 -0.064105757 -0.10233548 0
-0.031176234 -0.10460557 0.034811962 -0.99769485 -0.067394681 -0.0079387464 0
-0.015795477 -0.10584567 0.031436324 -0.041666873 -0.044069961 -0.99815917 0
-0.0040961299 -0.10660002 0.030598732 -0.095045909 -0.055544581 -0.99392217 0
0.0013264206 -0.10501033 0.034998644 0.99777561 0.066576183 -0.0033720047 0
0.029952722 -0.10014641 0.030460348 -0.99664944 -0.081026398 -0.011166418 0
0.031628814 -0.10491438 0.034860991 0.88572431 -0.45130441 0.10870513 0
-0.061971415 -0.095146373 0.034923963 0.95036089 -0.28771824 -0.11845868 0
-0.031833932 -0.095032141 0.034771174 -0.99758291 -0.069412701 -0.0031912245 0
-0.026246242 -0.092109732 0.030559173 -0.032061379 0.2067461 -0.97786909 0
-0.013633403 -0.091120772 0.030936008 0.022252217 0.47415856 -0.88015819 0
-0.0023299588 -0.095595434 0.030114107 -0.0865665 -0.019230051 -0.99606049 0
0.00067008118 -0.095086046 0.034741353 0.99785095 0.065506093 -0.0015471641 0
0.029654996 -0.094513871 0.035349641 -0.99758393 -0.06728556 0.017294062 0
0.032095574 -0.09540128 0.035234295 0.99724895 0.07036753 -0.02330232 0
-0.062758006 -0.084858052 0.034898221 0.99971694 0.019762505 -0.01325005 0
-0.032373291 -0.085061669 0.034870964 -0.99768549 -0.066028051 -0.01624473 0
-0.027044378 -0.084467143 0.031241424 -0.041782588 0.11395723 -0.9926067 0
-0.012645371 -0.086560272 0.031247117 0.29224792 -0.32660589 -0.89884365 0
-0.003930124 -0.083429366 0.032089785 0.49569884 0.1014189 -0.86255258 0
0.00015771099 -0.087289527 0.034433682 0.99780637 0.066049211 -0.0044729281 0
0.029054863 -0.084440142 0.035238072 -0.99851984 -0.052405283 0.014555286 0
0.031457759 -0.085126251 0.034610156 0.99616623 0.077674575 -0.040244725 0
-0.063518412 -0.075158797 0.035099465 0.96898466 0.24400386 -0.039125655 0
-0.032954484 -0.074782856 0.034814611 -0.99660063 -0.074730106 -0.034679797 0
-0.025427619 -0.074926279 0.031285103 -0.087579563 -0.01108732 -0.99609584 0
-0.016585713 -0.073695004 0.030967996 -0.11756761 -0.13550638 -0.98377633 0
-0.0019559269 -0.075131617 0.033655871 0.95318848 0.036364276 -0.30018222 0
0.028542722 -0.075421609 0.035650261 -0.99784666 -0.065581873 0.0010612588 0
0.03076084 -0.07530196 0.035647828 0.99742693 0.063496791 -0.033281971 0
-0.080193616 -0.062483504 0.034640882 -0.9870311 -0.015501909 -0.15977898 0
-0.075293295 -0.063169852 0.034125734 -0.21251447 -0.76258302 0.61098671 0
-0.064847998 -0.065247469 0.034981769 0.66670883 -0.52598602 0.5280512 0
-0.033299193 -0.065574862 0.034176942 -0.98711085 -0.090780415 -0.13179947 0
-0.02493413 -0.065296277 0.030801034 0.00071795296 -0.040972065 -0.99916005 0
-0.017160976 -0.062828593 0.031495262 -0.19085564 0.48646498 -0.85259944 0
-0.0023604417 -0.065046199 0.033379175 0.97365814 0.066396669 -0.21813105 0
0.028140517 -0.064837374 0.034198876 -0.99774712 -0.060551818 -0.028881304 0
0.030230194 -0.065354019 0.035102487 0.99833947 0.052826542 -0.022966353 0
-0.080696858 -0.05369316 0.036731508 -0.74305826 -0.45535195 0.49042737 0
-0.077874549 -0.055436786 0.036385093 -0.7803365 -0.25569671 0.57069629 0
-0.064593874 -0.055301443 0.035596233 0.98262668 -0.083984233 0.16550349 0
-0.033987932 -0.054848336 0.033982705 -0.97451627 -0.082873262 -0.20844667 0
-0.024140276 -0.057647988 0.030928584 0.20053211 -0.2252064 -0.9534511 0
-0.015431179 -0.056860048 0.031618241 -0.095921472 -0.36422032 -0.92635989 0
-0.003448427 -0.054702312 0.033778477 0.93409717 0.14088808 -0.32804418 0
0.015104621 -0.050964613 0.039642502 0.22731903 -0.22597693 -0.94723839 0
0.028099814 -0.055451695 0.035904486 -0.96505529 -0.17159247 0.19805135 0
0.034785848 -0.055767551 0.03484663 0.01010386 -0.65817493 0.75279719 0
0.04272588 -0.05384019 0.034255903 0.86800975 -0.29694757 0.39797136 0
-0.081206277 -0.044166654 0.035491724 -0.96996951 -0.13711457 -0.20089453 0
-0.079704612 -0.047690868 0.032845706 -0.9943679 -0.10580779 -0.0060913302 0
-0.063275613 -0.046344474 0.0348965 0.98436475 -0.16781102 -0.053530522 0
-0.054986134 -0.047277886 0.034967676 0.10682074 -0.97410697 -0.1992611 0
-0.045246787 -0.046553954 0.035162237 0.19851384 -0.96607286 -0.16521333 0
-0.035323534 -0.046113376 0.034433786 -0.45707586 0.86644238 -0.20089634 0
-0.025203681 -0.04475205 0.034130346 -0.064293094 0.97731322 -0.20180455 0
-0.014919656 -0.044031158 0.03420122 -0.052102085 0.97764099 -0.20372389 0
-0.0043055075 -0.044742208 0.034334019 0.47837415 0.81240773 -0.33339441 0
0.0047779302 -0.0433135 0.034975726 -0.23615417 0.44932565 -0.86159021 0
0.014782617 -0.043364991 0.035454843 0.13573278 -0.20759554 -0.96875209 0
0.024943152 -0.043423977 0.035245162 -0.95640481 -0.29121417 0.022002095 0
0.03424675 -0.046210941 0.038900744 -0.23320881 -0.2932446 0.92715764 0
0.042227346 -0.045733236 0.03480592 0.9989422 0.045956351 0.0015756303 0
-0.081684336 -0.035803739 0.034230318 -0.96900952 0.16997848 0.17924263 0
-0.07530912 -0.033761665 0.036459502 -0.1217633 0.68797523 0.71544653 0
-0.066310734 -0.034182683 0.035844635 0.94524676 0.26803678 0.18618526 0
0.026050523 -0.035390291 0.034843165 -0.99638069 -0.079934485 0.028913833 0
0.031786945 -0.032619465 0.039850652 -0.1150379 0.52609932 0.84260648 0
0.041792329 -0.034939282 0.034865566 0.99890614 0.043124463 -0.018079659 0
-0.081069849 -0.029719345 0.030835832 -0.16930196 0.97253907 0.15970185 0
-0.075036339 -0.029089626 0.031178197 -0.084000051 0.86828095 0.4889091 0
-0.065256447 -0.025014387 0.03465936 -0.30276507 0.20408447 0.93095803 0
0.025846018 -0.024632793 0.034813039 -0.98357147 0.12250358 0.13258959 0
0.03506181 -0.02505477 0.034844693 -0.016312761 0.71407574 0.69987833 0
0.041308232 -0.02631256 0.034271412 0.86383975 0.35378283 0.35863441 0
-0.062156919 -0.017856115 0.034832023 -0.58073533 0.81372565 -0.024436159 0
-0.055185709 -0.016181624 0.034779664 0.43687925 0.89757884 -0.059065674 0
-0.044928446 -0.014796354 0.035037924 -0.0057983412 0.99669522 -0.08102522 0
-0.034933418 -0.013747726 0.034803137 -0.84132552 0.53435564 0.081457794 0
-0.024568547 -0.013798452 0.035676539 0.083133183 -0.96393245 0.2528303 0
-0.014574253 -0.012919627 0.035023518 0.31578961 -0.94796693 -0.040443048 0
-0.0049501881 -0.012017106 0.03496721 -0.22676842 0.9525736 -0.2029276 0
0.0048029693 -0.011545677 0.035100326 0.070598349 -0.99732393 -0.018993914 0
0.015855739 -0.01267013 0.034892768 -0.16376349 -0.98398352 -0.070413075 0
0.023006836 -0.016617851 0.035022978 0.71758062 0.69641316 0.0093202284 0
-0.03013761 -0.0095408298 0.034514174 -0.93871123 0.34389201 -0.02365502 0
-0.02604989 -0.0045051291 0.03651141 -0.68417197 0.55261898 0.47594225 0
-0.016231259 -0.0047672018 0.036354251 0.84076589 0.38257197 0.38308147 0
0.01311241 -0.0098249977 0.034945469 -0.04314879 0.99906248 -0.0035250557 0
-0.020870032 0.0003740353 0.034498189 -0.30615178 0.95198268 -4.930886e-06 0
-0.018804314 0.00067977508 0.036187384 0.39603028 0.88768637 0.23488894 0
-0.0034223536 0.096330337 0.035391629 -0.74704874 -0.53309494 0.39714977 0
0.0056034648 0.094816193 0.035325412 0.33392072 -0.86056685 0.38460571 0
0.010970823 0.098266207 0.033402357 0.8141728 -0.53204262 0.23249379 0
-0.003465781 0.10502016 0.034581292 -0.77799523 0.42375073 0.46385199 0
0.0056734453 0.10631692 0.035985827 0.4072006 0.76681483 0.49616814 0
0.011098941 0.1017853 0.033052582 0.87550771 0.39697847 0.27548927 0
-0.051574785 -0.17093761 0.044468615 -0.56080455 -0.82453883 0.075060114 0
-0.044267237 -0.17245919 0.045198586 -0.13058218 -0.89139223 0.43401402 0
-0.035335723 -0.17200917 0.045837767 0.059940368 -0.92929316 0.36444646 0
-0.025164522 -0.17193408 0.04455559 0.068048663 -0.97897768 0.19228154 0
-0.014968141 -0.17133678 0.044723038 0.06852594 -0.98084211 0.18235371 0
-0.0056720264 -0.17072059 0.044441327 0.068811767 -0.98584652 0.15287799 0
0.003134375 -0.1701657 0.043859683 0.069338419 -0.99721909 0.027318163 0
-0.054885082 -0.16434844 0.044205278 -0.85870934 -0.35351196 0.37100881 0
-0.045964945 -0.16438441 0.045805819 -0.37273481 0.13285199 0.91837853 0
-0.034479633 -0.16573282 0.048286453 -0.064427845 -0.003882041 0.99791491 0
-0.024215722 -0.16539676 0.046013553 0.90564722 0.40438899 0.12756398 0
-0.015463212 -0.16506857 0.045992136 -0.052670781 0.97575611 -0.21242824 0
-0.0048956918 -0.16485851 0.045221217 -0.65083003 0.71152699 0.26485783 0
0.0055172229 -0.16535795 0.046458095 -0.070650809 -0.38532695 0.92007154 0
0.014846031 -0.1661102 0.046599854 -0.0022227787 -0.6024307 0.79816806 0
0.025640706 -0.1650531 0.045182284 0.40676883 -0.5921756 0.69560558 0
0.031936459 -0.16280942 0.043981157 0.78620273 -0.57919025 0.21546198 0
-0.072149172 -0.1505294 0.040206902 -0.012472491 -0.41017422 0.91192192 0
-0.068631619 -0.15018579 0.040163055 0.36165863 -0.0077827987 0.9322781 0
-0.056430038 -0.15481903 0.045346688 -0.46590355 -0.0096590063 0.88478279 0
-0.045055032 -0.15490569 0.045868345 -0.60418886 0.76244092 0.23160218 0
-0.034817457 -0.15416384 0.045617666 -0.1804931 0.79696655 0.57642573 0
-0.025048776 -0.15497836 0.045849428 0.87097305 0.45483956 0.18581411 0
-0.015245066 -0.1547631 0.046838976 -0.19140464 -0.070717677 -0.97896028 0
-0.0048545939 -0.15530328 0.045728438 -0.83536118 0.48368391 0.26119256 0
0.0045821629 -0.15406623 0.045316044 -0.27475435 0.58748406 0.76116526 0
0.014570205 -0.15495406 0.04696643 -0.040583737 0.068270013 0.99684113 0
0.025966037 -0.15465291 0.044686984 0.95971704 0.22234403 0.17177388 0
0.03322969 -0.15519932 0.04446153 0.98382086 -0.014579923 0.17856036 0
-0.072813921 -0.1454812 0.041136008 -0.31813845 -0.1272499 0.93946546 0
-0.062244657 -0.1440627 0.043435808 -0.92636216 -0.071890458 0.36970907 0
-0.055709727 -0.14482325 0.045361526 0.73776716 -0.40097836 0.54306161 0
-0.04485083 -0.14449553 0.046163619 0.0077062175 -0.97401834 0.22633815 0
-0.034887914 -0.14461465 0.046179034 0.11811011 -0.97176069 0.20428206 0
-0.025238624 -0.14401716 0.046105482 -0.061377928 -0.99745059 0.036400471 0
-0.015169694 -0.14474583 0.046822585 0.55549854 -0.77006173 -0.31372944 0
-0.0048426306 -0.14508002 0.046985775 -0.20259358 0.42694619 -0.88129044 0
0.0053598946 -0.14501968 0.046616115 -0.55632961 0.81975776 0.13599502 0
0.01431239 -0.14513373 0.045850635 -0.64839065 0.45456859 0.61070204 0
0.024669889 -0.1450498 0.045596026 0.7516619 -0.29217112 0.59130406 0
0.033795774 -0.14489286 0.04487643 0.53769416 -0.066415891 0.84052002 0
0.046318498 -0.14166294 0.040553924 -0.010929708 -0.30101898 0.95355552 0
-0.072107069 -0.1386269 0.040440306 -0.096555449 0.26713902 0.95880854 0
-0.061328813 -0.1350686 0.044169962 -0.95816785 -0.05784424 0.28030083 0
-0.055320229 -0.13500963 0.045454189 0.063799493 0.67825979 0.73204732 0
-0.044221964 -0.1345824 0.045296535 0.34631926 0.2332401 0.90865946 0
-0.033999175 -0.13515593 0.045253776 -0.43374932 0.7127462 0.55122989 0
-0.024900509 -0.13523443 0.047522627 -0.10151482 -0.0098247929 0.99478549 0
-0.014897864 -0.1358683 0.046391677 0.080524698 -0.530963 0.84356034 0
-0.0049079559 -0.13651496 0.045701768 0.05332692 -0.61722171 0.78498006 0
0.0053720409 -0.13520007 0.044991069 0.58184946 -0.43966088 0.68421465 0
0.014553624 -0.13499112 0.045298841 -0.35094514 -0.35345066 0.86712754 0
0.025016595 -0.13405047 0.046055507 -0.11168356 0.75111526 0.65065551 0
0.033583712 -0.1348889 0.044199798 0.26989794 -0.019133044 0.96269882 0
0.045242686 -0.13523114 0.041529916 0.2678549 -0.019224877 0.96326745 0
-0.061471861 -0.12461843 0.044288468 -0.98909456 -0.070562169 0.12927873 0
-0.055555571 -0.12481341 0.045931563 0.85422075 0.50661391 0.11683042 0
-0.045047726 -0.12491424 0.045268174 0.021424735 0.90737414 -0.41977745 0
-0.034659661 -0.12476758 0.045972697 -0.73679209 0.66858345 0.10066648 0
-0.025663113 -0.12530836 0.046925753 -0.16921046 0.0084299576 0.98554385 0
-0.014679262 -0.12478822 0.047772761 -0.0028301694 0.0057199937 0.99997962 0
-0.0047686147 -0.12519304 0.047763728 0.020305684 0.009950933 0.99974436 0
0.0051690559 -0.12479506 0.045663521 0.82960403 0.098706923 0.54955816 0
0.014811628 -0.12551084 0.045861777 -0.71246475 -0.64170462 0.28391773 0
0.025273336 -0.1252951 0.04642589 0.99555796 0.080682538 -0.048525687 0
0.032930586 -0.12546645 0.04464959 0.067891791 0.13790125 0.98811638 0
0.044140518 -0.12823947 0.040783841 0.12872839 0.45971 0.87868977 0
-0.061862137 -0.11510423 0.044624876 -0.93527466 -0.06052611 0.34870887 0
-0.055894207 -0.11548607 0.046358906 0.99036366 0.10598245 -0.089149028 0
-0.04472689 -0.11483828 0.047029249 0.18939613 -0.12944984 0.97333026 0
-0.034932062 -0.11533998 0.046404608 -0.99689257 -0.076550514 0.018581113 0
-0.025169048 -0.11502066 0.047811389 -0.0070496392 -0.007844693 0.99994439 0
-0.015615681 -0.11513076 0.047771621 0.0091731232 0.0053078332 0.99994385 0
-0.0053647216 -0.11529358 0.04771236 0.0046033487 0.0049751867 0.99997699 0
0.0047086743 -0.11498076 0.045857284 0.92315835 0.16489966 0.34725609 0
0.014867777 -0.11550652 0.046340257 -0.31143609 0.56043899 0.76740849 0
0.025524259 -0.11504343 0.046735514 0.85305309 0.51397371 0.090174206 0
0.032225344 -0.11524736 0.044549156 0.081144817 0.012842109 0.99661958 0
-0.06170582 -0.10476629 0.043944024 -0.71427792 -0.0045742318 0.69984716 0
-0.055069245 -0.10499168 0.047002658 -0.7645179 0.64451385 -0.010694792 0
-0.045120053 -0.10496396 0.047040228 -0.027127946 -0.012103785 0.99955869 0
-0.034181301 -0.10516175 0.046048433 -0.97493708 -0.051546786 -0.21642676 0
-0.024490628 -0.10495991 0.048083644 0.02963152 -0.018947329 0.9993813 0
-0.014951389 -0.10500181 0.047711976 0.0073371525 0.00056239945 0.99997294 0
-0.0047332509 -0.10478863 0.047687382 0.0042134724 -0.0076973611 0.99996144 0
0.0041665933 -0.1050737 0.045870405 0.95596129 0.076740749 0.28328216 0
0.015441044 -0.10492672 0.046814337 0.025792267 0.032138016 -0.99915057 0
0.025452279 -0.10504914 0.046979934 0.13250259 -0.22887146 -0.96439666 0
0.031608112 -0.10484301 0.04408082 -0.073958509 -0.015211491 0.9971453 0
-0.062222902 -0.094910324 0.04459472 -0.15548864 -0.062701792 0.98584574 0
-0.054992583 -0.09446799 0.047277566 -0.20711373 -0.021048913 -0.97809047 0
-0.04481018 -0.094908625 0.047003623 0.28710619 0.37933815 0.87958664 0
-0.034649413 -0.095273495 0.045986846 -0.97879952 -0.050367001 0.19853096 0
-0.024445964 -0.095259652 0.047744278 -0.001489569 0.021230796 0.9997735 0
-0.014934826 -0.09493009 0.047817536 -0.02106961 0.0060704281 0.99975961 0
-0.0051894481 -0.094591692 0.047813445 0.030595552 0.018516487 0.99936032 0
0.0042708348 -0.095032461 0.045995943 0.99614638 0.083186544 0.027792612 0
0.014926281 -0.095172763 0.046908643 0.064231776 0.27397564 0.9595893 0
0.025743874 -0.094855048 0.046417911 -0.99304056 0.012025286 -0.11715732 0
0.031798709 -0.095344394 0.044835042 0.92620605 0.061500385 0.37196773 0
-0.06259682 -0.084802225 0.045123506 -0.824413 -0.026257955 0.56537914 0
-0.055129137 -0.084791474 0.047401257 0.65379488 -0.44046235 -0.61526024 0
-0.044582639 -0.085079528 0.047152404 -0.27253824 -0.15399818 0.94974071 0
-0.034799296 -0.085127354 0.045889124 -0.98248547 -0.084846139 -0.16590182 0
-0.024656732 -0.084985398 0.047727589 -0.00035698633 -0.0011551491 0.99999923 0
-0.015154278 -0.084794953 0.04768021 0.0055210688 0.003069246 0.99998003 0
-0.0036208273 -0.084366299 0.046312504 0.34830925 0.02062631 0.93715274 0
0.0047046039 -0.08483281 0.046734303 0.95654345 0.065020286 -0.28424799 0
0.014981477 -0.084658422 0.047135174 -0.86422247 -0.35142526 -0.3600274 0
0.025412478 -0.085229464 0.046495136 -0.87486237 -0.35493574 0.32960051 0
