# .PCD v0.7 - Point Cloud Data file format
VERSION 0.7
FIELDS x y z normal_x normal_y normal_z curvature
SIZE 4 4 4 4 4 4 4
TYPE F F F F F F F
COUNT 1 1 1 1 1 1 1
WIDTH 351
HEIGHT 1
VIEWPOINT 0 0 0 1 0 0 0
POINTS 351
DATA ascii
0.0022012293 -0.020039555 -4.6823086e-05 -0.12264565 0.92572874 -0.35774884 0
0.0073563671 -0.019179616 -9.7232485e-05 0.026291035 -0.15325226 -0.98783731 0
0.014425684 -0.017473938 -0.00012267406 0.013756725 0.043852076 -0.99894333 0
-0.028673565 -0.0013209954 -0.00012980493 -0.23373429 -0.63989955 -0.73204976 0
0.032658555 -0.0029352452 -0.00014475279 0.073471993 -0.0010504028 -0.99729675 0
-0.031015232 0.0070957253 -2.7197504e-05 -0.94872993 -0.24011698 -0.20556092 0
-0.029215015 0.00035668083 -0.00012112533 0.93492305 0.25104067 -0.2507937 0
0.035251368 0.0043160697 -0.00020574266 0.17300414 -0.044409286 -0.98391944 0
0.037180353 0.012709143 -0.00012952703 -0.0087618558 0.12581946 -0.99201447 0
-0.011676418 0.046381332 -3.5326189e-05 -0.11153913 0.49825823 -0.85982424 0
0.0065370086 0.04821416 -0.00010177853 -0.12855853 0.3074044 -0.94285488 0
0.014371399 0.046122156 -0.00012523792 0.16083908 0.55678016 -0.81493962 0
0.021140432 0.043261286 -7.1679482e-05 -0.55511069 -0.67606324 -0.484552 0
-0.012127249 -0.021074286 0.0081995791 -0.41414544 -0.78858095 -0.45455879 0
-0.0043357052 -0.022025239 0.0068394258 -0.11564745 -0.85464042 -0.50617731 0
0.004741434 -0.022052305 0.0060753641 -0.049840551 -0.97659993 -0.20920923 0
0.013942582 -0.021787534 0.0073122936 0.22921191 -0.88481182 -0.40567228 0
0.020950809 -0.020501072 0.0082921628 0.43627289 -0.87329996 -0.21682493 0
-0.022728745 -0.012425713 0.0071053165 -0.65510792 -0.71749938 -0.23670278 0
-0.014922068 -0.015029685 0.0054610847 -0.13099101 -0.35304305 -0.92639184 0
-0.0049548987 -0.016361112 0.0053537595 0.2685968 0.64415109 -0.71618783 0
0.0050191167 -0.015565125 0.0058282968 -0.15531847 0.9789874 0.1321355 0
0.015132557 -0.015728416 0.0053318855 -0.24675389 0.86608589 0.43475002 0
0.024447782 -0.014248613 0.0056631318 0.70316476 -0.68211764 -0.2006859 0
0.03163708 -0.011698889 0.0080676395 0.57991433 -0.61203903 -0.53768724 0
-0.031182798 -0.002656599 0.0084687117 -0.87065071 -0.36883995 -0.32546023 0
-0.025220957 -0.004848544 0.0055459575 -0.053770043 0.47702822 -0.87724161 0
-0.015180666 -0.00491622 0.0066125449 0.33463445 0.36396337 0.86922401 0
-0.0049626851 -0.0050566741 0.0065814969 0.083013043 -0.29344124 0.95236599 0
0.0051186979 -0.0052037551 0.0067520682 0.060032099 -0.097946309 0.99337941 0
0.015045906 -0.0050389008 0.0065824161 0.040216565 -0.22146995 -0.97433758 0
0.025900742 -0.00535755 0.005791591 -0.93133909 0.25179577 0.26307121 0
0.033978492 -0.0044236095 0.0057311337 0.71452123 -0.59610319 -0.36622444 0
-0.03212161 0.0058640973 0.0062119458 -0.80466563 -0.26448819 -0.53156304 0
-0.025695315 0.0045484682 0.0060015242 0.98017019 0.16191363 0.11423796 0
-0.015097548 0.0053454088 0.0065306262 -0.22639579 -0.081621103 0.97060955 0
-0.0048931171 0.0051907394 0.0061138915 -0.026300056 0.022043247 -0.99941105 0
0.0049706432 0.0048633604 0.0061468938 0.0016155317 -0.14842597 -0.98892218 0
0.014998573 0.0051413812 0.0063430713 0.11614715 -0.66175866 -0.74066544 0
0.025046621 0.0050260853 0.0064197215 -0.082954839 0.20962569 -0.9742564 0
0.035572153 0.0048682205 0.0052070944 -0.40479651 0.44344527 0.799685 0
0.040871948 0.0058157244 0.0077951029 0.89147675 -0.17561275 -0.41764742 0
-0.032781493 0.014891945 0.0057499548 -0.83694416 0.055056728 -0.54451197 0
-0.025336908 0.014889349 0.0063739368 0.95848805 -0.020642944 0.28438449 0
-0.014843388 0.014933841 0.0063388697 -0.327813 0.021126533 -0.94450635 0
-0.0050870585 0.015222969 0.0062663006 -0.082490548 -0.053770691 0.99514019 0
0.005075668 0.015157701 0.0061970605 0.52539062 0.63682681 0.56428397 0
0.014727966 0.01513196 0.0062933625 0.43528539 0.48953184 -0.7555694 0
0.025158584 0.014991383 0.0066982768 0.10429934 0.012620462 0.99446583 0
0.035932362 0.014960418 0.0051684189 0.14441295 0.9335807 0.3279815 0
0.041053198 0.014382331 0.0079609072 0.55375707 0.049041286 -0.83123285 0
-0.03208698 0.024325725 0.006953299 -0.76245236 0.15956952 -0.62705982 0
-0.025988273 0.025363319 0.0055292407 0.96598226 -0.22187275 -0.1328561 0
-0.015136988 0.024830421 0.0064317114 -0.79177451 0.13267726 -0.59622961 0
-0.0050430498 0.024879923 0.0063302172 0.28691372 -0.11466468 0.95106918 0
0.0051042982 0.024826078 0.0064508738 0.67937303 0.69726497 0.22863498 0
0.014754605 0.02492339 0.0064585395 0.029648311 0.07169991 -0.99698555 0
0.02480316 0.025147887 0.0067089689 0.10251103 0.019283347 0.99454498 0
0.03549153 0.025051516 0.0054078037 -0.32399932 -0.61356103 -0.72011626 0
0.040686611 0.023103127 0.0082542226 0.93215537 0.23127101 -0.27856788 0
-0.030860679 0.03190317 0.0081769759 -0.7661097 0.42179766 -0.4849357 0
-0.024622466 0.034826156 0.0057238447 -0.55325097 0.57754368 -0.60029709 0
-0.015196876 0.035295606 0.0062637157 0.29701033 -0.33250928 -0.89511025 0
-0.0049401172 0.034879047 0.00654819 0.064871147 0.88065559 -0.46929467 0
0.0048399745 0.035144981 0.0066593024 -0.041255392 0.49506587 0.86787546 0
0.015052393 0.03474259 0.0065748147 0.078148276 0.19409323 -0.9778654 0
0.025772616 0.035571273 0.0055747265 -0.71118283 -0.62417692 0.32345343 0
0.03315673 0.033940826 0.0060543949 0.72329825 0.52940321 -0.44336432 0
-0.022251673 0.041863985 0.0076971911 -0.54129404 0.61083907 -0.57782042 0
-0.014762399 0.044552561 0.0054252665 -0.64627659 0.46946713 -0.60160393 0
-0.0050950716 0.045747019 0.0052768476 0.58601391 -0.57104158 0.57489061 0
0.0049372292 0.045978818 0.0053098518 -0.025309322 -0.90676844 0.42086875 0
0.015011056 0.045596663 0.0053127515 -0.41372848 -0.57127321 -0.70885515 0
0.024095567 0.043415874 0.0059254905 0.42857531 0.71024096 -0.55846304 0
0.031024011 0.040811248 0.0084448429 0.70092589 0.57202351 -0.42601889 0
-0.010972356 0.050366007 0.0084013231 -0.47247359 0.87912589 -0.062501326 0
-0.0046326155 0.05141332 0.0078517608 -0.17147449 0.898866 -0.40328214 0
0.0049828822 0.051882103 0.0077761975 0.12375338 0.77619648 -0.61822665 0
0.013578261 0.051117122 0.0083105098 0.25150764 0.90953523 -0.33089215 0
-0.012953753 -0.021277694 0.015231383 -0.42288426 -0.90610915 -0.011624986 0
-0.0050724223 -0.022905825 0.014859884 0.89441866 0.41101593 -0.17629847 0
0.0047524138 -0.023816781 0.015202775 0.23864359 -0.64100099 -0.72949779 0
0.014731433 -0.022222277 0.015034281 0.38235018 -0.92099088 -0.074728005 0
0.02138699 -0.020603301 0.014920257 0.44971189 -0.89265817 -0.030341854 0
-0.023300536 -0.013335539 0.015188298 -0.7392472 -0.64587271 -0.19068822 0
-0.016178533 -0.017817402 0.014879595 0.4561404 0.88979399 -0.014230667 0
-0.0097707016 -0.019925704 0.014229628 0.35528296 0.93416476 0.033320252 0
0.019217813 -0.019749785 0.014140386 -0.33101341 0.94342452 0.019498551 0
0.025652297 -0.016676789 0.01475312 -0.59725529 0.80084181 -0.044028934 0
0.031800922 -0.012036272 0.015009664 0.73828149 -0.67345697 -0.03736382 0
-0.031333562 -0.0027146493 0.015333856 -0.86377794 -0.50377697 -0.0098236725 0
-0.027937328 -0.0069538211 0.015180053 0.84075946 0.54038674 -0.033251692 0
0.036369674 -0.0049298946 0.015106533 -0.55539417 0.82485443 -0.10560521 0
-0.033532053 0.0050320085 0.015081799 -0.88174373 -0.25969476 -0.39381033 0
0.039262239 0.0039510755 0.01493358 -0.97339839 0.22910762 -0.0022795619 0
0.041208267 0.0058912602 0.015230249 0.96836597 -0.24590826 -0.042384181 0
-0.034682754 0.014898114 0.015121005 -0.97782946 0.078059882 -0.19430988 0
0.041297801 0.014861044 0.015215051 -0.9894945 0.12878209 -0.065694705 0
-0.033077523 0.024921266 0.01481369 -0.84049577 0.39935178 0.36617637 0
0.038933717 0.026221311 0.015263277 -0.95464587 -0.29768041 -0.0061248965 0
0.040966868 0.023308212 0.015276872 0.96560431 0.255346 -0.049057428 0
-0.031199424 0.032172371 0.01535451 -0.89710087 0.44122037 -0.023120819 0
-0.027187174 0.036272544 0.014925537 0.83259124 -0.55352604 -0.020016404 0
0.034976333 0.035150565 0.015038612 -0.56820059 -0.8113324 0.13743342 0
-0.022609662 0.042518727 0.01505114 -0.70284796 0.71038258 -0.0368963 0
-0.015743587 0.046748158 0.014975149 0.5639962 -0.82074034 -0.091069281 0
-0.0080787884 0.049415696 0.01472086 0.31886771 -0.94767809 0.015152894 0
0.017125361 0.048884541 0.014788751 -0.35991108 -0.93250299 0.03003652 0
0.025092361 0.045221504 0.014864569 -0.62132818 -0.78349155 -0.0096110748 0
0.031028615 0.041280583 0.015285755 0.70142019 0.71245688 -0.020367661 0
-0.011210703 0.050477594 0.01462957 -0.38843605 0.92130995 -0.017476674 0
-0.0043374645 0.051731929 0.014876605 -0.31813383 0.94732267 -0.037023067 0
0.0051111514 0.052212134 0.014953134 0.21131614 0.71407342 -0.66741639 0
0.013723112 0.051254626 0.015306161 0.33987129 0.93970031 -0.038090806 0
-0.012807984 -0.021258824 0.025134908 -0.41401696 -0.91019148 -0.011896047 0
-0.0052389479 -0.023182796 0.024993869 0.14398345 -0.46540365 0.87330878 0
0.0051405109 -0.024090385 0.025209133 0.048816707 -0.95557398 0.29068065 0
0.014846927 -0.0224982 0.025140753 0.76128876 -0.60388929 0.23612985 0
0.021712994 -0.02074831 0.025225468 0.45388094 -0.89068097 -0.026067881 0
-0.02339856 -0.013201305 0.02498829 -0.70558941 -0.70824552 -0.023062063 0
-0.016760509 -0.017820295 0.025039161 0.60589761 0.79466069 0.037449412 0
0.01973974 -0.01983072 0.024635339 -0.50544649 0.8623361 0.030003697 0
0.025814211 -0.016754603 0.024877217 -0.57175463 0.81998283 0.026920898 0
0.032030482 -0.011960582 0.025098138 0.70625317 -0.70719826 -0.032820076 0
-0.031426542 -0.0027254554 0.025026841 -0.83060694 -0.55685776 -0.0012303178 0
-0.027508231 -0.0073020752 0.024822891 0.70040023 0.71374947 0.0010554593 0
0.036408186 -0.0051270318 0.025211643 -0.70735401 0.70582849 -0.038163815 0
0.04010997 -0.0001863153 0.026574712 0.92822731 -0.37169081 -0.015493763 0
-0.033634964 0.0050291126 0.024848577 0.98982698 0.048281487 0.13383345 0
0.039278179 0.0035020115 0.0250776 -0.97040617 0.24003349 0.026378009 0
0.041203428 0.0054877428 0.025159566 0.95817256 -0.28590807 -0.012724021 0
-0.034785911 0.014937603 0.024846153 -0.98775768 0.096114613 0.12286855 0
0.041582186 0.015094984 0.02481317 -0.056251533 0.98022324 -0.18973173 0
-0.033168901 0.025105115 0.025008418 -0.43520463 -0.83922273 0.32604021 0
0.039035037 0.026338514 0.024934242 -0.96147835 -0.27440053 0.016244242 0
0.041188471 0.023368595 0.024736289 0.97038865 0.24046718 -0.022833321 0
-0.031357922 0.032419488 0.02490673 -0.8950206 0.44553789 -0.020836303 0
-0.027377699 0.035916537 0.024920324 0.84859771 -0.52895904 -0.0091799172 0
0.035289776 0.035128366 0.025064331 0.99957913 -0.023659764 0.01678581 0
-0.022757465 0.042439885 0.024854751 -0.68151867 0.73173887 -0.0095156506 0
-0.015915746 0.046865404 0.024916561 0.57582402 -0.81364352 0.080068476 0
-0.0085283006 0.049460303 0.02501376 0.33457884 -0.94221669 0.016873749 0
0.016649172 0.049061876 0.024808178 -0.33423051 -0.94242561 0.011129055 0
0.025119241 0.045433369 0.024876798 0.13007531 0.98734528 -0.090717226 0
0.03131659 0.041344818 0.024705751 0.71132582 0.70258451 -0.01975926 0
-0.011365109 0.050573494 0.025589112 -0.36243546 0.93185997 -0.016660385 0
-0.0042803562 0.051803261 0.025299558 -0.35636967 0.93408114 0.022203786 0
0.005175998 0.052277293 0.025233943 0.093171969 0.99558032 0.011784552 0
0.01403279 0.051192444 0.025232323 0.38053185 0.92454797 -0.020161817 0
-0.012504038 -0.021452725 0.035248693 -0.40343425 -0.91499603 -0.0047953147 0
-0.0054542655 -0.023315875 0.035083879 0.2230369 0.96354264 0.14778405 0
0.0051693926 -0.024373055 0.034824278 0.48817423 0.84216267 0.22901532 0
0.014916197 -0.02270864 0.035102293 -0.96322292 -0.26845908 0.011454199 0
0.021881158 -0.020933039 0.035303961 0.47033685 -0.88221115 -0.022061333 0
-0.023395669 -0.013380565 0.035057247 -0.74152529 -0.65661222 0.13784249 0
-0.016902354 -0.018065402 0.034873646 0.56121409 0.82636523 0.046468277 0
0.025838444 -0.016967457 0.034952201 -0.59040481 0.80598474 0.042551272 0
0.032075718 -0.012023986 0.034623642 0.70767027 -0.7065236 0.0052229129 0
-0.031564094 -0.0028761362 0.035291728 -0.86530995 -0.50090092 -0.01835712 0
-0.028118607 -0.0072910255 0.035190791 0.82317269 0.56411391 0.064515196 0
0.036651976 -0.0053284061 0.03487967 0.96964687 -0.24139903 0.03887932 0
0.040167887 -0.00041475863 0.035696369 0.92948222 -0.36856139 -0.015013695 0
-0.033952508 0.0049552224 0.034976408 -0.99134231 -0.1290931 0.02399056 0
0.039294593 0.002680128 0.034697831 -0.96019465 0.27919912 0.0086123394 0
0.041392416 0.0057326695 0.03520301 0.95679063 -0.2906957 -0.0068952539 0
-0.034859389 0.015014752 0.034737356 0.93976152 0.22306211 0.25902027 0
0.041725714 0.015105493 0.034688272 -0.97310305 0.21006469 0.094568528 0
-0.033343911 0.024933983 0.035072416 0.86639774 -0.49838051 0.031174617 0
0.039039396 0.026540263 0.034618359 -0.95454431 -0.29762709 0.016225567 0
0.041259762 0.023942869 0.03484707 0.96361774 0.26666823 -0.018137598 0
-0.031267781 0.032400902 0.035307046 -0.88473696 0.46598032 -0.010142961 0
-0.027616372 0.036235463 0.034754407 0.85335314 -0.51984018 0.039429016 0
0.035343852 0.035185516 0.034871332 0.11782456 -0.99303252 -0.0019547748 0
-0.022879792 0.042563681 0.034704726 -0.66555214 0.74628311 -0.010096925 0
-0.015872089 0.047096748 0.035008229 0.48838258 -0.87222022 0.026727045 0
-0.0085799191 0.049626883 0.035419282 0.31261805 -0.94976574 0.014662687 0
0.016886605 0.049054414 0.035136648 -0.34113976 -0.93985635 0.01713806 0
0.025202001 0.04549624 0.035211843 -0.81012988 -0.57959539 0.088084288 0
0.031187627 0.04151614 0.035583604 0.68791634 0.7254715 -0.02150156 0
-0.011508811 0.050706625 0.035195041 -0.36909682 0.92921507 -0.018085826 0
-0.0043605017 0.051942647 0.034997545 -0.27149549 0.96242261 0.0057289032 0
0.005028239 0.052415799 0.035331115 0.21624462 0.78726184 0.57745737 0
0.014417849 0.051441934 0.035295028 0.31920066 0.94757241 -0.014745873 0
-0.012982583 -0.021453692 0.045093864 -0.42909122 -0.9032011 -0.010419304 0
-0.0049436069 -0.023632118 0.044720251 -0.02392092 -0.99903786 -0.036757793 0
0.0048427097 -0.024601981 0.044900317 0.45243585 -0.89024884 0.052524321 0
0.015015401 -0.022926196 0.044951189 0.11745013 -0.99245286 -0.035253137 0
0.021938112 -0.020965841 0.044758324 0.48892158 -0.87218183 -0.015955741 0
-0.023479424 -0.013531984 0.045174498 -0.7592662 -0.64901 0.047966585 0
-0.017200094 -0.018054239 0.044783279 0.55751187 0.82977039 0.025723327 0
0.025944171 -0.017207164 0.045091908 -0.6006881 0.79921114 0.020867312 0
0.032051075 -0.012413136 0.045118626 0.74563879 -0.66594231 -0.023316361 0
-0.031507902 -0.0028529821 0.045040313 -0.84224933 -0.5390591 0.0055925138 0
-0.028246948 -0.0072566113 0.044905081 0.83801121 0.5456475 0.0024398905 0
0.036773931 -0.0052967132 0.045067437 -0.7899214 0.61225343 0.034203734 0
0.040262002 -0.00057273573 0.045695554 0.92908418 -0.36964783 -0.012772228 0
-0.033943873 0.0049216398 0.044970002 0.88592774 0.38989642 0.25122258 0
0.03931655 0.0024770328 0.044779986 -0.96240908 0.27145946 0.0088578369 0
0.041533835 0.0058982326 0.045171596 0.9673726 -0.25279218 -0.016923452 0
-0.034986425 0.01501402 0.045141343 0.99712592 0.061432604 0.044339001 0
0.042084061 0.01486218 0.04478699 0.99227375 -0.11793946 0.038511172 0
-0.033601038 0.025065746 0.044966292 -0.99659777 0.082010627 0.0081912708 0
0.039021615 0.026965879 0.045124885 -0.94521755 -0.32625175 0.011114105 0
0.041187081 0.023847112 0.045147713 0.94856513 0.31604439 -0.018440565 0
-0.031322692 0.032463484 0.044916168 -0.87531388 0.48341525 -0.011632429 0
-0.027632123 0.036288105 0.04505435 0.84633851 -0.5322004 0.021767458 0
0.035534028 0.035113923 0.045121122 -0.2520164 -0.96697176 -0.038123466 0
-0.02285691 0.042712033 0.045176871 -0.68965298 0.7241078 0.0068321908 0
-0.016002219 0.047158893 0.044994917 0.47343609 -0.88078493 0.0087339291 0
-0.0089852884 0.049643315 0.044423483 0.34999204 -0.93665981 0.013190821 0
0.017218402 0.049089305 0.044843405 -0.36989439 -0.92892057 0.016872218 0
0.025271324 0.045710366 0.045099236 -0.025694758 0.99661481 -0.078093871 0
0.031566497 0.041449625 0.044726402 0.69592732 0.71780801 -0.020900855 0
-0.011772389 0.050777074 0.045290351 -0.3828398 0.92368811 -0.015295593 0
-0.0043079779 0.051942799 0.044959873 -0.44945657 0.89326507 0.0081477184 0
0.004932215 0.05252083 0.044886414 -0.041328464 -0.99725074 0.061505333 0
0.014062655 0.051627893 0.045398638 0.3192654 0.94758523 -0.012322721 0
0.020112745 0.050089002 0.048239216 0.46362704 0.88576496 -0.021689044 0
-0.012889987 -0.021563305 0.05517279 -0.45716757 -0.88872427 -0.034159958 0
-0.0051640025 -0.023853861 0.054950282 -0.14161453 -0.98992133 -0.0010068369 0
0.0047489847 -0.024790619 0.055023797 0.07068675 -0.99118048 -0.11209189 0
0.015096005 -0.023063311 0.055037748 0.024076454 -0.99714226 -0.071607202 0
0.022090595 -0.021085875 0.055218346 0.48784313 -0.87278038 -0.01623706 0
-0.023696546 -0.013645407 0.055122022 -0.6919294 -0.72166657 -0.020762075 0
-0.017380573 -0.018201618 0.055179469 0.55209571 0.83375901 0.006020701 0
0.025921648 -0.017392516 0.054780666 -0.53499067 0.84443283 0.026797937 0
0.032428347 -0.01215745 0.054710362 0.72631526 -0.68726361 -0.011611452 0
-0.031677075 -0.0029995949 0.055129807 -0.87766302 -0.47908431 -0.013631613 0
-0.028218253 -0.007284462 0.054951709 0.83601159 0.54868835 -0.005075484 0
0.037038282 -0.0052708006 0.055019576 -0.7616148 0.6326403 0.14038931 0
0.040333718 -0.00064326799 0.054618288 0.92390972 -0.38253278 -0.0077171321 0
-0.034045655 0.0049471976 0.054971401 0.97790837 0.13574572 0.15895976 0
0.039394852 0.0020166002 0.055184145 -0.96102345 0.27512899 0.027167181 0
0.041620191 0.0057241051 0.055091932 0.96836758 -0.24949773 0.0038904133 0
-0.035172448 0.014933597 0.054858427 0.97824901 0.15921509 -0.13296409 0
0.042206313 0.01503756 0.055081137 0.89861226 -0.43834424 0.018718474 0
-0.03369147 0.024982302 0.055023309 -0.62605786 -0.77304858 -0.10221236 0
0.038882915 0.027225867 0.05518296 -0.94045365 -0.3397902 0.0094551574 0
0.041231159 0.024187239 0.055248082 0.94939148 0.31385091 -0.012382498 0
-0.03144449 0.032352675 0.055201706 -0.85188091 0.52367347 -0.0080582453 0
-0.027738195 0.036547434 0.05487939 0.84198564 -0.53886235 0.026221376 0
0.035753798 0.035016604 0.054793898 -0.60076898 -0.79833061 -0.041771751 0
-0.022916464 0.042808704 0.054781493 -0.71055996 0.7034815 -0.014777559 0
-0.015607247 0.047431093 0.055027954 0.42971396 -0.90224034 0.03617112 0
-0.0091880849 0.049712129 0.054561414 0.37036595 -0.92870957 0.018099247 0
0.017448304 0.049141634 0.055120554 -0.36213177 -0.93210948 0.0056968676 0
0.025419546 0.045677062 0.054737095 -0.63941717 -0.76585823 0.067874774 0
0.031601913 0.041533306 0.054985207 0.69807398 0.71574831 -0.019924754 0
-0.012172669 0.05082665 0.055090904 -0.39774534 0.91701865 -0.029586999 0
-0.0048079537 0.052010234 0.054982733 -0.36365652 0.92928338 -0.064702272 0
0.0049643829 0.052794367 0.05496395 0.1712445 0.98482615 -0.028156227 0
0.014032725 0.051661078 0.054809671 0.35298273 0.93555552 -0.011793247 0
0.020382682 0.050117481 0.055172414 0.46362701 0.88576496 -0.021689042 0
0.0046148635 -0.03042266 0.069889024 -0.06127071 0.069479451 -0.9957 0
-0.021884657 -0.020914581 0.069939464 0.025846269 -0.0052147266 -0.99965227 0
-0.012867855 -0.021537876 0.064909771 -0.46234187 -0.88503784 -0.054296162 0
-0.0050868709 -0.023912229 0.065128483 0.55160975 -0.7945354 0.25385064 0
0.0048831408 -0.024833007 0.065026678 0.052628335 0.98015124 -0.19113809 0
0.015028853 -0.02356305 0.065419622 -0.35995752 -0.14592312 -0.9214862 0
0.022953542 -0.022077195 0.066810429 0.45390946 -0.71849203 -0.52700597 0
0.030498888 -0.020407422 0.069838583 0.31466758 -0.5052349 -0.80356836 0
-0.031610992 -0.012733498 0.069569856 -0.014186701 -0.026629033 -0.99954474 0
-0.024031967 -0.01391411 0.065243319 -0.67544848 -0.68410212 -0.27526996 0
-0.01707785 -0.018335631 0.065225087 0.52422523 0.85155761 -0.0061327834 0
0.026178803 -0.017460629 0.06469468 -0.53667551 0.84377295 0.005163915 0
0.032923397 -0.013083354 0.065885432 0.55402315 -0.55993783 -0.61605841 0
0.04078088 -0.010749116 0.069853842 0.77751303 -0.53758544 -0.32630575 0
-0.032444384 -0.0036801356 0.065872662 -0.82921571 -0.43429354 -0.35183871 0
-0.028399108 -0.0073826159 0.064853601 0.83494318 0.55030489 0.0058619273 0
0.037111301 -0.0054314169 0.064819828 -0.81881118 0.57365036 -0.021760957 0
0.042004291 -0.0038275204 0.068342812 0.35852405 -0.18060002 -0.91588432 0
-0.040306736 0.0076823533 0.069702521 -0.60709411 -0.098846078 -0.78845811 0
-0.03451148 0.0046798489 0.065376006 0.35865679 0.073187113 -0.93059611 0
0.039570224 0.0018378864 0.064169876 -0.95466942 0.29691732 0.021127312 0
0.042320993 0.0056874109 0.065886728 0.68191952 -0.2916396 -0.67076975 0
-0.040438723 0.014822055 0.069527537 -0.26761946 -0.019932687 -0.96331847 0
-0.035517 0.014652866 0.06518402 0.68748128 0.051872522 -0.72434717 0
0.042995822 0.014889051 0.065613441 0.44534227 0.10651912 -0.88900167 0
-0.040214758 0.022797994 0.069529116 -0.56347364 0.14631487 -0.81307411 0
-0.034177572 0.025021944 0.065167896 0.46929592 -0.38224521 -0.79602128 0
0.038999122 0.027324894 0.064726457 -0.92625129 -0.37622371 0.022676747 0
0.042234343 0.024422059 0.065854117 0.90172446 0.25483736 -0.34921488 0
-0.032325458 0.033242699 0.06613566 -0.75766647 0.43976024 -0.48223701 0
-0.027808035 0.036526069 0.065062441 0.83681297 -0.54674757 -0.028480886 0
0.035914011 0.035445683 0.065015785 0.77402276 0.034998052 -0.63218969 0
0.041928016 0.033801347 0.06949123 0.25266752 0.090321399 -0.96332812 0
-0.031556327 0.041045386 0.069676682 -0.37651128 0.32657647 -0.86694127 0
-0.023627589 0.043528073 0.066002004 -0.47817767 0.5123713 -0.71331745 0
-0.016002718 0.047354016 0.064863227 0.45253509 -0.89117497 0.031923447 0
-0.0093641775 0.049814124 0.065136753 0.30142123 -0.95342195 0.011482579 0
0.017852763 0.049104147 0.06513343 -0.38905761 -0.92085266 0.025778681 0
0.025392951 0.046060901 0.065178029 -0.84863299 -0.505934 0.15444392 0
0.033005338 0.042637587 0.066694148 0.5667159 0.5900684 -0.57502383 0
0.040418476 0.040242024 0.069681153 0.51513129 0.26076677 -0.81648052 0
-0.020757155 0.050564464 0.069526002 -0.030655172 0.042162482 -0.9986403 0
-0.013347545 0.052047078 0.066546053 -0.35797733 0.83171749 -0.42437983 0
-0.0046863011 0.052762233 0.065514326 -0.018998867 0.77300811 -0.63411152 0
0.0049676904 0.053279113 0.065305538 0.086958796 0.84940463 -0.52052855 0
0.014431387 0.052386567 0.065569974 0.26263404 0.93162084 -0.25120902 0
0.022672426 0.051979359 0.068007194 0.32772335 0.66264498 -0.67342329 0
-0.0031087976 -0.030818844 0.070753634 -0.1864855 -0.9479686 0.25802872 0
0.0051332726 -0.030767921 0.071523823 0.035813171 -0.9965204 -0.075262673 0
0.01111648 -0.030348595 0.071855173 0.20177425 -0.97850305 -0.042649198 0
-0.022462504 -0.022413718 0.071744405 -0.5372979 -0.83853179 -0.090418249 0
-0.014475739 -0.02383225 0.072024919 -0.1631366 -0.74300116 0.64910382 0
-0.0049928874 -0.026024442 0.071889013 0.44373748 0.80210418 0.39965719 0
0.0050873705 -0.026702477 0.072099373 -0.026078807 0.96656996 0.25507358 0
0.0151892 -0.025455032 0.072121069 -0.033247802 -0.24113739 0.96992123 0
0.024095306 -0.023204884 0.07211633 0.38694677 -0.74130487 0.54839712 0
0.03113859 -0.021166205 0.071516067 0.63023001 -0.77260816 -0.076725617 0
-0.031698797 -0.012260295 0.071650311 -0.67388815 -0.50279319 0.54136288 0
-0.025322506 -0.015213951 0.071971744 0.41081744 0.62885594 0.66012812 0
-0.017236628 -0.018672926 0.071983442 0.38199979 0.77435619 0.5044291 0
0.026551276 -0.018187942 0.072039805 -0.44805256 0.68603504 0.57324076 0
0.034289476 -0.013913163 0.072107464 0.15868458 -0.12586591 0.97927362 0
0.040760439 -0.011263984 0.071717508 0.81695944 -0.56197619 0.12946056 0
-0.040165327 -0.00058998505 0.071713753 -0.98498631 -0.1271071 0.11681505 0
-0.03411882 -0.0045161219 0.072127901 -0.34820697 -0.31914571 0.88141811 0
-0.028538277 -0.0079149259 0.07193476 0.70279193 0.50216401 0.50389946 0
0.037579134 -0.0061006509 0.072071992 -0.69190848 0.47500062 0.54372513 0
0.042769235 -0.003815128 0.072451621 0.59636462 -0.25622118 0.76072323 0
-0.040677894 0.0061371792 0.072127841 -0.98400223 -0.093286507 0.15178023 0
-0.036131073 0.0045206654 0.07202471 0.78458196 0.1080788 0.6105327 0
0.039523166 0.00094842014 0.071688525 -0.90721947 0.30015224 0.2947225 0
0.04417691 0.0053375717 0.072076403 0.0044164802 -0.10301762 0.99466968 0
-0.041028339 0.015042182 0.071895704 -0.98432213 0.012630909 0.17592742 0
-0.036941476 0.015019629 0.072076328 0.79332048 0.03082934 0.60802317 0
0.044790573 0.014925933 0.072133765 -0.19551399 0.13288255 0.97165656 0
-0.040634893 0.023088466 0.071616918 -0.96741283 0.19031788 0.16700782 0
-0.035908774 0.025092425 0.071993083 0.43284759 -0.059114128 0.89952672 0
0.039239556 0.027937561 0.071406983 -0.86980671 -0.36254057 0.33466485 0
0.043686878 0.024849005 0.071889408 0.3161048 0.067607537 0.94631237 0
-0.033580158 0.03435969 0.072023444 -0.62203586 0.23701604 0.74625379 0
-0.02827175 0.036887132 0.071763292 0.70045894 -0.49639988 0.51278114 0
0.036945153 0.035739116 0.071975477 -0.6346693 -0.53314519 0.55942041 0
0.042155456 0.033894241 0.072016925 0.72161001 0.3641918 0.58876431 0
-0.03148406 0.041834373 0.071760029 -0.74036014 0.62092811 0.25751749 0
-0.024790283 0.044779245 0.072118118 -0.051033281 0.042187456 0.99780548 0
-0.016669678 0.047800079 0.071980014 0.49349669 -0.78647727 0.37136835 0
-0.0095328316 0.049855545 0.070497803 0.34914652 -0.93349087 0.081801444 0
0.018098747 0.049244341 0.071197197 -0.42411759 -0.9015606 0.085514151 0
0.026237458 0.046889532 0.07229694 -0.45069262 -0.66586423 0.59455949 0
0.033806808 0.044032428 0.072376288 0.37182784 0.37058634 0.85112268 0
0.040262308 0.040751927 0.070720829 0.84972423 0.50918615 0.1367414 0
-0.02143446 0.051182553 0.071902029 -0.54352236 0.76887119 0.33677974 0
-0.014686871 0.052856676 0.072204016 -0.36349374 0.68173683 0.63490719 0
-0.0049475967 0.055013284 0.072106026 -0.021417834 0.4094629 0.9120754 0
0.0050809854 0.055804409 0.072171979 0.057690091 -0.033360243 0.99777699 0
0.015196418 0.05452973 0.072278395 -0.023191821 0.40753147 0.91289663 0
0.023712941 0.052580096 0.072189815 0.52396226 0.80038685 0.29128069 0
0.030347595 0.050188161 0.072664201 0.53688413 0.82637995 0.16985732 0
