# .PCD v0.7 - Point Cloud Data file format
VERSION 0.7
FIELDS x y z normal_x normal_y normal_z curvature
SIZE 4 4 4 4 4 4 4
TYPE F F F F F F F
COUNT 1 1 1 1 1 1 1
WIDTH 416
HEIGHT 1
VIEWPOINT 0 0 0 1 0 0 0
POINTS 416
DATA ascii
-0.03316316 -0.055119772 -0.00011121657 -0.10013864 0.93756354 -0.33308682 0
-0.026910283 -0.055464327 -0.00010508864 -0.030140994 -0.85340494 -0.52037632 0
-0.0177314 -0.055852469 -2.7349646e-05 0.044805758 0.99142981 -0.12271669 0
-0.0079103839 -0.052051648 -5.2754982e-05 0.45139414 -0.85164762 -0.26634502 0
-0.0019761813 -0.048743024 -3.7208563e-05 0.26888275 -0.91996992 -0.2852321 0
0.0028974181 -0.043032758 -7.5283082e-05 -0.79212701 0.6025818 0.097108193 0
0.0074150986 -0.037081938 -9.8094162e-05 -0.78115392 0.59435248 0.19116376 0
0.011208833 -0.032146066 -7.4567921e-05 0.70320177 -0.53540754 -0.46780986 0
0.014736135 -0.026234725 -8.9424648e-05 -0.26620889 0.095925532 -0.95913041 0
-0.0623748 -0.016735232 -1.5965325e-05 -0.14459589 -0.0067577451 -0.98946768 0
0.015298699 -0.013522472 -1.7685292e-05 0.74494112 0.2019469 -0.63583034 0
-0.061286107 -0.0044036028 -7.696214e-05 -0.95900744 0.21495168 -0.18466324 0
-0.059374273 -8.3680716e-06 -1.4691999e-05 -0.90713233 0.41474774 -0.071381062 0
0.012360237 -0.0035769169 -6.2399282e-05 0.62702215 0.25300172 -0.73677224 0
-0.057616845 0.0038030646 -1.7574712e-05 0.77795953 -0.35109711 -0.52106613 0
0.0066705453 0.0059470409 -8.2620441e-05 -0.1989719 -0.13931379 -0.97005242 0
0.010421691 0.00032796746 -0.00011290613 -0.71912748 -0.637474 -0.27655518 0
0.0028242127 0.010794547 -5.9415772e-05 0.19539857 0.26878583 -0.94317204 0
-0.030570926 0.02232774 -7.4064228e-06 -0.23496765 0.96808952 -0.087137051 0
-0.026131393 0.022366375 -5.4429362e-05 -0.027708445 -0.32157719 -0.94647789 0
-0.023948241 -0.060222901 0.0087128021 0.011293794 -0.99935037 -0.034223847 0
-0.051019553 -0.050401483 0.0085283378 -0.51635826 -0.8338632 -0.19505447 0
-0.043745618 -0.052428469 0.0066379136 -0.36981302 -0.74807608 -0.5510177 0
-0.034852881 -0.054897778 0.0058984188 -0.30690116 -0.65763241 -0.68799078 0
-0.02510443 -0.055346273 0.0056327134 -0.27062899 0.95711923 0.10335694 0
-0.015121083 -0.055410281 0.0055911737 -0.14128686 -0.6889081 -0.71094567 0
-0.0056197294 -0.053133614 0.0059664221 0.43069759 -0.76056629 -0.48583794 0
0.0019660548 -0.051156566 0.008035819 0.58174545 -0.68601853 -0.43697917 0
-0.060170919 -0.040408611 0.0092623048 -0.80648184 -0.59094143 -0.01937362 0
-0.05385115 -0.043772846 0.0060062543 -0.6153388 -0.57387215 -0.54039705 0
-0.045427699 -0.045664083 0.0056377742 0.37615925 0.42078191 -0.82549793 0
-0.035234835 -0.044774972 0.0068293582 -0.054144777 0.068666898 0.99616927 0
-0.025254084 -0.045199163 0.0068401396 0.0254033 0.034473777 0.99908274 0
-0.015281614 -0.044842329 0.0067640259 0.02686725 -0.036968514 0.99895519 0
-0.0045762421 -0.045413472 0.0059286091 -0.42481586 0.8253994 -0.37181637 0
0.0041781981 -0.044449966 0.0058188741 0.79024744 -0.58155787 -0.19313063 0
0.011163086 -0.041564878 0.0082789827 0.66849208 -0.63908958 -0.3803719 0
-0.061916735 -0.033765402 0.0067776809 -0.87437367 -0.32096308 -0.36394152 0
-0.055736005 -0.035348386 0.005315931 0.83422571 0.2504113 -0.49128559 0
-0.045009021 -0.034771465 0.0068277013 0.11411331 -0.20739478 0.97157884 0
-0.034800459 -0.035142899 0.0067304354 -0.23635229 -0.88159013 -0.40857863 0
-0.024748575 -0.034931868 0.0065869805 -0.15756752 -0.39268404 0.90607488 0
-0.014911518 -0.034959499 0.0064737489 0.15220338 -0.72828764 0.66815507 0
-0.0046665254 -0.034644391 0.0064831944 -0.097240187 -0.13755184 -0.98570985 0
0.0056711519 -0.035492674 0.0057236692 -0.50409502 0.25166237 -0.82616842 0
0.012805532 -0.033748463 0.0060065263 0.63281763 -0.29054379 -0.71772289 0
-0.062912792 -0.024810197 0.0055069667 -0.54513371 0.0022295502 -0.83834618 0
-0.055250555 -0.025223034 0.0067146486 0.74402606 0.63720316 0.20099059 0
-0.045057859 -0.024907732 0.0065309298 -0.3301492 -0.23437952 0.91436744 0
-0.034811664 -0.024903284 0.0062436387 -0.30005544 -0.5426476 0.78453827 0
-0.024849731 -0.024944369 0.0061306646 0.058056496 -0.094704591 0.99381113 0
-0.014997393 -0.024981679 0.0060478053 -0.073182583 -0.29426745 -0.95291716 0
-0.0051427837 -0.025241742 0.0063682906 0.39709362 -0.55258286 0.73278165 0
0.0051514348 -0.025044784 0.006680537 0.24339348 0.076104015 -0.9669373 0
0.014545493 -0.024991235 0.005625369 0.25169119 -0.037718501 -0.96707237 0
-0.06333027 -0.015181359 0.0056436653 -0.77604955 0.06788256 -0.62700796 0
-0.05492413 -0.014982825 0.0068661547 0.50969142 -0.12461037 -0.85128546 0
-0.045024458 -0.015231375 0.0064151231 -0.94181329 0.057430271 0.33119386 0
-0.034950931 -0.015077661 0.0059405109 0.041005794 -0.065926939 -0.9969815 0
-0.024787132 -0.015014114 0.006153482 0.015893022 -0.081629708 0.99653602 0
-0.014900414 -0.015022448 0.0060722968 -0.48780078 -0.21864142 0.84513098 0
-0.0049994602 -0.015058345 0.0063098441 0.34248063 -0.029884061 0.93904948 0
0.0049893507 -0.015055681 0.0067931372 0.58024794 0.1172759 0.80595195 0
0.015018342 -0.015119714 0.0055911881 -0.45534286 -0.0077830013 -0.89028209 0
-0.062739849 -0.0058556926 0.0058609876 -0.88842326 0.23500976 -0.39430249 0
-0.055835169 -0.0045775929 0.0059435642 0.77677423 -0.3103376 -0.54800755 0
-0.045178358 -0.0051056938 0.0066491952 -0.84368974 0.51684809 -0.14510563 0
-0.034867331 -0.0048143598 0.0060915304 -0.16447969 0.94571519 -0.28030214 0
-0.025176777 -0.0049249623 0.0060555134 -0.089358687 0.1439123 0.98554766 0
-0.015224 -0.0047761938 0.0060488642 -0.096339941 0.72577322 0.68115479 0
-0.0053428602 -0.0047287736 0.0064228508 0.58358783 0.58081496 0.56752026 0
0.0049793115 -0.0051207202 0.0067597567 -0.10209591 -0.087556735 0.99091387 0
0.013789155 -0.005143099 0.0053628418 0.62712049 0.1785914 -0.75817215 0
-0.061701939 0.0024265903 0.008019031 -0.77633446 0.41151455 -0.47745207 0
-0.05513015 0.0051109181 0.0052235671 0.052994352 -0.098989248 -0.99367636 0
-0.044792809 0.0046826969 0.0067873131 -0.017667539 0.013061488 -0.9997586 0
-0.034880087 0.0049069463 0.0065820618 -0.22874285 0.97244483 0.045030706 0
-0.024911448 0.0051109083 0.0064832126 -0.14628461 0.6448856 -0.75014889 0
-0.014796566 0.0051191081 0.0065853028 0.29820928 0.76886624 0.56561112 0
-0.0052340114 0.0050766119 0.0067413906 0.032422554 0.036847364 0.99879485 0
0.0057680001 0.0055057714 0.0053096102 -0.81185544 -0.55425704 0.18354814 0
0.012153331 0.0038980793 0.0066458657 0.80398422 0.42880017 -0.41199484 0
-0.052820209 0.012583671 0.0071072322 -0.64734489 0.73266762 -0.21010168 0
-0.044754587 0.015242646 0.0053575565 0.68810803 -0.6108011 -0.39170066 0
-0.035361011 0.015547961 0.0061895587 0.4282015 -0.78436965 -0.44878483 0
-0.024624312 0.015165475 0.0068177744 0.023920413 -0.25761291 0.9659521 0
-0.014789023 0.015556378 0.006174976 -0.29541305 -0.95090014 0.092303902 0
-0.0047005191 0.015514879 0.0054801772 -0.25274673 -0.96028572 0.11819673 0
0.0038180724 0.013195472 0.0064160498 0.63100022 0.76387024 -0.13542901 0
0.010270075 0.010090104 0.0088674314 0.81548727 0.57835215 -0.022119496 0
-0.042130254 0.021359272 0.0080687143 -0.61965734 0.67707795 -0.39697641 0
-0.034608752 0.022135772 0.0053615449 -0.45128587 0.73430181 -0.50709158 0
-0.024869677 0.022896415 0.0052170483 -0.13670856 0.63203561 -0.76278549 0
-0.015683789 0.022682667 0.0056729927 0.13922264 0.84784424 -0.51164168 0
-0.0066960845 0.021629909 0.0079271933 0.51931483 0.72008497 -0.46020624 0
-0.024884546 -0.060287666 0.015126438 -0.014182664 -0.99978048 -0.015419652 0
-0.019270925 -0.060075685 0.016419938 0.11567792 -0.99303299 -0.0224542 0
-0.051058609 -0.050723974 0.015089174 -0.56243771 -0.82642335 -0.026234511 0
-0.044716347 -0.053763151 0.015142207 -0.39736825 -0.78505284 -0.47517419 0
-0.035060789 -0.05778008 0.015143456 0.24338444 0.96638894 -0.082803458 0
-0.025277162 -0.058468405 0.014930021 0.045323275 0.99894327 0.0076283878 0
-0.014601177 -0.058348142 0.014572293 0.34816629 0.92321581 -0.16264315 0
-0.0050797667 -0.055011809 0.015074026 -0.19648653 -0.98016757 -0.02578094 0
0.001756836 -0.051373716 0.01486444 0.60530573 -0.79598045 0.0044815713 0
-0.060361926 -0.040345553 0.015328984 -0.80674529 -0.59058768 -0.019189248 0
-0.055295885 -0.045205649 0.01507894 0.29118505 0.95445734 0.064980567 0
-0.049460284 -0.049599163 0.01499888 0.54762238 0.83672315 -0.0020204901 0
0.0064524747 -0.0462787 0.014845831 -0.72670913 0.63124365 -0.270971 0
0.011515388 -0.041847587 0.014879441 0.77986616 -0.62507606 -0.032996178 0
-0.062548757 -0.034432735 0.014977844 -0.90157479 -0.43243933 0.0126168 0
-0.059340551 -0.038567148 0.014847224 0.8871516 0.46147779 -0.00056472584 0
0.014584084 -0.034884743 0.014910179 -0.50050175 0.83686966 0.22169137 0
-0.06533166 -0.024769222 0.014781804 0.85344672 0.50843883 -0.11453657 0
0.01752078 -0.02484257 0.015106874 -0.54309398 -0.69831187 -0.46627191 0
-0.066000752 -0.014957293 0.014936817 0.90098143 -0.32614323 -0.28611726 0
0.018025396 -0.014987465 0.015086223 -0.33367813 0.26583442 -0.9044286 0
-0.064489372 -0.0049561891 0.015455944 0.93154216 -0.20759878 -0.29854977 0
0.016724221 -0.0049363687 0.015026419 -0.34204218 0.5574705 -0.75646138 0
-0.06187214 0.0027790784 0.014759512 -0.86037606 0.50963235 0.0052798972 0
-0.058145516 0.0073095523 0.014856633 0.87305111 -0.46885446 0.13400516 0
0.0088503063 0.0083251204 0.015011189 -0.82251191 -0.56757104 -0.036568344 0
0.01304284 0.0045893872 0.015080018 0.88348103 0.46053365 -0.085848652 0
-0.053647712 0.013582082 0.015142827 -0.75844818 0.64955592 -0.053229563 0
-0.047038656 0.01801469 0.015013242 0.53462547 -0.83999938 -0.092609964 0
-0.0022355164 0.018759852 0.015295723 -0.49646896 -0.86805332 -0.001417616 0
0.0048964815 0.014632695 0.014853346 0.61174631 0.76397938 -0.2051878 0
0.010245257 0.010356213 0.014917609 0.8138274 0.58071232 -0.021406213 0
-0.042980209 0.021564063 0.015100596 -0.51855934 0.8544786 -0.031025195 0
-0.03519161 0.023965992 0.015055277 0.66392648 -0.74753124 0.019968444 0
-0.025221106 0.025719833 0.015036756 -0.23392989 0.84415865 -0.48236179 0
-0.014939533 0.024638185 0.01495966 -0.4699468 -0.72249597 0.50709921 0
-0.0058654789 0.022027764 0.015033095 0.43581757 0.89806879 -0.059460647 0
-0.030325057 -0.060072768 0.025817366 -0.10004462 -0.99487764 -0.014475279 0
-0.02482024 -0.060423419 0.024806796 -0.024326626 -0.99961376 -0.0134407 0
-0.018640082 -0.060182869 0.024516659 0.12013806 -0.99252993 -0.021241542 0
-0.051199164 -0.050856341 0.02567365 -0.57968748 -0.8146739 -0.016397489 0
-0.044776279 -0.053978555 0.025016248 -0.6510995 -0.74785918 -0.12952259 0
-0.035111804 -0.0579709 0.024788478 0.094584741 0.98813689 -0.12099258 0
-0.024803748 -0.058561452 0.025101408 0.033704527 0.99905199 0.027550843 0
-0.014400539 -0.058399644 0.0249089 0.055044539 0.99848217 -0.0018310595 0
-0.0048470432 -0.054953679 0.024810879 -0.68439907 0.72614908 0.065614775 0
0.001991085 -0.051349565 0.024928721 0.59663767 -0.80218869 -0.022734294 0
-0.060331352 -0.04069183 0.024746073 -0.80690986 -0.59036654 -0.019074021 0
-0.055441808 -0.045133017 0.025051219 0.69282317 0.71911728 0.053539954 0
-0.049680062 -0.04970143 0.024476472 0.5841195 0.81144267 0.019107768 0
0.0065166084 -0.046236068 0.024978396 -0.79623812 0.60310173 0.047677319 0
0.011716492 -0.041835416 0.025250107 0.81020606 -0.58614367 0.0013077207 0
-0.062632382 -0.034535699 0.025114385 -0.92215049 -0.38501266 -0.037466262 0
-0.059214078 -0.038772907 0.024935236 0.89561069 0.44478196 0.0071096313 0
0.014679299 -0.035023231 0.024971936 -0.75813705 0.6198656 0.20247155 0
-0.065497547 -0.025135225 0.025154693 -0.97594869 -0.069094665 0.20676099 0
0.017854048 -0.025234865 0.024693832 -0.27915481 -0.44486365 0.85098118 0
-0.06622161 -0.015082004 0.024915112 -0.72079402 -0.57746035 -0.38339996 0
0.018288786 -0.015030144 0.024827551 0.48684806 -0.40569064 0.77355939 0
-0.064676255 -0.0049556871 0.024942055 -0.95338213 0.29987061 0.033765301 0
0.016811553 -0.0048082322 0.024879023 -0.34039608 0.88787425 0.30953163 0
-0.061885033 0.002636204 0.024856253 -0.8410365 0.5409739 0.0021929583 0
-0.058207937 0.0075043654 0.025415605 0.8183735 -0.5746851 -0.0014272647 0
0.0087030977 0.0085746692 0.02401815 -0.77009821 -0.63655639 0.041770242 0
0.013188313 0.0045496267 0.024925951 0.88052112 0.46906739 0.068251833 0
-0.053545002 0.013489395 0.024943057 -0.74167472 0.66372854 -0.096866049 0
-0.047367919 0.018062418 0.025375253 0.58982742 -0.80546623 0.05768615 0
-0.002495877 0.018931989 0.025012108 -0.49180332 -0.87037301 0.02408703 0
0.0048558661 0.014854561 0.025130747 0.56597412 0.82438719 -0.0076849032 0
0.010450813 0.010387652 0.027240794 0.78092283 0.6245786 -0.0078178439 0
-0.043070417 0.021635676 0.025077812 -0.50373113 0.86361963 -0.020398978 0
-0.035106037 0.024234619 0.02486236 -0.16159062 0.98051238 0.11173128 0
-0.025127269 0.025689114 0.024886612 -0.27784446 -0.22727561 -0.93335325 0
-0.014845266 0.024837054 0.02484218 -0.26835144 -0.96103799 -0.066283241 0
-0.0057352558 0.022182159 0.025156766 0.42025107 0.907399 -0.0040298244 0
-0.030907152 -0.060125273 0.034427043 -0.17133386 -0.98508865 -0.015655661 0
-0.025025569 -0.060560048 0.035469901 -0.025104025 -0.99958932 -0.013820342 0
-0.018363047 -0.060319018 0.03509644 0.12553681 -0.99196398 -0.015747754 0
-0.051314682 -0.05098258 0.035500281 -0.60324174 -0.79730034 -0.020287801 0
-0.045120336 -0.053943064 0.035247747 -0.29268521 -0.95592499 -0.023299102 0
-0.035576131 -0.057943847 0.035267465 0.17868263 0.98203593 0.060644988 0
-0.024784252 -0.058744337 0.034806382 0.027251059 0.99953651 0.013567891 0
-0.014081614 -0.058283921 0.035022002 -0.22716567 0.97380519 0.0099575622 0
-0.0049881851 -0.0551445 0.034995358 -0.56598413 0.82353199 -0.038170926 0
0.00207523 -0.051497146 0.035337783 0.56865364 -0.82220322 -0.02479683 0
-0.060534336 -0.040743865 0.035455748 -0.81908041 -0.57340527 -0.017711082 0
-0.055745803 -0.045314677 0.035279475 -0.89706963 -0.43962252 0.044700146 0
-0.049756516 -0.049755402 0.035294466 0.53833139 0.84250951 0.019418657 0
0.0066193617 -0.04669515 0.035096314 -0.58412033 0.81137782 0.02166908 0
0.01148293 -0.041961301 0.035429478 0.80602598 -0.59186709 -0.0039179926 0
-0.062844366 -0.034216505 0.034867402 -0.96663982 -0.25434649 -0.030253343 0
-0.059364788 -0.038867474 0.034908891 0.90277451 0.42959487 0.021129167 0
0.014816574 -0.035053454 0.034820765 -0.91539192 0.40255761 0.0022366992 0
-0.06565652 -0.024975332 0.035071 0.94024259 -0.12555909 0.31651044 0
0.018056033 -0.025390087 0.034842692 -0.94747853 0.30925938 0.081505403 0
0.020031877 -0.020313095 0.036255382 0.99653697 -0.081872836 -0.01451936 0
-0.066356376 -0.015172014 0.035021707 0.98900962 -0.14139298 0.043221328 0
0.018835651 -0.014360244 0.034709051 -0.99120301 -0.13070391 0.020809742 0
0.020055812 -0.017927133 0.036458787 0.99981695 0.0074399384 -0.01762652 0
-0.0647908 -0.0048251348 0.034938604 -0.9974907 -0.010820511 0.069966219 0
0.017404331 -0.0049362499 0.034879658 -0.62652278 -0.097269282 0.77330977 0
-0.061914235 0.003013046 0.035102244 -0.8492521 0.52797842 -0.0030968222 0
-0.058297429 0.0076810699 0.035011031 0.78549701 -0.61839032 0.024245039 0
0.008974961 0.0091113178 0.035147097 -0.77776349 -0.62788826 0.028988142 0
0.013374019 0.0044944813 0.035110027 0.85999584 0.48508832 0.1584187 0
-0.053630199 0.013646211 0.035218056 -0.7056157 0.70695549 0.048169196 0
-0.047422215 0.01831948 0.035263866 0.59430373 -0.80423051 0.0040359772 0
-0.002098287 0.018854024 0.034994587 -0.50412136 -0.86330009 0.023970461 0
0.0048931893 0.014922564 0.034910873 0.72245407 0.68749583 0.073550239 0
0.010455559 0.010508052 0.034551509 0.78390288 0.62060899 -0.018461954 0
-0.043230172 0.021578947 0.035070509 -0.54023504 0.8413226 -0.017954163 0
-0.035016231 0.024470976 0.03487882 -0.32179284 0.93648022 0.13947839 0
-0.024621716 0.025961792 0.034714095 -0.15908343 0.98695999 0.024547013 0
-0.015016511 0.025121573 0.034835763 -0.0068128142 0.99604744 -0.088561088 0
-0.0053218962 0.02213045 0.034929547 0.45842105 0.88868845 -0.0091103474 0
7.9511046e-05 0.020020867 0.035376512 0.55474752 0.83194798 -0.01085364 0
-0.031125909 -0.060246792 0.045231823 -0.17029768 -0.98526824 -0.015657229 0
-0.025116408 -0.060721789 0.045052532 -0.028751543 -0.99941957 -0.018268205 0
-0.017872117 -0.060410082 0.045095988 0.15343268 -0.98799819 -0.017835414 0
-0.051300563 -0.051231705 0.044801317 -0.60397387 -0.79674131 -0.020467399 0
-0.045084979 -0.054075427 0.044872623 0.76200616 0.64102221 0.091853932 0
-0.035553932 -0.05808115 0.044745374 0.14101267 0.98994356 0.011278817 0
-0.024861468 -0.058861475 0.044737596 0.041077226 0.99909878 0.010690955 0
-0.014205124 -0.058397502 0.045058839 -0.23765995 0.97118735 0.017687615 0
-0.0050412496 -0.055324402 0.045025699 -0.51128531 0.85858101 0.037762627 0
0.0020759644 -0.051684707 0.044775203 0.56613004 -0.82412893 -0.017554682 0
-0.06061656 -0.040898025 0.044521302 -0.82291317 -0.56789678 -0.017527692 0
-0.055609275 -0.045601837 0.045008186 0.6530273 0.75730687 -0.0064518438 0
-0.049919263 -0.0499455 0.045620788 0.58179903 0.81317461 0.016031288 0
0.0067082127 -0.046763387 0.045443401 -0.59011143 0.80727965 -0.0082523515 0
0.011482337 -0.041939259 0.045038838 0.78567421 -0.61829811 -0.020578306 0
-0.062826596 -0.034744162 0.04515991 -0.94100326 -0.33782184 0.019734107 0
-0.059570931 -0.038984515 0.045333005 0.90011692 0.43488407 0.025793521 0
0.014946585 -0.035167228 0.044893324 -0.78747976 0.60871816 -0.096631981 0
-0.065848365 -0.025071364 0.04492534 -0.99379569 -0.10651378 -0.032014415 0
0.018164264 -0.025476234 0.044899777 -0.96999699 0.24303946 0.0061419806 0
0.02010268 -0.020830536 0.045488913 0.99417669 -0.10674251 -0.014793439 0
-0.066585504 -0.014930501 0.045109332 -0.96405131 -0.25013474 -0.089652419 0
0.018387737 -0.014360265 0.045320723 -0.99952954 -0.028802931 0.010541246 0
0.020152431 -0.015760807 0.045118172 0.99971497 0.015786022 -0.017907752 0
-0.064890742 -0.0047618514 0.044815898 -0.96051735 -0.10976658 -0.25565171 0
0.017476212 -0.0048211133 0.044981796 -0.93946952 -0.33382395 -0.077192329 0
-0.061904017 0.0032533128 0.044857223 -0.84746379 0.53034604 -0.023200262 0
-0.058362845 0.0078435559 0.044686724 0.83479238 -0.55049807 -0.0085747298 0
0.0091680484 0.0092111295 0.045097854 -0.80774289 -0.58883178 0.028786004 0
0.0136567 0.0046459925 0.044835359 0.88201851 0.47000769 -0.033706553 0
-0.054042663 0.013709893 0.04477359 -0.73502904 0.67802989 -0.002792845 0
-0.047540676 0.018121922 0.045316376 0.62079221 -0.78378975 0.017047072 0
-0.0016711947 0.018878333 0.044396993 -0.50281346 -0.86400706 0.025893597 0
0.004958523 0.01516024 0.045086626 0.58246589 0.81270802 -0.015461687 0
0.010542068 0.01082712 0.045348328 0.78617918 0.61741441 -0.026863392 0
-0.04347923 0.02159773 0.045051247 -0.54156125 0.84059042 -0.010915892 0
-0.035061073 0.02460142 0.045073356 -0.21980466 0.97096628 0.094394736 0
-0.025091628 0.026138393 0.04528207 -0.00028335408 0.99974972 0.022368547 0
-0.01517802 0.025317818 0.045082886 -0.068144359 0.99734384 -0.025722923 0
-0.0055325665 0.022439551 0.044965342 0.48592603 0.87398988 -0.0041996725 0
0.00025448564 0.020124342 0.046496823 0.53257215 0.84617341 -0.018908786 0
-0.031486273 -0.060329769 0.055522751 -0.1998693 -0.97976696 -0.010440045 0
-0.025224514 -0.060903676 0.055089507 -0.030553037 -0.99931401 -0.02093205 0
-0.0174635 -0.060496751 0.054800551 0.16502666 -0.98613077 -0.017669762 0
-0.051587127 -0.051227875 0.054843001 -0.60895014 -0.7929408 -0.020606063 0
-0.044960707 -0.054324362 0.054942552 0.85118467 0.52197653 -0.055000972 0
-0.035772186 -0.058218453 0.055241428 0.052034393 0.99820441 0.02967092 0
-0.024801405 -0.059020817 0.054840505 0.041319843 0.99894333 0.020123662 0
-0.014254693 -0.058428843 0.054885704 -0.2101662 0.97758925 0.012222342 0
-0.0049608555 -0.055588283 0.055148233 0.12326054 -0.99190795 0.030421318 0
0.0022403863 -0.05168505 0.055161595 0.60758543 -0.79424906 0.0029108853 0
-0.060752809 -0.041027129 0.055477142 -0.82725 -0.5615738 -0.01709903 0
-0.055700239 -0.045712881 0.055060323 0.64405799 0.76483089 -0.014933264 0
0.0067713759 -0.046788149 0.055104617 -0.66216701 0.74934721 -0.0036835349 0
0.011620632 -0.041895352 0.054865137 0.76973397 -0.63780266 -0.026784914 0
-0.063058585 -0.034669071 0.054853134 -0.93502265 -0.35453647 0.00604728 0
-0.059620727 -0.039367709 0.054329656 0.88282162 0.46946847 0.015012882 0
0.014973716 -0.035378896 0.054827694 -0.9540894 0.29479712 0.052991353 0
-0.066010617 -0.024984706 0.054938268 -0.98022115 0.07004343 -0.18509558 0
0.018263683 -0.025459832 0.055095792 -0.97591001 0.21816291 0.002155625 0
0.02019929 -0.021143701 0.054774188 0.99352461 -0.1126978 -0.01442256 0
-0.066703267 -0.014962836 0.054865394 -0.82511657 -0.56446874 -0.023612402 0
0.018333243 -0.015124083 0.055044934 -0.99886584 -0.04608658 0.01195916 0
0.020315086 -0.015008312 0.05542475 0.99937457 0.030397339 -0.018067596 0
-0.065096885 -0.0047034505 0.055210255 -0.97555554 0.21397567 -0.050057791 0
0.017759085 -0.0046997666 0.054677114 0.79052746 -0.37772927 0.48206529 0
-0.061953075 0.0031517423 0.054953258 -0.81165344 0.57808417 -0.083888754 0
-0.05841333 0.0079698255 0.054905824 0.84185243 -0.5396753 -0.0059273443 0
0.0095324907 0.0092720827 0.054387815 -0.81301427 -0.58103281 0.03753208 0
0.013778324 0.0048148078 0.055136286 0.89374435 0.44815359 0.019477943 0
-0.053994711 0.013914102 0.054924 -0.7940371 0.60751987 0.02060776 0
-0.047751956 0.018257968 0.054856293 0.59007674 -0.80672479 0.031693149 0
-0.0017256103 0.01923682 0.054533608 -0.51655948 -0.85579401 0.027981196 0
0.0049963524 0.01528923 0.05522491 -0.79018575 -0.60085976 0.12072224 0
0.010743134 0.011002105 0.055438783 0.79121518 0.61101139 -0.025369432 0
-0.043374047 0.021777846 0.055211186 -0.52321923 0.85193747 -0.021073163 0
-0.035341773 0.024596024 0.055134237 0.40039894 -0.9147855 0.053367399 0
-0.024850676 0.02633404 0.054972827 -0.3397595 0.94022071 -0.023421088 0
-0.015206682 0.025514135 0.054810889 -0.39990923 -0.89054537 0.21679871 0
-0.0056917574 0.022639291 0.055269048 0.48963615 0.87187612 -0.0094061894 0
0.00047004537 0.020239066 0.056528971 0.54030609 0.84091777 -0.030438652 0
-0.04439931 -0.061756738 0.069479443 -0.092823222 -0.24447951 -0.96520132 0
-0.033527154 -0.062240053 0.067228772 -0.21233207 -0.85246843 -0.47771615 0
-0.0247092 -0.062091295 0.066053078 -0.027859634 -0.98125392 -0.19069478 0
-0.016386863 -0.062249903 0.066730365 0.15657549 -0.90446991 -0.39675969 0
-0.005916853 -0.062047858 0.069563806 0.090137549 -0.15754668 -0.98338926 0
-0.060309209 -0.050429575 0.069157906 -0.29024047 -0.3104338 -0.90520239 0
-0.053039115 -0.053038619 0.06710469 -0.49663898 -0.69675642 -0.51757139 0
-0.045171745 -0.054488931 0.065220512 0.1924914 0.1030758 -0.97587013 0
-0.035538286 -0.058292981 0.064873949 0.32075962 0.93931496 0.12165831 0
-0.02481888 -0.059253689 0.064787284 0.026571687 0.99903667 0.034923259 0
-0.014200428 -0.058624733 0.065045767 -0.17240497 0.9810946 0.087919883 0
-0.0046841777 -0.05575582 0.065002874 0.24507309 -0.95742762 -0.15254995 0
0.00279193 -0.053080559 0.066027269 0.52171504 -0.67207789 -0.5254758 0
0.011383513 -0.050956376 0.069430456 0.29961598 -0.2650798 -0.91649491 0
-0.062838405 -0.043322928 0.06751287 -0.53896803 -0.33660302 -0.7721476 0
-0.055688899 -0.045860995 0.06480433 0.57938278 0.81486976 0.017398935 0
0.0066495854 -0.047040116 0.064889967 -0.73222798 0.67707378 -0.073574774 0
0.012847243 -0.043209516 0.066559859 0.67325735 -0.48694924 -0.55642152 0
0.020523438 -0.040707003 0.069558434 0.55966324 -0.47091863 -0.68191844 0
-0.071048982 -0.032541033 0.069416754 -0.29173985 -0.11132969 -0.94999659 0
-0.063640781 -0.035041969 0.065292209 -0.48905492 -0.286145 -0.82398194 0
-0.059761584 -0.039401218 0.064540826 0.88061792 0.47364098 0.013279557 0
0.015135489 -0.035419829 0.064989395 -0.72549176 0.66301125 -0.18460149 0
0.022369085 -0.035477523 0.069491409 0.17231986 -0.071021788 -0.98247737 0
-0.072132587 -0.024916397 0.069574967 0.049271286 0.034521945 -0.99818867 0
-0.06623631 -0.025055153 0.064979769 0.90842336 0.41760099 0.019400731 0
0.018263454 -0.025406333 0.065117382 -0.98113298 0.16475216 0.1011667 0
0.022213668 -0.02292241 0.067183286 0.88814431 -0.13427962 -0.43950951 0
-0.072653018 -0.014340695 0.069409557 0.033179358 -0.054192562 -0.9979791 0
-0.066777863 -0.014932711 0.065133549 0.9786647 -0.18824199 0.082341895 0
0.01845837 -0.015504971 0.065080866 -0.99913794 -0.039802082 0.011796081 0
0.021015177 -0.01481782 0.065325432 0.99303365 0.048615184 -0.10733438 0
-0.072005384 -0.0050781248 0.069219999 -0.061342359 0.03549923 -0.99748528 0
-0.0652951 -0.0050432733 0.064751588 -0.80865037 -0.31396213 0.49750614 0
0.018150164 -0.0049293558 0.064913444 0.95641226 0.27585319 -0.095815368 0
0.023097103 -0.0050084433 0.068986647 0.37949479 0.017134903 -0.92503524 0
-0.070596486 0.0014012279 0.069566615 -0.79377025 0.41112366 -0.44822562 0
-0.062867127 0.0039558685 0.065727904 -0.76327056 0.45760182 -0.45609048 0
-0.058428649 0.0075904275 0.065007716 0.89600784 -0.4421851 -0.040525448 0
0.0097635463 0.0096043628 0.065217242 -0.77065134 -0.63655579 0.029885529 0
0.014248995 0.0051775728 0.065259583 0.24353386 -0.01717549 -0.96974033 0
0.021630703 0.0035375974 0.069507755 0.3920598 0.12871951 -0.91088992 0
-0.063158222 0.012307144 0.069741808 -0.10747883 0.14949016 -0.98290431 0
-0.054379389 0.013958484 0.065199271 -0.74003041 0.59848207 -0.30687806 0
-0.047696039 0.018551437 0.064618051 0.56044692 -0.82795191 0.019873694 0
-0.0013965729 0.019325847 0.065059341 -0.54234505 -0.83993858 0.019106496 0
0.0052733277 0.015377061 0.064868569 -0.74127555 -0.66605908 -0.082920134 0
0.013176108 0.013009001 0.067681991 0.59428787 0.44166398 -0.67212707 0
-0.053467318 0.022859948 0.069632471 -0.079507589 0.064310305 -0.99475759 0
-0.043861926 0.0225688 0.065528996 -0.4093352 0.79541916 -0.4469375 0
-0.035107609 0.025018811 0.065297976 0.36749616 -0.79901636 -0.47594056 0
-0.025057316 0.02654163 0.064925216 -0.22379106 0.97145659 -0.078673966 0
-0.015152618 0.025947204 0.065026656 0.19939286 0.97655708 -0.081108794 0
-0.0054662512 0.023811806 0.065636307 0.40475053 0.73141056 -0.54883105 0
0.0032774457 0.022744959 0.068035632 0.33386028 0.48509964 -0.80821759 0
0.010531904 0.020656873 0.069712341 0.56772351 0.47633728 -0.6714111 0
-0.040910169 0.030167082 0.069718532 -0.24254142 0.62438053 -0.74251103 0
-0.034593679 0.031341907 0.069507629 -0.009659417 0.0076062311 -0.99992436 0
-0.025622975 0.032652944 0.069444448 -0.02171229 0.041672882 -0.99889541 0
-0.015580914 0.032136831 0.069483325 0.015644936 0.043876566 -0.99891442 0
-0.0072543807 0.031041071 0.069544949 0.28922981 0.7288112 -0.62062895 0
-0.050178677 -0.060226705 0.071939357 -0.55511272 -0.73001033 0.39866623 0
-0.044378478 -0.061894089 0.072333254 -0.3312923 -0.77686256 0.53547168 0
-0.034426264 -0.063568607 0.072424106 -0.19426703 -0.84204715 0.50320661 0
-0.025119485 -0.063889816 0.072512567 -0.0037668562 -0.80492073 0.59337032 0
-0.015151219 -0.063554607 0.072512932 0.14328493 -0.88368881 0.44560462 0
-0.0055359174 -0.062338904 0.072603501 0.32711017 -0.81452918 0.47910449 0
0.0013986789 -0.060684178 0.071729235 0.39421415 -0.9179126 0.045073915 0
-0.060817849 -0.051208299 0.071864344 -0.70367581 -0.69867724 0.12919168 0
-0.05398925 -0.053771611 0.072474487 -0.54080397 -0.61879647 0.56975609 0
-0.045714948 -0.055815101 0.072506778 0.365082 0.74790156 0.55439919 0
-0.035918828 -0.058487464 0.072274618 0.34380651 0.80099154 0.49011189 0
-0.02506982 -0.059648156 0.072045289 -0.00078706403 0.98471946 0.17414649 0
-0.014039111 -0.059207387 0.071939893 -0.19533566 0.92603707 0.32295403 0
-0.0040549827 -0.05668981 0.072237156 -0.38218409 0.82505316 0.41620019 0
0.0047450857 -0.054313611 0.072558388 0.24584706 -0.61221778 0.75149751 0
0.011879655 -0.051815614 0.072410323 0.70822853 -0.69347578 0.13230203 0
-0.063600056 -0.044204324 0.072745398 -0.67771357 -0.46107125 0.57281554 0
-0.056740955 -0.046753109 0.072213471 0.54846692 0.6112904 0.5705331 0
0.0075204466 -0.047564559 0.072300538 -0.59717047 0.59995294 0.53239453 0
0.014516713 -0.044607267 0.072581761 0.39896852 -0.43391836 0.80779886 0
0.020710636 -0.040951643 0.072126627 0.86310989 -0.45084611 0.2275503 0
-0.07141047 -0.033558764 0.072471634 -0.85026169 -0.31692863 0.42025152 0
-0.065518066 -0.03508345 0.072492145 0.71087056 0.30121946 0.63555479 0
-0.059965208 -0.039467838 0.072265327 0.65314722 0.37991932 0.65502667 0
0.016685445 -0.035897225 0.072424442 -0.79516125 0.39601216 0.45923075 0
0.022133801 -0.034591798 0.072437517 0.76556957 -0.24940407 0.59304374 0
-0.072462 -0.024489019 0.072733559 -0.76094013 -0.084528103 0.64329249 0
-0.06743671 -0.025581582 0.072336532 0.87906355 0.11836509 0.46177593 0
0.018653518 -0.025754759 0.072343044 -0.92804027 0.17781262 0.3272979 0
0.023041006 -0.024743859 0.072574854 0.7434833 -0.14981024 0.65175873 0
-0.072644427 -0.014799491 0.072384864 -0.75671417 0.073917061 0.6495536 0
-0.067559011 -0.014802121 0.072483145 0.79975885 -0.031708557 0.59948337 0
0.019063195 -0.014833988 0.071922041 -0.9382599 -0.021895884 0.34523752 0
0.023788113 -0.015310248 0.072348766 0.92525911 0.089898743 0.36852926 0
-0.071950957 -0.0052523632 0.072106272 -0.83047432 0.19778708 0.52076155 0
-0.066935144 -0.0043924255 0.07252121 0.73071891 -0.23490888 0.6409896 0
0.018414928 -0.0044328049 0.072026044 -0.73073 -0.22601077 0.64416832 0
0.022824552 -0.0052646785 0.072504178 0.768951 0.17667216 0.61441135 0
-0.070661023 0.0017394815 0.071992166 -0.91852266 0.34776461 0.18808454 0
-0.064575478 0.0050072861 0.072516836 -0.17839332 0.094975419 0.97936475 0
-0.058806259 0.0077903224 0.071733959 0.68780005 -0.38342842 0.61637139 0
0.015861193 0.0054236692 0.072462991 -0.48987454 -0.23433954 0.83970702 0
0.021774925 0.0043076961 0.072062284 0.89365971 0.34598148 0.28577816 0
-0.062627174 0.013265303 0.072292663 -0.76389438 0.61264747 0.20280124 0
-0.055601966 0.015461164 0.0724134 0.5418852 -0.57217163 0.61561352 0
-0.048437528 0.018706059 0.071798146 0.49537352 -0.68754876 0.53092551 0
-0.0009248936 0.019273421 0.071356982 -0.5498566 -0.81997997 0.15902993 0
0.0061665392 0.016328434 0.072284259 -0.57210392 -0.62367404 0.53266102 0
0.014015842 0.013931192 0.072510675 0.73839951 0.58957314 0.32736796 0
0.020057552 0.010325782 0.072424382 0.74283123 0.59659046 -0.3037788 0
-0.053471792 0.022340933 0.072716765 -0.46644798 0.65234023 0.59739304 0
-0.045045171 0.024587929 0.072392404 -0.05679787 -0.036164127 0.99773049 0
-0.035203919 0.026824068 0.072265074 0.31354436 -0.8698225 0.38091823 0
-0.024803773 0.027343869 0.07262335 -0.044208575 -0.74076641 0.67030638 0
-0.014700617 0.027049018 0.072397687 -0.19631001 -0.82730246 0.52633923 0
-0.004757904 0.025104884 0.072395608 -0.10830021 -0.44199392 0.89045632 0
0.0037639481 0.023215756 0.072627731 0.41766617 0.63952148 0.64542031 0
0.010824042 0.020461101 0.071705192 0.66972262 0.7397722 0.06487526 0
-0.041627835 0.030491749 0.071455844 -0.33927038 0.93353128 0.11582255 0
-0.03439885 0.032023862 0.072398953 -0.23194896 0.8833921 0.40720761 0
-0.024843505 0.032393843 0.072627559 -0.061039511 0.78495699 0.61653608 0
-0.015725601 0.032293953 0.072709993 0.18714802 0.7835539 0.5924685 0
-0.0074828225 0.03113246 0.07201504 0.35542008 0.86200935 0.36140901 0
