# .PCD v0.7 - Point Cloud Data file format
VERSION 0.7
FIELDS x y z normal_x normal_y normal_z curvature
SIZE 4 4 4 4 4 4 4
TYPE F F F F F F F
COUNT 1 1 1 1 1 1 1
WIDTH 347
HEIGHT 1
VIEWPOINT 0 0 0 1 0 0 0
POINTS 347
DATA ascii
0.005115055 -0.091545761 0.0049254079 -0.15035319 -0.97650242 -0.15439221 0
0.011154049 -0.090877742 0.0065132952 0.63315642 -0.75324756 -0.17813241 0
-0.010716259 -0.080527082 0.0069111702 -0.59974825 -0.79973388 -0.026978321 0
-0.0044929995 -0.084819756 0.0048955726 -0.65840262 -0.59963292 -0.45491359 0
0.0047668051 -0.084722333 0.0010241837 -0.10558904 0.057521835 -0.99274474 0
0.014318136 -0.084263057 0.0050560907 0.79985768 -0.40654823 -0.44152716 0
-0.020339306 -0.07053522 0.0073208716 -0.69800407 -0.70667684 -0.11575095 0
-0.014620819 -0.0749617 0.006035727 -0.6547792 -0.5253157 -0.5434221 0
-0.0045798775 -0.074629322 0.0049134647 0.33682635 0.6881671 -0.64263058 0
0.0057211034 -0.076809891 0.0045734174 -0.029722882 0.93251008 -0.35991856 0
0.014735823 -0.074663542 0.0049845641 -0.060762417 0.47793186 -0.87629277 0
0.02163483 -0.072498634 0.006016728 0.83486801 -0.51556021 -0.19285484 0
-0.024421996 -0.06442751 0.0070865392 -0.60356528 -0.41212103 -0.68254322 0
-0.01456774 -0.064619288 0.0055937525 0.015390296 0.16384178 -0.98636657 0
-0.0077121761 -0.066001028 0.0053253998 0.92677665 0.3729167 -0.044924807 0
0.0090788091 -0.065798044 0.0030288557 -0.99724084 0.067315377 0.031294663 0
0.015419412 -0.065068066 0.0037694499 -0.99749345 0.029807111 -0.064174533 0
0.024674257 -0.064589836 0.0042544198 0.71168864 -0.38482884 -0.58771247 0
-0.032311719 -0.053675994 0.0084966337 -0.55778849 -0.23105553 -0.79717332 0
-0.024880392 -0.054224093 0.007428837 -0.10442308 0.19423069 -0.97538209 0
-0.01544982 -0.055806648 0.0063659861 0.69575173 0.70420182 -0.14152502 0
-0.0099091977 -0.059834544 0.0057495944 0.72257948 0.55956519 -0.40591344 0
0.0096617388 -0.05993358 0.0035368421 -0.22065191 0.15197152 -0.96344042 0
0.015760951 -0.05552841 0.0041518738 -0.81108463 0.41876182 -0.40838754 0
0.024489013 -0.054405294 0.003096184 -0.1225339 0.1398558 -0.98256087 0
0.031832784 -0.053718526 0.006443914 0.82320756 -0.42019409 -0.38179332 0
-0.033630237 -0.045077991 0.0084845573 -0.37652487 -0.0091855871 -0.92636102 0
-0.024474934 -0.045052506 0.007762203 0.11188178 0.14655676 -0.9828549 0
-0.017927565 -0.045357157 0.0068566347 0.94842672 0.12891097 0.28960103 0
0.016809646 -0.045163918 0.0031329843 -0.89606988 0.049323108 -0.4411644 0
0.024316214 -0.045101423 0.00339521 -0.74690503 0.035765644 -0.66396821 0
0.03390104 -0.044733625 0.0045200386 0.78959167 -0.20098376 -0.57978487 0
-0.033398628 -0.035348698 0.0086094458 -0.36873078 0.063954778 -0.92733347 0
-0.024634099 -0.034930397 0.0081017604 0.0019950045 0.098301046 -0.99515474 0
-0.016957769 -0.034339331 0.0070575192 0.80822676 -0.55032361 0.20955524 0
0.016200332 -0.034642301 0.0038921873 -0.97495389 -0.080822408 -0.20720166 0
0.023717925 -0.035081115 0.0037494996 -0.63368404 -0.14002852 -0.760813 0
0.034611199 -0.035100933 0.0046053184 0.75170636 0.061480723 -0.65662599 0
-0.032313336 -0.02549265 0.0089638447 -0.40275425 0.10610504 -0.90913737 0
-0.024514113 -0.025266318 0.0083406689 -0.25165069 -0.033347301 -0.96724349 0
-0.0148495 -0.025127722 0.0061005484 -0.46518469 -0.87744331 -0.11703209 0
-0.0054660616 -0.022682685 0.0049738693 0.33609566 -0.93973464 -0.062756971 0
0.0056720604 -0.023281885 0.0059692934 0.062798448 -0.99260336 0.10389841 0
0.014892532 -0.0251457 0.0049513434 -0.66894102 -0.6952408 -0.26297948 0
0.024489984 -0.02525886 0.0033571131 -0.13591912 0.08780396 -0.98682135 0
0.033641681 -0.025175877 0.0057818745 0.71079117 0.33756021 -0.61711353 0
-0.031037109 -0.016738238 0.0094610201 -0.44489929 0.10060769 -0.88991159 0
-0.024271982 -0.015396166 0.0079029864 -0.27777734 0.010713123 -0.96058571 0
-0.01582909 -0.0158126 0.0045487597 -0.72038943 -0.19799884 -0.66470706 0
-0.0046819774 -0.015643619 0.0030854137 0.073723629 -0.15017693 -0.98590648 0
0.0051207552 -0.015179198 0.004621902 0.80000585 -0.56466341 -0.2028442 0
0.014416419 -0.014123313 0.0058342423 -0.50163954 0.3508516 -0.79073447 0
0.025270879 -0.014889601 0.0049655652 0.38084847 0.29962397 -0.87474567 0
0.031609587 -0.017035663 0.0083938604 0.66922706 0.4164848 -0.61536622 0
-0.03132936 -0.0041462211 0.0094286185 -0.36902747 -0.040607102 -0.92853099 0
-0.02439704 -0.0048300824 0.0082485247 -0.23763609 0.072951876 -0.96861094 0
-0.015056683 -0.0049904543 0.0054421374 -0.17146136 0.82698315 -0.5354436 0
-0.0045753419 -0.0047408547 0.0041980566 -0.22976178 0.79692876 -0.55867171 0
0.0049952045 -0.0048843003 0.0056734625 0.71077937 0.70133483 -0.054058161 0
0.015448791 -0.0051262965 0.0063364874 -0.86603361 0.34836885 -0.35864335 0
0.023104064 -0.0057524964 0.0073085371 0.63754326 0.38932857 -0.66480219 0
-0.031769183 0.0055918805 0.0096708825 -0.16718845 0.00031553314 -0.9859249 0
-0.024773702 0.0042447876 0.0089407638 0.080867104 0.14576985 -0.98600799 0
-0.018595727 0.00073629449 0.0081532942 0.45606396 0.84601551 0.27615839 0
0.0059626084 0.0043541514 0.0068259006 -0.88113153 0.47110218 -0.040866047 0
0.015310059 0.005023621 0.0067877374 -0.61819619 -0.29464525 0.72870952 0
0.021453695 0.0055467635 0.0084403455 0.68956828 -0.066297844 -0.72117966 0
-0.03239467 0.013633749 0.0097050639 -0.11334046 0.035133891 -0.99293476 0
-0.028309183 0.0119622 0.0093089128 0.31893259 0.36538157 -0.87451601 0
0.0083601316 0.013836914 0.0067109223 -0.94290566 0.3071253 -0.12885237 0
0.014904201 0.014969288 0.0068994556 -0.75317371 -0.082118563 -0.65267587 0
0.022742976 0.015342262 0.0077575995 0.53197539 -0.21706952 -0.8184638 0
0.0096195815 0.020867471 0.0067424471 -0.84018987 0.29572621 -0.45456246 0
0.015393795 0.024666363 0.0067111966 -0.80666536 0.54822171 -0.22078034 0
0.024334002 0.025267381 0.0074353837 0.64460391 -0.088117175 -0.75942171 0
0.030586015 0.029148174 0.0090036327 0.79348284 -0.33336249 -0.50917029 0
0.017223082 0.034145694 0.0067744614 -0.93906945 0.26225051 -0.2222008 0
0.025067855 0.035212368 0.0067326175 -0.94246006 -0.087779008 -0.32258928 0
0.032132242 0.035973452 0.0083974516 0.64280671 -0.28776345 -0.70992368 0
0.019110907 0.04200349 0.0065411897 -0.83647084 0.36820635 -0.40588242 0
0.025362696 0.044845119 0.0067707468 -0.81571007 0.53251106 0.22594005 0
0.033525061 0.045683112 0.0076510101 0.5559212 -0.13173664 -0.82072955 0
0.026754959 0.054380894 0.0064082397 -0.93525445 0.3504853 0.049588613 0
0.034712043 0.0549637 0.007050823 0.15747504 -0.097273581 -0.98272049 0
0.041136622 0.056499545 0.0087783579 0.75113779 -0.20805362 -0.62650269 0
0.028796287 0.062854879 0.0065166731 -0.89137691 0.45281112 -0.0202301 0
0.035095926 0.065028496 0.006875766 -0.33804736 0.20453161 -0.91863531 0
0.041231539 0.06430506 0.0088527417 0.67833346 0.13622239 -0.72201616 0
0.034597229 0.072187938 0.0081625674 -0.044502079 0.82934713 -0.55695862 0
0.040459935 0.070634164 0.0094922436 0.40428397 0.40476134 -0.82019681 0
0.0050246087 -0.091615297 0.014978215 -0.18207903 -0.98305511 -0.021210354 0
0.012148719 -0.091116861 0.015303153 0.37178943 -0.92154109 -0.11195807 0
-0.010625875 -0.080259331 0.016057918 -0.30475482 -0.95186663 0.032780699 0
-0.0043259454 -0.084710963 0.015230093 -0.82782847 -0.56016296 -0.030288959 0
0.0003618584 -0.089872666 0.015037286 -0.47343341 -0.88079739 0.0075340606 0
0.01616291 -0.084517553 0.015380911 0.95150906 -0.21130994 -0.22355893 0
-0.020809261 -0.070859425 0.015141634 -0.68630666 -0.72731113 0.0013030965 0
-0.015078832 -0.07597138 0.014784525 -0.59952867 -0.79947656 0.037451591 0
-0.0056551336 -0.075202607 0.014554493 0.55205184 0.82445663 -0.12453905 0
0.0050436798 -0.07628002 0.014990695 0.23466511 0.97095954 0.046582922 0
0.014424591 -0.074936412 0.015165543 -0.42606288 0.73747551 -0.52402323 0
0.022884859 -0.073483258 0.016031124 0.73985153 -0.63067013 -0.23425375 0
-0.030652367 -0.060924962 0.01523561 -0.7883926 -0.60757273 -0.096397407 0
-0.025666442 -0.065598242 0.014990482 -0.70900047 -0.70520496 -0.0020963517 0
-0.013654007 -0.062259827 0.014700003 0.5914883 0.80512708 0.043726169 0
-0.0093142921 -0.067587726 0.016875099 0.93639153 0.3129997 -0.1587514 0
0.017792311 -0.06512931 0.015023621 -0.98887324 0.011642535 0.14830425 0
0.027109606 -0.065722302 0.014887998 0.87342894 -0.48466766 -0.047107875 0
0.030263016 -0.06042498 0.015754471 0.87326127 -0.48693359 -0.017621042 0
-0.034296442 -0.055074599 0.014993791 -0.87047338 -0.48487884 -0.08466664 0
-0.023560686 -0.054753236 0.014944785 0.789226 0.5586198 -0.25508082 0
-0.017879693 -0.05768425 0.016915305 0.73684037 0.6737448 0.055985045 0
0.016685924 -0.056882504 0.015307095 -0.69763339 0.71485263 0.047888462 0
0.023428189 -0.053812876 0.015512487 -0.75528234 0.62362748 0.2015869 0
0.033188045 -0.055032037 0.015309242 0.88293862 -0.46905196 -0.020239329 0
-0.036785789 -0.045108724 0.014199061 -0.95216835 -0.16898638 -0.2545957 0
-0.026956616 -0.045363251 0.015345226 0.95761275 0.20459932 -0.20277303 0
0.025803128 -0.045137417 0.015313437 -0.95441806 0.069973335 0.29015511 0
0.036745958 -0.045074809 0.015087515 0.98164952 -0.18805431 -0.031619474 0
-0.035366643 -0.035110548 0.013335622 -0.84246892 0.091178313 -0.53097326 0
-0.029284256 -0.035325628 0.015146815 0.98128176 0.13808182 0.13423698 0
0.024221024 -0.035128012 0.014869937 -0.94273293 -0.26723325 0.19960187 0
0.037943896 -0.034811553 0.015045152 0.99770051 0.012524453 0.066608816 0
-0.036612101 -0.02545915 0.014553314 -0.87690085 0.19250634 -0.4404386 0
-0.027372286 -0.023906022 0.014614586 0.80350864 -0.5930956 -0.05110354 0
0.018059989 -0.021833198 0.013231379 -0.61019808 -0.64752328 0.45647782 0
0.021899479 -0.025450366 0.015447683 -0.85850722 -0.34652221 0.378005 0
0.036542721 -0.024898332 0.014997003 0.96715409 0.25339136 0.020144951 0
-0.034371693 -0.01463181 0.014553941 -0.85943699 0.14715193 -0.48960626 0
-0.024161983 -0.014385301 0.014263536 0.94579536 0.32150012 0.045922302 0
-0.014175991 -0.013408476 0.014075396 -0.6143719 -0.49452046 0.61481434 0
-0.004503822 -0.016916851 0.014864308 0.25095418 -0.9615804 -0.11128832 0
0.00081888412 -0.012580989 0.014720988 0.99160343 -0.082826063 0.099310122 0
0.015204472 -0.015107003 0.01496683 -0.94146699 -0.18101239 0.28438398 0
0.027823871 -0.012248536 0.016124764 0.85326546 0.49778914 0.15538333 0
0.03250099 -0.015361617 0.015069344 0.86136186 0.50220275 0.076473132 0
-0.034823921 -0.0051454082 0.015035348 -0.80377716 -0.32691061 -0.49706298 0
-0.025571723 -0.005316732 0.015028755 0.63172776 0.29883277 0.71527541 0
-0.015139864 -0.0079990234 0.01240965 -0.061752748 0.77110428 0.63370717 0
-0.0045788866 -0.0065556392 0.01469364 0.086960264 0.97132784 0.22126932 0
0.00027199529 -0.0084570143 0.01615034 0.95850432 0.25755543 0.12220761 0
0.015981287 -0.005023675 0.014974082 -0.86663604 -0.031750862 -0.4979296 0
0.026468432 -0.0048177741 0.014811765 0.91853815 0.37798554 -0.11582118 0
-0.042885024 0.0059240377 0.016525133 -0.70235896 -0.51857519 -0.48761833 0
-0.033673517 0.0052595446 0.013792828 0.61396325 -0.08010681 -0.78525925 0
-0.027454991 0.0041909269 0.012105101 0.47715169 0.15392941 0.86523527 0
0.016178576 0.0048370236 0.015459381 -0.76045865 0.095542081 -0.64231956 0
0.024640873 0.0052283118 0.014446164 0.9543367 -0.078908436 -0.2881231 0
-0.051910911 0.017447844 0.017511414 -0.69740069 -0.49467552 -0.51858312 0
-0.044740632 0.015436709 0.014811895 -0.17712197 0.11820155 -0.97706509 0
-0.035841383 0.013740579 0.013379668 0.37120575 0.91939372 0.13008244 0
-0.028836492 0.012187736 0.011098145 0.52662951 0.27986312 0.80270666 0
0.01778681 0.015455157 0.01498741 -0.94466144 0.26142824 -0.19816677 0
0.025914641 0.015619053 0.013943988 0.95560837 -0.11674127 -0.27052549 0
0.030219303 0.01948373 0.017210448 0.9130258 -0.40729302 -0.022274772 0
-0.060465857 0.028909303 0.019231213 -0.75983053 -0.4441371 -0.47476289 0
-0.05402147 0.025527202 0.01622138 -0.46337265 -0.29318744 -0.83625764 0
-0.045637935 0.024593046 0.013690219 0.87054151 0.33109483 -0.36405197 0
-0.037601564 0.022555834 0.011734875 0.59726137 0.69548982 -0.39946568 0
0.019178312 0.021199478 0.018592548 -0.88459009 0.45802921 -0.087803632 0
0.024858261 0.024804097 0.014998049 -0.84003556 0.41779447 -0.34610412 0
0.032307323 0.025744403 0.015742743 0.90188348 -0.37083542 -0.22155631 0
-0.062750228 0.03621323 0.01727289 -0.5806216 -0.40366399 -0.70706004 0
-0.055269148 0.03496347 0.014691317 0.41294745 0.71401262 -0.56538522 0
-0.047454797 0.032937866 0.013230707 0.71194589 0.69043225 -0.12820478 0
0.027452199 0.034475878 0.016419608 -0.86111665 0.31961754 -0.3953768 0
0.033982404 0.035083279 0.014073173 0.84498125 -0.44166446 -0.30156121 0
-0.070717961 0.045629576 0.019212976 -0.6422888 -0.1165911 -0.75754315 0
-0.064484388 0.04542375 0.016530367 -0.12741077 0.16889557 -0.97736418 0
-0.057200033 0.043284371 0.014476037 0.7869845 0.6050514 0.1206991 0
0.028894302 0.042020671 0.014483279 -0.91040379 0.36301669 0.19845369 0
0.035967186 0.044848666 0.014465977 -0.23992419 0.96313637 -0.12167441 0
0.040794179 0.047976434 0.01595474 0.93551886 -0.34662798 -0.068217076 0
-0.070386924 0.052540399 0.019476403 -0.76768953 0.14378062 -0.6244837 0
-0.066533722 0.053213838 0.017130502 -0.1418356 0.74064201 -0.65675867 0
0.038880967 0.054649595 0.014662486 -0.96890479 0.18712984 0.1618828 0
0.042575095 0.055020999 0.015251325 0.9594686 -0.23643361 -0.15335926 0
0.038953215 0.067482337 0.010918302 -0.62706882 -0.34054831 0.70057946 0
0.042871557 0.064732373 0.015101289 0.88868517 0.26567981 -0.37370148 0
0.037165429 0.074066468 0.014462193 -0.82009506 0.5686388 -0.063984334 0
0.041510057 0.071527451 0.015695035 0.71285421 0.68702489 -0.14083928 0
0.0051575252 -0.091566347 0.023561165 -0.32540241 -0.92241997 0.20797783 0
0.012456299 -0.091922633 0.02391913 0.5813278 -0.78240937 0.22336854 0
-0.004486633 -0.083897159 0.024732793 -0.56929231 -0.6462642 0.50818193 0
0.0047382107 -0.085131407 0.026349187 -0.0029950314 -0.014079431 0.99989641 0
0.015113887 -0.084936842 0.024535967 0.58249301 -0.24342774 0.77552873 0
0.020117167 -0.080186442 0.021556219 0.88052016 -0.47016683 -0.060227644 0
-0.020237863 -0.070508666 0.021803677 -0.67558521 -0.72193176 0.14966363 0
-0.014432614 -0.074340262 0.025442548 -0.59583652 -0.67075926 0.44165683 0
-0.0048859776 -0.074056692 0.025835084 0.35927612 0.3175905 0.87752891 0
0.0036692887 -0.076856285 0.024319943 0.40094191 0.77486974 0.48869479 0
0.014927509 -0.074300945 0.024175974 -0.36284474 0.49913907 0.7868951 0
0.022280993 -0.074269719 0.023123637 0.82058722 -0.36485261 0.43990806 0
-0.030424623 -0.06052047 0.021643437 -0.70614308 -0.68120545 0.19318661 0
-0.024050519 -0.064167507 0.025167368 -0.66497135 -0.61597675 0.42235732 0
-0.01521509 -0.063652612 0.026681138 0.026333423 0.628362 0.77747524 0
-0.0065512336 -0.065532036 0.025488308 0.87073088 0.48335597 0.090524934 0
0.016082553 -0.064990148 0.02487894 -0.78854102 -0.35062718 0.50523621 0
0.023904735 -0.064810567 0.023238212 0.2623947 -0.29484147 0.91881311 0
0.03013261 -0.060166001 0.021199562 0.8832379 -0.46453384 0.064025037 0
-0.033452146 -0.054793328 0.024781153 -0.81740367 -0.49000758 0.30289248 0
-0.024887681 -0.054634348 0.02603697 0.89046782 0.36760238 -0.26820791 0
-0.01510755 -0.055492003 0.02864936 0.85136282 0.29912201 -0.43093786 0
-0.0087608127 -0.058578268 0.02763525 0.6354385 0.70361382 -0.31803387 0
0.016772753 -0.055991907 0.024456773 -0.62473226 0.5296194 0.57377076 0
0.024303168 -0.054491509 0.024091261 -0.35128134 0.2975792 0.88772064 0
0.032465048 -0.053982172 0.022676125 0.76500815 -0.33934036 0.54736704 0
-0.036975391 -0.045183614 0.025533779 -0.86626363 -0.2849932 0.41032445 0
-0.026019305 -0.045343984 0.026063796 0.74452001 0.1588821 -0.64841843 0
-0.016072622 -0.045353033 0.028683592 0.42195296 -0.018540638 -0.9064281 0
0.0182276 -0.044782337 0.02562543 -0.96310782 -0.21697538 -0.15920103 0
0.025005464 -0.044608798 0.024211902 -0.95546281 -0.0569892 0.28955656 0
0.034378819 -0.045050059 0.02304396 0.64190656 -0.10450217 0.75962836 0
-0.040190618 -0.034657381 0.022142038 -0.9997806 -0.016487405 -0.012919488 0
-0.036268577 -0.034934551 0.02646338 -0.73686558 0.090490147 0.66995567 0
-0.026858808 -0.03512527 0.027081368 0.56219369 0.064680569 -0.82447237 0
-0.016303798 -0.035042848 0.029161846 0.14975628 0.029608646 -0.98827952 0
0.016993413 -0.034299865 0.026154652 -0.88615698 -0.40988797 -0.21614279 0
0.024551257 -0.035111565 0.024741257 -0.4623042 -0.11758551 0.87889045 0
0.034207676 -0.035232481 0.023543254 0.58763158 0.0065034539 0.80910254 0
-0.040045325 -0.029858992 0.020245122 -0.99586648 0.068948023 -0.059127964 0
-0.037007928 -0.025248371 0.025357548 -0.8631863 0.1872596 0.46887454 0
-0.02528646 -0.024834245 0.026208224 0.65672201 -0.5929237 -0.46600178 0
-0.01521217 -0.024854643 0.028673518 0.0043295729 -0.10807321 -0.99413353 0
-0.0055999369 -0.023183962 0.028296728 0.071362011 -0.37901998 -0.92263287 0
0.0058899014 -0.023606952 0.027864674 -0.31586468 -0.43379891 -0.84382933 0
0.014831997 -0.025088279 0.026942668 0.051385511 -0.61916423 -0.78357846 0
0.024213666 -0.025008047 0.024974862 -0.45353082 -0.11740483 0.88347375 0
0.033007614 -0.025065398 0.023098791 0.64549762 0.23433143 0.72692615 0
-0.034975659 -0.015122578 0.025013508 -0.89431077 0.14587632 0.42299926 0
-0.023916861 -0.014177504 0.025923107 0.7118628 0.69000739 -0.13092381 0
-0.014341668 -0.015026604 0.026919188 -0.35831136 0.093947344 -0.92886323 0
-0.00543031 -0.017062392 0.024320373 -0.17568173 -0.93726337 -0.3011201 0
0.0043705096 -0.014841486 0.025077138 0.29462957 -0.27128959 -0.9162944 0
0.015218725 -0.015171695 0.02601466 -0.38799426 -0.8799063 0.27427214 0
0.024685699 -0.015551684 0.024711305 0.36758453 -0.024343459 0.92967147 0
0.031351849 -0.017465143 0.021672344 0.76660556 0.33135906 0.55001563 0
-0.040471494 -0.0003744039 0.021458877 -0.80356967 -0.59389615 -0.039537199 0
-0.034404811 -0.0046371012 0.025589518 -0.61890608 -0.4566896 0.63905394 0
-0.026798671 -0.0073142061 0.026514798 0.64380473 0.38402778 -0.66184449 0
-0.01442016 -0.0065393932 0.029374242 -0.10680099 0.11052605 -0.98811817 0
-0.0049492046 -0.0070403283 0.024865719 -0.21774191 0.97375321 -0.066280752 0
0.0055830018 -0.0047996282 0.025983857 -0.47096986 0.51235569 -0.718108 0
0.014061794 -0.0053645708 0.026776014 -0.073829673 -0.1583149 0.98462462 0
0.023989329 -0.0053858771 0.024383742 0.76133239 0.21586794 0.61137062 0
-0.043681219 0.0051355013 0.025049184 -0.77519101 -0.59705913 0.20639572 0
-0.034566969 0.005354553 0.025656709 0.8486079 0.42279875 0.31797153 0
-0.028258109 0.0096232817 0.029821282 0.22201407 -0.0067871893 -0.97501987 0
0.0082441634 0.0034669705 0.027898198 -0.71514505 0.39693165 -0.57533711 0
0.014060372 0.0053031757 0.026558599 -0.54314935 0.35357496 0.7615599 0
0.023253437 0.0051668999 0.02454092 0.81591648 -0.1442873 0.55987626 0
-0.052756876 0.016237531 0.024658591 -0.76368582 -0.63854396 0.095108755 0
-0.045039173 0.01464098 0.02542153 0.53138113 0.5126633 0.6743964 0
-0.037223496 0.014053708 0.022242425 0.52900803 0.53286022 0.66046232 0
-0.029388798 0.010945637 0.029769249 0.32084194 0.25176767 -0.91305721 0
0.009692004 0.010756642 0.029165218 -0.87494755 0.42899278 0.22457062 0
0.016036939 0.015002401 0.026724176 -0.87342775 0.45189571 0.18142316 0
0.024302984 0.015809214 0.025010513 0.68300605 -0.074304543 0.72662336 0
-0.061948601 0.027963363 0.025217595 -0.7751047 -0.63179189 0.0071873493 0
-0.055272084 0.025040029 0.025390487 -0.44581294 0.040521678 0.89420843 0
-0.046574764 0.023132667 0.022909891 0.76638538 0.59863919 0.23299019 0
0.017381102 0.024262551 0.0288679 -0.83469015 0.31077302 -0.45465642 0
0.024634071 0.025227964 0.025908658 -0.53112125 0.16914743 0.83024055 0
0.031546958 0.025612118 0.022423264 0.83197218 -0.28822008 0.47407967 0
-0.070466086 0.039246392 0.025143167 -0.81893837 -0.56443834 -0.10367835 0
-0.064787574 0.035155915 0.024934813 -0.40974107 -0.91091788 -0.048381679 0
-0.056544885 0.03196108 0.023784198 0.50097543 0.84634584 0.18089287 0
0.018784063 0.032846484 0.028836388 -0.89075822 0.27471212 -0.36205396 0
0.025553506 0.034546841 0.026552897 -0.84726667 0.33632261 0.41112798 0
0.033087321 0.035719253 0.024079541 0.7213949 -0.27153349 0.63707066 0
-0.072453611 0.045762654 0.025133952 -0.97196913 -0.20449959 -0.11599912 0
-0.06630215 0.043498073 0.024297671 0.69167256 0.68490177 0.22912598 0
0.026229568 0.044120591 0.026948549 -0.91632473 0.32772705 -0.23009551 0
0.034724895 0.045249593 0.024587905 0.63348287 0.0408631 0.772677 0
0.04056054 0.048731081 0.021330817 0.88955367 -0.33497253 0.31062475 0
-0.071939468 0.054095782 0.025073659 -0.88266134 0.42007551 -0.2108212 0
-0.068480879 0.056870788 0.024378408 0.97920316 -0.11003555 0.17045037 0
0.028246559 0.053452495 0.02860132 -0.85611826 0.51088947 -0.077803366 0
0.035128191 0.054975636 0.026389765 -0.85225701 0.16328299 0.49698755 0
0.041989509 0.055609442 0.023085276 0.8269735 -0.27271479 0.49167219 0
-0.068883047 0.060419101 0.028417546 -0.03390602 0.99476558 -0.096393935 0
0.029964995 0.0601038 0.028854078 -0.31880811 0.26764891 -0.90924448 0
0.036195517 0.064501002 0.026970582 -0.90626979 0.41673812 -0.070742287 0
0.042139273 0.065225206 0.022885676 0.66668737 0.21619399 0.71329385 0
0.036969181 0.072960317 0.02333701 -0.42589507 0.76972568 0.47553736 0
0.041350022 0.071856163 0.02205736 0.73603344 0.55897659 0.38183761 0
-0.022631051 -0.062198814 0.030210488 0.031846568 -0.090151817 0.99541879 0
-0.030909562 -0.052038897 0.030892702 -0.59844226 -0.34675053 0.72224021 0
-0.024660408 -0.05456841 0.030720685 0.042370848 -0.082658201 0.99567682 0
-0.018641533 -0.05329537 0.030126182 0.115251 -0.038767431 0.99257958 0
-0.032551687 -0.044101141 0.031213507 -0.35474905 -0.075352237 0.93192023 0
-0.025042584 -0.045110255 0.031197567 0.1176754 -0.047676601 0.991907 0
-0.017475462 -0.044569962 0.030278204 0.11694308 -0.032180693 0.99261707 0
-0.032448072 -0.035120536 0.031266153 -0.32532269 0.03609997 0.94491374 0
-0.024652803 -0.035028238 0.031602211 0.073051512 -0.037409443 0.99662638 0
-0.016042087 -0.034643307 0.030600788 0.14606716 -0.069451496 0.98683381 0
-0.0096830074 -0.030186709 0.030002696 0.12706015 -0.074555092 -0.98908913 0
-0.031596512 -0.024827573 0.031020343 -0.39151436 0.07315322 0.91725951 0
-0.024868816 -0.025034972 0.03186883 0.0060521676 -0.017708993 0.99982488 0
-0.014592307 -0.025042191 0.031540297 -0.04983113 -0.22976495 0.9719696 0
-0.0050929505 -0.023533404 0.03278118 0.075019963 -0.62340659 0.77829063 0
0.0053859265 -0.023415504 0.032584172 0.2243275 -0.65786636 0.71894991 0
0.010287321 -0.025846874 0.030457605 0.73806781 0.019710092 0.6744386 0
-0.030969001 -0.015274452 0.030727569 -0.64742464 -0.0045884429 0.76211566 0
-0.025226928 -0.014721163 0.031978779 -0.089257509 -0.030696295 0.99553543 0
-0.015432705 -0.014958471 0.034187239 -0.33808017 -0.19592249 0.92049778 0
-0.0047299978 -0.015361172 0.034797683 0.12958477 -0.018233929 0.99140066 0
0.0045645274 -0.014998991 0.0343211 0.203271 -0.078303069 0.97598648 0
0.010972193 -0.014383066 0.031108454 0.81747419 -0.028383557 0.57526547 0
-0.032345165 -0.0038809858 0.031252537 -0.49862519 -0.24590699 0.83120555 0
-0.024704354 -0.0042092372 0.031992074 -0.012138381 0.021459686 0.99969608 0
-0.015534035 -0.0047566593 0.032447878 0.01528617 0.55662191 0.83062536 0
-0.0046912958 -0.0063575367 0.033827174 -0.023004068 0.8066954 0.59051955 0
0.0052802125 -0.0056099803 0.03293141 0.29901326 0.53497756 0.7901836 0
0.01033921 -0.0092684347 0.031382609 0.89249605 0.38116568 0.24117115 0
-0.042077407 0.0081670191 0.031009698 -0.42439541 -0.39589372 0.81434441 0
-0.03460525 0.005269181 0.032031961 -0.33733723 -0.21261893 0.91705871 0
-0.025187943 0.0046906369 0.032165166 0.85058355 0.17752574 0.49496689 0
-0.018480353 0.0018162827 0.031648748 0.77326924 0.56372458 0.29029164 0
0.00770046 0.0042986381 0.030226376 -0.10604737 0.026943736 0.99399596 0
0.010698494 0.008510747 0.030119101 0.14605041 -0.067320518 0.98698384 0
-0.051768623 0.018150399 0.031277932 -0.56720513 -0.51494318 0.64273769 0
-0.044471014 0.015707161 0.032496784 -0.30598828 -0.30715579 0.90112513 0
-0.03494883 0.014865712 0.033152964 0.35356271 0.9319793 0.080049247 0
-0.027927488 0.012788373 0.03263703 0.74276894 0.66641891 0.064654537 0
0.0097386716 0.010304365 0.030245982 -0.51445228 0.27234852 0.8131206 0
0.012961205 0.014744648 0.030158632 0.12267145 -0.040979397 0.99160093 0
-0.060988642 0.028996145 0.031635985 -0.67255276 -0.63254881 0.38412866 0
-0.054107703 0.026026269 0.03292729 -0.33412626 -0.28976157 0.89688236 0
-0.045021035 0.024891103 0.03428844 0.8216812 0.20963654 -0.52999288 0
-0.03729704 0.023132345 0.033998605 0.78642267 0.60677648 0.1155929 0
0.015890922 0.024861773 0.03010501 0.071845464 -0.0081003821 0.99738282 0
-0.070173815 0.039363343 0.030597482 -0.87766439 -0.3836129 0.28730905 0
-0.063480183 0.035741072 0.033130042 -0.35110065 -0.50770551 0.78674233 0
-0.055126194 0.034793217 0.035394236 0.6220367 0.70086133 0.34908983 0
-0.046771504 0.033530731 0.035234932 0.7349329 0.6774615 0.030324712 0
0.018419823 0.033593386 0.030058624 0.077458464 -0.016918942 0.99685204 0
0.020635797 0.03865923 0.030029945 0.16770633 -0.071728691 0.98322409 0
-0.071514472 0.045654621 0.032197956 -0.81928676 -0.36103433 0.4454475 0
-0.065252632 0.04479973 0.03535632 0.40892845 0.76613206 0.49580163 0
-0.056136917 0.044058423 0.036544718 0.76861191 0.63014096 -0.11026339 0
-0.049354088 0.040262651 0.03594663 0.70836103 0.61166412 -0.35226643 0
0.021841973 0.041130647 0.030004509 0.16770633 -0.071728691 0.98322409 0
-0.071449392 0.053611815 0.032271162 -0.85666251 0.31662011 0.407285 0
-0.066139184 0.054141041 0.034965087 0.85471195 0.4635129 0.2337161 0
-0.059532698 0.050811898 0.036693696 0.73751205 0.65442544 -0.16674364 0
-0.068510555 0.060510084 0.031187406 -0.15800983 0.94940877 0.27139613 0
