# .PCD v0.7 - Point Cloud Data file format
VERSION 0.7
FIELDS x y z normal_x normal_y normal_z curvature
SIZE 4 4 4 4 4 4 4
TYPE F F F F F F F
COUNT 1 1 1 1 1 1 1
WIDTH 79
HEIGHT 1
VIEWPOINT 0 0 0 1 0 0 0
POINTS 79
DATA ascii
-0.034779102 -0.061489254 -5.2894582e-05 -0.010203836 -0.026943916 -0.99958485 0
-0.034757983 -0.056403652 -5.7781268e-05 -0.003444219 0.0099852784 -0.99994421 0
-0.03538673 -0.048569191 -5.0624835e-06 0.0014769641 0.0048559769 -0.99998719 0
-0.042124026 -0.063211672 0.006188137 -0.76974523 -0.54313368 -0.33540741 0
-0.035251789 -0.062781326 0.0033263175 0.15179411 -0.98788387 0.032311283 0
-0.027592162 -0.062913314 0.0058621131 0.58861148 -0.68773299 -0.42492327 0
-0.042700276 -0.05502478 0.0055740057 -0.91864097 0.021718727 -0.39449599 0
-0.034820404 -0.056195047 0.0024206729 -0.052073602 -0.37518865 -0.9254846 0
-0.027019527 -0.05500434 0.0051962617 0.89365095 0.039919946 -0.44698358 0
-0.042718325 -0.044982068 0.0054610875 -0.91658372 -0.032460142 -0.39852285 0
-0.035161458 -0.045020077 0.00051359687 -0.023116849 0.0025415691 -0.99972957 0
-0.027223209 -0.045084704 0.0053784219 0.91412669 0.033818211 -0.40401575 0
-0.042734075 -0.035011619 0.005328103 -0.9048689 0.0089173513 -0.42559698 0
-0.035064794 -0.035048466 0.00063298998 0.017649926 0.014405607 -0.99974048 0
-0.027566001 -0.035085417 0.0055209971 0.91158265 0.029790301 -0.41003603 0
-0.042748898 -0.024973502 0.0053519295 -0.90273041 -0.020414235 -0.42972204 0
-0.034978583 -0.024885779 0.00074669073 0.049736205 0.0048463722 -0.99875057 0
-0.027691919 -0.025109028 0.0056779454 0.9209516 0.020157741 -0.38915536 0
-0.042917468 -0.01511774 0.005415068 -0.89930296 -0.012248368 -0.43715459 0
-0.034993898 -0.015047536 0.0008078338 0.065733768 0.013194934 -0.99774998 0
-0.027853647 -0.014813527 0.0058060172 0.93018425 0.025666155 -0.36619446 0
-0.043059651 -0.0050717695 0.0053668409 -0.8946436 -0.012478628 -0.44660631 0
-0.035000529 -0.0049697584 0.00095590728 0.092497669 0.0077142343 -0.99568301 0
-0.028010406 -0.0050978074 0.0060260114 0.9385522 0.037556984 -0.34308779 0
-0.043106668 0.0050398661 0.0053410414 -0.88804281 -0.0058826986 -0.45972309 0
-0.03472678 0.0050918316 0.0011427278 0.15723604 0.01736979 -0.98740828 0
-0.028272936 0.0050537246 0.0062615904 0.95115483 0.03639295 -0.30656162 0
-0.043127194 0.015035899 0.0051899184 -0.8779282 -0.0096640373 -0.47869465 0
-0.034706272 0.015096353 0.0013222531 0.20554747 0.016385557 -0.9785099 0
-0.028545083 0.015006568 0.006523686 0.95057374 0.022930525 -0.30965117 0
-0.042914402 0.0249267 0.0056216395 -0.89220506 0.050072566 -0.44884619 0
-0.03461203 0.025103031 0.0020916548 0.26301849 0.074428827 -0.96191555 0
-0.028837897 0.024518475 0.0072326832 0.95928293 0.098861217 -0.26458034 0
-0.043268725 0.035157304 0.0053110016 -0.86851525 -0.11030097 -0.48323387 0
-0.03465566 0.034958985 0.0017474762 0.25122905 -0.083883114 -0.96428609 0
-0.028847361 0.035209246 0.0069701201 0.96402884 -0.060064875 -0.25892207 0
-0.043516595 0.045765858 0.0050473302 -0.83711511 0.25272191 -0.48514938 0
-0.034623709 0.046310913 0.0024478897 0.26389956 0.44555789 -0.8554737 0
-0.028674031 0.04519416 0.0067482474 0.9480477 0.14673503 -0.2822665 0
-0.041071165 0.052668322 0.0079196645 -0.90667886 0.34584451 -0.24150561 0
-0.035874642 0.053200066 0.0067514488 0.35762629 0.63941497 -0.68062615 0
-0.041786779 -0.063159935 0.012995855 -0.75908387 -0.48109061 0.43856975 0
-0.03498093 -0.062677272 0.015160192 0.0072278781 -0.99390543 0.10999862 0
-0.027786162 -0.062969029 0.013240905 0.666812 -0.57135659 0.4784489 0
-0.042287994 -0.055141103 0.013431597 -0.87346339 0.022428283 0.48637292 0
-0.034984343 -0.055765565 0.016774496 -0.032059222 -0.16830945 0.98521274 0
-0.027296662 -0.05510658 0.013790745 0.84361237 0.045534823 0.53501844 0
-0.042276215 -0.04483534 0.013596846 -0.85987294 -0.025370663 0.50987738 0
-0.034964308 -0.044887599 0.017530773 -0.00934623 0.0083151478 0.9999218 0
-0.027543854 -0.045124102 0.013504809 0.87359285 0.026163906 0.48595354 0
-0.042440243 -0.034983814 0.013575498 -0.84889394 -0.0091667417 0.52848393 0
-0.034923561 -0.034939419 0.017393883 0.0184485 0.014752162 0.99972099 0
-0.027712561 -0.035032298 0.013289296 0.87808108 0.03885949 0.47693142 0
-0.042446867 -0.024971271 0.013592503 -0.85160553 0.0014791267 0.52418113 0
-0.034894835 -0.024908597 0.017255839 0.065638661 0.011677194 0.99777508 0
-0.027937684 -0.025148036 0.01319047 0.87037623 0.02051862 0.49195954 0
-0.042591199 -0.014999753 0.013574518 -0.84871596 -0.019887516 0.52847487 0
-0.034849074 -0.015005683 0.017148957 0.09627901 0.011938045 0.99528277 0
-0.02807058 -0.015058109 0.012963305 0.88657337 0.0038219637 0.46257234 0
-0.042664554 -0.0049620718 0.013676782 -0.83187115 -0.011858144 0.55484205 0
-0.034749936 -0.0050280429 0.017014328 0.13077617 0.0086347964 0.99137431 0
-0.028295226 -0.0050307033 0.012930317 0.89027804 0.051138863 0.45253724 0
-0.042800471 0.0050581861 0.01360885 -0.82833767 -0.013033167 0.56007743 0
-0.03480586 0.004980579 0.016887311 0.1519219 0.018756637 0.98821449 0
-0.02862625 0.0049852664 0.012725006 0.9081828 0.021712219 0.41801015 0
-0.042739347 0.015021224 0.013834358 -0.80759358 0.0090485215 0.58966994 0
-0.034781922 0.014948065 0.016705468 0.18455756 0.026196655 0.98247254 0
-0.028676694 0.014935832 0.012540471 0.91339236 0.029034261 0.40604365 0
-0.042554125 0.024729058 0.0132335 -0.81379569 0.063499168 0.57767147 0
-0.034841612 0.025013259 0.01598482 0.19570336 0.071207881 0.97807443 0
-0.029064305 0.024605704 0.011822071 0.92396903 0.081720859 0.3736347 0
-0.042966675 0.035097212 0.013618063 -0.79851872 -0.11818449 0.59025443 0
-0.034725651 0.034979247 0.016356397 0.23399065 -0.081959896 0.96877807 0
-0.028962482 0.035367142 0.011947449 0.92978472 -0.064766899 0.36236122 0
-0.043153487 0.045774411 0.013936317 -0.77328491 0.25446844 0.58075482 0
-0.034837488 0.046207208 0.016072068 0.26437533 0.40508145 0.87522268 0
-0.028856141 0.044531871 0.012238405 0.91539955 0.11090671 0.38696679 0
-0.040749885 0.052528646 0.010960749 -0.793423 0.30547392 0.5264653 0
-0.036307983 0.052899603 0.012045309 0.20015304 0.51398963 0.83411837 0
