# .PCD v0.7 - Point Cloud Data file format
VERSION 0.7
FIELDS x y z normal_x normal_y normal_z curvature
SIZE 4 4 4 4 4 4 4
TYPE F F F F F F F
COUNT 1 1 1 1 1 1 1
WIDTH 651
HEIGHT 1
VIEWPOINT 0 0 0 1 0 0 0
POINTS 651
DATA ascii
0.014095533 -0.013973032 0.0075939819 0.41941193 -0.42245242 -0.80350953 0
0.020492032 -0.01098951 0.0095391273 0.37626541 -0.43075556 -0.82028896 0
-0.032665547 -0.0028943864 0.0090227248 -0.42640862 -0.31844938 -0.8466202 0
-0.025066065 -0.0050276304 0.0063063763 -0.38861468 -0.25220975 -0.88621038 0
-0.014984866 -0.0051098969 0.0027771043 -0.19704711 -0.22579253 -0.95403892 0
-0.0055999868 -0.0060711065 0.0011171171 -0.21175715 -0.18305793 -0.96002531 0
0.0060575209 -0.0061454847 0.00097662723 0.21059375 -0.28776377 -0.93426031 0
0.014899333 -0.0051277913 0.0039704419 0.39631325 -0.32411459 -0.85900265 0
0.023439165 -0.0038517921 0.0077185812 0.50755996 -0.36894414 -0.77862912 0
-0.040077228 0.0079035517 0.0098932004 -0.36838812 -0.11137369 -0.92297679 0
-0.034523554 0.0055198469 0.007947851 -0.38348016 -0.12034383 -0.91567481 0
-0.025186779 0.0053860391 0.0040938193 -0.37758911 -0.1391653 -0.91545594 0
-0.014853396 0.0050949063 0.00094567199 -0.1733153 -0.12380416 -0.97705388 0
-0.0091241067 0.0017848448 0.00037539893 -0.22148237 -0.21185879 -0.95187259 0
0.0082099941 0.0051296125 0.00022790678 0.16142365 -0.017859096 -0.98672354 0
0.014949274 0.0052153887 0.0017260942 0.26195335 -0.091502719 -0.96073288 0
0.025165867 0.0050362917 0.0058676624 0.52756619 -0.14457177 -0.83712178 0
0.030735323 0.0077474932 0.0094154151 0.68191916 -0.18616751 -0.70733863 0
-0.03495932 0.01481444 0.0076552215 -0.45783436 0.026888296 -0.88863081 0
-0.025012221 0.015139603 0.0032067094 -0.3650921 0.0028573489 -0.93096697 0
-0.015583732 0.015028703 0.00049471034 -0.15125524 0.01229203 -0.98841834 0
0.0079651158 0.016498333 0.00019497646 0.10488464 0.051750682 -0.99313694 0
0.015157152 0.014894212 0.0012564302 0.23036739 -0.016561374 -0.97296274 0
0.02494891 0.015199796 0.0056692944 0.54628277 0.038695309 -0.83670646 0
0.030604187 0.015004514 0.0095409639 0.44182381 0.097913809 -0.89174253 0
-0.034210484 0.024849121 0.0082113799 -0.41003421 0.14857906 -0.89988679 0
-0.025335208 0.025323514 0.0043458194 -0.3962228 0.15243226 -0.90541255 0
-0.015321241 0.02516162 0.00089833362 -0.15199153 0.092843264 -0.98401153 0
-0.0049519506 0.026263719 0.00033701881 -0.039423145 0.086559191 -0.99546641 0
0.0048833303 0.024840208 0.00055603508 0.093370073 0.096619591 -0.99093223 0
0.015253997 0.025369084 0.0020874329 0.19452828 0.17617993 -0.96494526 0
0.025022335 0.024908908 0.0064299083 0.56675524 0.12440835 -0.81443912 0
0.030420635 0.021458717 0.009787037 0.59043837 0.1087894 -0.79971713 0
-0.032057911 0.033943105 0.0090248538 -0.41823179 0.22821912 -0.87920308 0
-0.024673093 0.035081133 0.0062445402 -0.3501659 0.24883801 -0.90303016 0
-0.015098109 0.035291575 0.0030708637 -0.2224782 0.29618904 -0.92885715 0
-0.0052587222 0.034838013 0.0017683258 -0.050274365 0.23903114 -0.96970952 0
0.0053904713 0.034934472 0.0023744409 0.13301235 0.26685432 -0.95451373 0
0.015355064 0.035333585 0.0049894685 0.315081 0.38710526 -0.86652952 0
0.02314321 0.034228571 0.0079139248 0.44807693 0.349049 -0.82303816 0
-0.023724252 0.043734916 0.0087323803 -0.29806545 0.35089171 -0.88771164 0
-0.015134525 0.044937402 0.0066650175 -0.21223831 0.41732678 -0.88362509 0
-0.0051403581 0.045027785 0.0057980497 0.046615195 0.50449669 -0.8621543 0
0.004448113 0.044909824 0.0069504641 0.16062403 0.54382634 -0.82368243 0
0.013818338 0.042569954 0.0082831448 0.34261289 0.4953337 -0.7982862 0
-0.013383659 0.050880142 0.0095643802 -0.084016241 0.53542429 -0.84039408 0
-0.0051630461 0.050634462 0.0096660424 0.0721232 0.59794974 -0.79828221 0
-0.013749714 -0.031021466 0.019026907 -0.17550327 -0.69309616 -0.69915396 0
-0.0050539281 -0.031623267 0.018526858 -0.019007798 -0.71983618 -0.69388366 0
0.0049233199 -0.031485893 0.018434025 0.031361479 -0.67140746 -0.74042463 0
0.012799633 -0.030999636 0.019049194 0.19818471 -0.63728088 -0.74471205 0
-0.032067664 -0.022264462 0.018189121 -0.49625224 -0.57590097 -0.6496706 0
-0.024744304 -0.024640655 0.016561246 -0.32662791 -0.5901407 -0.7382738 0
-0.015196241 -0.025322154 0.014115825 -0.15797089 -0.63046914 -0.75996959 0
-0.0047941837 -0.02603567 0.013216019 -0.013854375 -0.66025215 -0.75091618 0
0.0050217435 -0.026015319 0.013665596 0.067308217 -0.65363014 -0.75381511 0
0.015234554 -0.02510142 0.015230799 0.3063648 -0.57229042 -0.76067352 0
0.022868756 -0.022371251 0.0177949 0.59292167 -0.54783458 -0.59018737 0
-0.041271001 -0.011288012 0.01881519 -0.60339355 -0.44772086 -0.65989572 0
-0.034621682 -0.014569311 0.015402342 -0.52797556 -0.3858012 -0.75657064 0
-0.025951039 -0.017240705 0.012037555 -0.31525928 -0.53536588 -0.78357834 0
-0.018927136 -0.018817851 0.010626216 -0.36458758 -0.48559695 -0.79452598 0
0.01737681 -0.017756019 0.011403771 0.42690524 -0.43653467 -0.79195285 0
0.024752965 -0.015135512 0.014829244 0.54439551 -0.41071647 -0.73139966 0
0.031712838 -0.012363101 0.018624745 0.5749945 -0.38724601 -0.7207092 0
-0.044074699 -0.003915804 0.016598094 -0.58593547 -0.39248282 -0.70896888 0
-0.03602818 -0.0062240399 0.012279559 -0.47347045 -0.35455617 -0.80629748 0
-0.029937783 -0.0096823135 0.010316527 -0.4416956 -0.34412476 -0.82854283 0
0.02761336 -0.0060803043 0.012050191 0.58371359 -0.3697235 -0.72289908 0
0.033944268 -0.0044892328 0.01667995 0.63728845 -0.30135643 -0.70925862 0
-0.050683163 0.0065472173 0.019027578 -0.74397397 -0.12700656 -0.6560275 0
-0.045352135 0.0053147799 0.01404726 -0.62897724 -0.10807737 -0.76987469 0
-0.039288174 0.0019972539 0.010625612 -0.41604355 -0.27680522 -0.86619085 0
0.029464031 0.0011646663 0.010215551 0.67030281 -0.24266812 -0.701289 0
0.035393711 0.0046645612 0.014838525 0.68863368 -0.20271532 -0.69619703 0
0.040509872 0.007267226 0.019599354 0.79035634 -0.081814982 -0.60715997 0
-0.051001169 0.015496493 0.018785538 -0.7181266 0.010951384 -0.69582629 0
-0.045163635 0.014857575 0.013856838 -0.59069204 0.032227129 -0.80625319 0
-0.039529197 0.015825612 0.010200283 -0.51833457 -0.0064306548 -0.8551538 0
0.035826825 0.015388337 0.013880392 0.70225382 0.044493753 -0.71053493 0
0.040581297 0.014653728 0.019154495 0.76566881 0.022455504 -0.64284295 0
-0.05111577 0.023370888 0.019292971 -0.75288832 0.12793365 -0.64559442 0
-0.0449421 0.024892839 0.014447115 -0.57919163 0.1600361 -0.79932809 0
-0.03879717 0.027246634 0.01099841 -0.51375675 0.21295382 -0.83108634 0
0.029782444 0.028248247 0.010239467 0.59043825 0.1087894 -0.79971713 0
0.035088819 0.025020786 0.014616572 0.69880545 0.15069728 -0.69925761 0
0.040416636 0.022428961 0.019740051 0.76397574 0.08980196 -0.63896531 0
-0.044126153 0.034106266 0.016823143 -0.59602392 0.2961126 -0.74637306 0
-0.036554057 0.035920072 0.012275842 -0.51963365 0.27465522 -0.80903971 0
0.027614888 0.036405697 0.011799694 0.56689769 0.38610959 -0.72769946 0
0.033462968 0.034435172 0.016255824 0.69964349 0.33983958 -0.62849665 0
-0.041635402 0.042145517 0.018186366 -0.63591993 0.41130778 -0.65301734 0
-0.034839593 0.044769119 0.014887434 -0.51686078 0.41621995 -0.74807489 0
-0.027126059 0.047111467 0.011422746 -0.38241875 0.38985234 -0.83771771 0
-0.019401312 0.049765471 0.010182194 -0.20909654 0.4995741 -0.84065711 0
0.0071933791 0.049231768 0.010480429 0.16375738 0.57338876 -0.80275077 0
0.016050966 0.046915904 0.012323152 0.39113581 0.55767667 -0.73212677 0
0.025274487 0.044647343 0.01555033 0.48201367 0.53753114 -0.69189817 0
0.031385157 0.041698482 0.018447792 0.63520771 0.46128085 -0.61946046 0
-0.03253217 0.052551202 0.01819564 -0.51002866 0.51483303 -0.68907017 0
-0.024940535 0.054277457 0.015365829 -0.27614748 0.62954974 -0.72622973 0
-0.015029889 0.055657953 0.013956218 -0.13614443 0.67497212 -0.72517401 0
-0.0048836577 0.055347428 0.013525421 0.07564491 0.65206516 -0.75437987 0
0.0052150032 0.054963376 0.014877933 0.19295986 0.66555494 -0.72097373 0
0.013680032 0.053268712 0.016761376 0.36394379 0.6571129 -0.66011184 0
0.021876324 0.051038019 0.019027825 0.32512799 0.70174474 -0.63391334 0
-0.020707235 0.06038982 0.019922221 -0.11006408 0.75176889 -0.65017653 0
-0.014821949 0.060700208 0.019237995 -0.12671588 0.75819492 -0.6395964 0
-0.0051687793 0.061165296 0.019039955 0.068866789 0.73028874 -0.67965853 0
0.0019056012 0.060460322 0.019630738 0.15928423 0.73995805 -0.65352172 0
-0.0030595688 -0.040572058 0.028795397 -0.15776052 -0.84629381 -0.50882065 0
0.0046964944 -0.041276153 0.028715735 -0.00018294722 -0.76183534 -0.6477707 0
0.010846145 -0.040761195 0.028809054 0.32315642 -0.76093459 -0.56262648 0
-0.032171708 -0.031075172 0.028137026 -0.45089194 -0.72187501 -0.52496946 0
-0.024471585 -0.033374295 0.025674226 -0.26887378 -0.7578541 -0.59444433 0
-0.014985466 -0.035087787 0.024636399 -0.21377873 -0.81678188 -0.53587872 0
-0.0052544745 -0.036726903 0.024331851 -0.07888329 -0.77878422 -0.62231231 0
0.004778401 -0.036501434 0.023461044 -0.0020995627 -0.72859049 -0.68494636 0
0.015246714 -0.035211496 0.02476358 0.41772875 -0.70134723 -0.57759398 0
0.023187893 -0.032198958 0.027815931 0.47312656 -0.63020551 -0.61562347 0
-0.042202935 -0.022784352 0.027326711 -0.56200373 -0.55399519 -0.61419952 0
-0.03560226 -0.025790095 0.024697408 -0.49033901 -0.63393122 -0.59807932 0
-0.026823299 -0.02871302 0.021478081 -0.38907653 -0.68584013 -0.61501443 0
0.01969756 -0.029252982 0.021697715 0.87150258 -0.42636779 -0.24226807 0
0.025611347 -0.025801307 0.023987021 0.48625454 -0.60872883 -0.62690169 0
0.033143923 -0.023029331 0.026950926 0.53032041 -0.58831197 -0.61045015 0
-0.051906321 -0.012226894 0.028045999 -0.53509486 -0.52856326 -0.65901005 0
-0.045360133 -0.015150087 0.024631971 -0.59026092 -0.42537612 -0.68603724 0
-0.038478181 -0.01869899 0.020818952 -0.57825291 -0.47424817 -0.66386169 0
0.029370453 -0.019061357 0.020568529 0.55584145 -0.40959889 -0.72337335 0
0.036064576 -0.015398126 0.023930842 0.62992352 -0.38394758 -0.67511523 0
0.041472331 -0.012728847 0.027938353 0.71976334 -0.36074096 -0.59313291 0
-0.053183582 -0.0047247242 0.025753345 -0.76491594 -0.22131149 -0.60491717 0
-0.047788758 -0.0075306906 0.02172433 -0.47882134 -0.49571887 -0.72456384 0
0.038357694 -0.0065391529 0.021769732 0.71948761 -0.27176142 -0.63912696 0
0.042866554 -0.0044499803 0.026138801 0.74070519 -0.22460918 -0.63317186 0
-0.054723389 0.0052182735 0.024493519 -0.79395914 -0.15114586 -0.58888358 0
0.039991319 0.00091482815 0.020599529 0.75333786 -0.26894256 -0.60012668 0
0.044215139 0.0051035793 0.024852652 0.79040861 -0.13146578 -0.59830672 0
-0.055825558 0.014698856 0.024933258 -0.81004876 -0.0077881129 -0.5863108 0
0.045391895 0.015015606 0.025098078 0.77974957 0.014099368 -0.62593269 0
-0.054930456 0.025048129 0.025098765 -0.79432142 0.20779467 -0.57085454 0
-0.049861602 0.029521126 0.020165887 -0.78301084 0.26905164 -0.5608077 0
0.039466448 0.028113872 0.020379331 0.77888083 0.31789213 -0.54063791 0
0.043649428 0.024679758 0.025006942 0.80149138 0.23020919 -0.55191958 0
-0.052375562 0.034408335 0.0261804 -0.76948273 0.30682769 -0.5601368 0
-0.048118733 0.036686257 0.021615854 -0.71734148 0.33826733 -0.6090948 0
0.038003087 0.035988327 0.023025475 0.76027191 0.3452273 -0.55027682 0
0.041678764 0.03420439 0.027171541 0.78140765 0.33156282 -0.52864754 0
-0.051116701 0.041813027 0.028940532 -0.75715679 0.35498971 -0.54835731 0
-0.045389481 0.045351192 0.024890268 -0.64586675 0.5019936 -0.57520306 0
-0.039202217 0.04871545 0.02103688 -0.62537891 0.51036263 -0.59028059 0
0.02822412 0.048588526 0.021259984 0.58758789 0.55218464 -0.59146649 0
0.034313288 0.044993162 0.025026174 0.70367092 0.49748608 -0.50730151 0
0.040149942 0.04009942 0.028902594 0.77134758 0.44807872 -0.45193839 0
-0.042069424 0.051627953 0.027529895 -0.6296609 0.65097922 -0.42397305 0
-0.03566597 0.055766314 0.024440395 -0.60923612 0.6167171 -0.49848893 0
-0.028226243 0.059046324 0.021162435 -0.40545133 0.68740362 -0.60256565 0
0.008875031 0.059415422 0.020566903 0.26437542 0.71105212 -0.65154475 0
0.016557038 0.057410296 0.022554979 0.39375946 0.66075838 -0.63902414 0
0.024880625 0.054728162 0.02511875 0.46348882 0.69489771 -0.54981381 0
0.031360298 0.051750202 0.028192183 0.67618799 0.58389467 -0.44926253 0
-0.032016955 0.060830567 0.027585164 -0.37201312 0.8609181 -0.34702489 0
-0.025076788 0.062462445 0.025500704 -0.29404771 0.86611795 -0.4041976 0
-0.015166617 0.064501517 0.024582392 -0.15014586 0.83570552 -0.52825427 0
-0.0050418968 0.065501668 0.024874985 0.058207858 0.84202117 -0.53629494 0
0.0050466848 0.063751869 0.025044523 0.19923122 0.82455176 -0.52954829 0
0.014238406 0.062180255 0.026964303 0.36264876 0.79635245 -0.48405445 0
0.02099588 0.060251366 0.029958948 0.42106798 0.81482369 -0.39845225 0
-0.023828352 -0.041217286 0.037484158 -0.2732186 -0.8563785 -0.43814096 0
-0.014949891 -0.042276945 0.035563864 -0.1678824 -0.81978166 -0.54751569 0
-0.004851073 -0.043885704 0.035127837 -0.15737836 -0.86039317 -0.48472232 0
0.0050768722 -0.045016736 0.035097484 -0.0075157187 -0.87875944 -0.47720587 0
0.014600894 -0.043320369 0.035674777 0.38432801 -0.79462421 -0.469962 0
0.021251041 -0.040911738 0.038451269 0.48665157 -0.75904173 -0.43246493 0
-0.041830666 -0.031575784 0.038390208 -0.52625281 -0.70143181 -0.48067805 0
-0.03461476 -0.03460509 0.035425909 -0.46414164 -0.73144478 -0.49956095 0
-0.026212061 -0.037915032 0.033321243 -0.35022235 -0.79826528 -0.49001709 0
-0.014697817 -0.039161094 0.031426404 -0.14692675 -0.77722102 -0.61183327 0
-0.009378504 -0.039677434 0.030008759 -0.33319944 -0.90466267 -0.26563823 0
0.017963776 -0.039007563 0.031887088 0.47648248 -0.71451265 -0.51228511 0
0.025205107 -0.035789981 0.034346871 0.4875713 -0.73051196 -0.47814906 0
0.032361403 -0.031906728 0.036339629 0.62063628 -0.68086797 -0.3888821 0
-0.052115433 -0.022298135 0.037822343 -0.65474766 -0.57391661 -0.49185887 0
-0.045658685 -0.025807574 0.034482908 -0.55950916 -0.66234028 -0.49825189 0
-0.038960401 -0.028919555 0.031371683 -0.52625263 -0.70143205 -0.48067787 0
0.029496854 -0.029791145 0.030137451 0.48088589 -0.58655864 -0.65168834 0
0.03634581 -0.025947226 0.034071524 0.67056513 -0.59559697 -0.4422743 0
0.041478779 -0.022114351 0.037192561 0.77717394 -0.45879582 -0.43070528 0
-0.06025511 -0.010439714 0.03980042 -0.88710624 -0.27467641 -0.37093872 0
-0.055216525 -0.015271183 0.034683861 -0.74385047 -0.46414462 -0.48089108 0
-0.049334984 -0.018897425 0.030583236 -0.58922946 -0.4729611 -0.65506977 0
0.039758623 -0.019003872 0.030761546 0.8334313 -0.36712575 -0.41305074 0
0.044344209 -0.014853006 0.035132106 0.80676508 -0.46160629 -0.36884907 0
-0.061172701 -0.003484258 0.037386164 -0.86006683 -0.21930529 -0.46064115 0
-0.058176078 -0.0057597677 0.033167955 -0.83476639 -0.19421072 -0.51521575 0
0.047948699 -0.0055221594 0.034099806 0.87574303 -0.22073506 -0.42936021 0
0.050551094 -0.0026690688 0.038393844 0.91023105 -0.22960962 -0.34461406 0
-0.062008385 0.0055151326 0.035923392 -0.88021213 -0.099735402 -0.46398214 0
-0.059202056 0.0042304252 0.03136646 -0.82827801 -0.15648246 -0.53802305 0
0.049063791 0.0043248939 0.031904019 0.84049177 -0.17200376 -0.513798 0
0.051568054 0.0055817976 0.036296248 0.90439337 -0.16964811 -0.39152545 0
-0.062254157 0.014978279 0.035197519 -0.89421308 -0.0085092597 -0.44756064 0
-0.059661619 0.015100316 0.030461146 -0.82966202 0.0041675949 -0.55825049 0
0.049571 0.015529577 0.030770479 0.80821794 0.10078778 -0.58019447 0
0.052234337 0.014978534 0.035701159 0.92643297 0.012606423 -0.3762486 0
-0.062302381 0.024135312 0.036581364 -0.87093729 0.13940549 -0.47120532 0
-0.059146579 0.025865041 0.03144766 -0.84917343 0.17779937 -0.4972845 0
0.048303433 0.025424168 0.032298401 0.80496299 0.24074265 -0.54228914 0
0.051496703 0.024419999 0.03711183 0.88364208 0.2511687 -0.39508349 0
-0.061036624 0.032420032 0.037813835 -0.89496726 0.28874791 -0.34008566 0
-0.057496104 0.03558642 0.034211129 -0.7787866 0.39687485 -0.48577952 0
0.046059396 0.035194285 0.035159089 0.79962146 0.42252433 -0.42670685 0
0.050341286 0.030926095 0.03927929 0.8638131 0.32796577 -0.38244659 0
-0.05320343 0.044000488 0.035494294 -0.7760492 0.52331364 -0.35198089 0
-0.04885643 0.048396107 0.032777861 -0.72710907 0.59225518 -0.34719783 0
0.038185872 0.04713551 0.033870034 0.74557024 0.5542984 -0.36997077 0
0.042130955 0.043007229 0.036104213 0.79066962 0.50026393 -0.35295558 0
-0.050356783 0.050333299 0.03967765 -0.75567037 0.57127529 -0.32032323 0
-0.044337921 0.054727413 0.035418075 -0.63950211 0.64420104 -0.41957372 0
-0.038692009 0.058575492 0.032694735 -0.61855179 0.66720396 -0.4150092 0
0.026963629 0.058299467 0.033454761 0.53922117 0.77164251 -0.33735487 0
0.033432461 0.053794641 0.035597812 0.68225116 0.65959442 -0.31538644 0
-0.040725995 0.060406942 0.03911081 -0.56160212 0.74481946 -0.36034289 0
-0.034499902 0.062613524 0.03589553 -0.4379375 0.84448123 -0.30832165 0
-0.025142405 0.066298448 0.034830268 -0.32732162 0.88123053 -0.34101811 0
-0.015942667 0.068571977 0.033797633 -0.16812436 0.93562996 -0.31037202 0
-0.0054361429 0.06925194 0.031887803 -0.0079319272 0.91672587 -0.39943808 0
0.0055021495 0.068289615 0.033977356 0.23594636 0.89691168 -0.37400368 0
0.015433872 0.065165304 0.035183448 0.40564585 0.87181646 -0.27456787 0
0.022791557 0.06172372 0.035633586 0.44253302 0.84369034 -0.30389321 0
-0.012885944 0.070494622 0.038208615 -0.15096124 0.94247645 -0.29824278 0
-0.0048622047 0.070987247 0.036566876 -0.012597834 0.95770478 -0.2874769 0
0.0027579605 0.070526764 0.038233586 0.22390524 0.93726891 -0.26719561 0
-0.0028568073 -0.050328046 0.049209751 -0.11893775 -0.93588811 -0.33161318 0
0.0053025903 -0.05055983 0.047977511 0.033856217 -0.96142143 -0.27298814 0
0.010202158 -0.050055139 0.049731553 0.28953883 -0.95113033 -0.1073238 0
-0.040467467 -0.040003553 0.049801193 -0.61298567 -0.73327798 -0.29419735 0
-0.033550471 -0.042121299 0.046831816 -0.38637587 -0.78518033 -0.48394799 0
-0.024921138 -0.044328582 0.04525562 -0.26581809 -0.90078592 -0.34340274 0
-0.015051446 -0.046844587 0.045203023 -0.19637656 -0.91562682 -0.35080445 0
-0.0051685427 -0.048248526 0.044396333 -0.13793917 -0.92357528 -0.35774508 0
0.0047668973 -0.048947446 0.043232195 -0.054086301 -0.93473345 -0.35120955 0
0.015064783 -0.047208447 0.044802297 0.42100441 -0.87452281 -0.24075952 0
0.023792159 -0.042306989 0.045510266 0.54556865 -0.79048264 -0.27837378 0
-0.050920092 -0.030712212 0.047975272 -0.59292579 -0.75949401 -0.26759639 0
-0.044382621 -0.034240417 0.045364991 -0.53771985 -0.72288936 -0.43392202 0
-0.037346113 -0.038152505 0.043709327 -0.46345943 -0.77907318 -0.42219695 0
0.028121406 -0.038511842 0.043681223 0.56949836 -0.76674849 -0.29625729 0
0.034236535 -0.034123678 0.0452751 0.63848925 -0.71318591 -0.28930503 0
0.040077116 -0.030362247 0.049256593 0.68824178 -0.65429026 -0.31341264 0
-0.054582272 -0.024583705 0.044871077 -0.74579525 -0.55519158 -0.36817351 0
-0.048437592 -0.028715787 0.041472394 -0.53483427 -0.69114989 -0.48607013 0
0.038815029 -0.028715935 0.043019511 0.68638772 -0.65765995 -0.31041142 0
0.043410137 -0.024576185 0.045659449 0.7855565 -0.53816134 -0.30542314 0
-0.061354075 -0.013478618 0.046140451 -0.85682428 -0.39453536 -0.33195493 0
-0.058497343 -0.017051315 0.043607697 -0.84408134 -0.4156715 -0.3387388 0
0.047529466 -0.015634745 0.044038996 0.86624378 -0.4097749 -0.2858431 0
0.050388254 -0.011252345 0.047486305 0.93907797 -0.30171603 -0.16462107 0
-0.063786387 -0.0051999507 0.044888679 -0.91058117 -0.25966728 -0.32158169 0
0.04979248 -0.0088086305 0.040566854 0.8882829 -0.32881287 -0.32067975 0
0.051778372 -0.0052021397 0.04518294 0.94369686 -0.26735899 -0.19482183 0
-0.066095054 0.0049916487 0.045027405 -0.92818242 -0.13960919 -0.34494442 0
0.054337926 0.0048043551 0.044908386 0.939403 -0.22118042 -0.26191822 0
-0.066696331 0.015106788 0.045219298 -0.94275087 0.025999121 -0.33248302 0
0.055346146 0.014993737 0.044990823 0.95375359 0.071210541 -0.29203266 0
-0.06573315 0.025338439 0.044791419 -0.95216215 0.18829644 -0.24069005 0
0.053631831 0.025155932 0.044616401 0.94263446 0.22456354 -0.247005 0
-0.062470861 0.034603726 0.045235287 -0.86486423 0.43330657 -0.25348619 0
-0.059481107 0.03892839 0.042542156 -0.8684569 0.42343584 -0.25784618 0
0.048581157 0.037851762 0.043270085 0.78175396 0.51233023 -0.35549748 0
0.051536798 0.03329917 0.045453954 0.91780573 0.3224369 -0.23166171 0
-0.060550123 0.040460348 0.04916637 -0.82427913 0.53845948 -0.17500089 0
-0.056137379 0.045009539 0.044506941 -0.786753 0.55579674 -0.26853254 0
0.039289076 0.049105059 0.041456025 0.73402643 0.64926898 -0.19913551 0
0.044284858 0.04469803 0.045106709 0.76257145 0.59371716 -0.25687492 0
-0.051565427 0.051986504 0.046392631 -0.76604027 0.58907086 -0.2572507 0
-0.047115952 0.056671571 0.044338685 -0.72385901 0.6377973 -0.26314029 0
0.029770013 0.059658658 0.041785926 0.59379476 0.77454907 -0.21790265 0
0.035413649 0.055378616 0.044661719 0.69810504 0.67247206 -0.24582653 0
0.040568266 0.050975762 0.048520081 0.75741237 0.57773501 -0.30421832 0
-0.04222516 0.061750311 0.045687705 -0.5557254 0.81192654 -0.17873038 0
-0.03530046 0.065065764 0.044696938 -0.41048622 0.88113964 -0.23472096 0
-0.026498606 0.068857074 0.044268776 -0.35667062 0.91049957 -0.20922843 0
0.0089593567 0.069633558 0.042205419 0.33664986 0.92764467 -0.16168573 0
0.014762158 0.067679949 0.044641364 0.39764595 0.90355265 -0.1595944 0
0.025033802 0.062781706 0.044987116 0.46209458 0.87626898 -0.1364602 0
0.030343154 0.06011657 0.047056023 0.53611332 0.83642673 -0.11389821 0
-0.02246777 0.070860669 0.046450153 -0.32052556 0.93196797 -0.16940765 0
-0.015004292 0.072088003 0.04492531 -0.15078609 0.96085751 -0.23241447 0
-0.0053409892 0.073044434 0.044923957 -0.01791402 0.98184985 -0.18881221 0
0.0046379617 0.071655683 0.045399338 0.29454473 0.94189411 -0.16148993 0
0.010368958 0.070202939 0.049055636 0.33986637 0.9315002 -0.1296078 0
-0.012897309 -0.050644677 0.056619011 -0.18792056 -0.97334987 -0.13143793 0
-0.0050022788 -0.051583827 0.054988608 -0.13033243 -0.97113031 -0.19979818 0
0.0048817527 -0.051792864 0.055059846 0.14553802 -0.98344022 -0.10799991 0
0.011233895 -0.050412972 0.056270838 0.25857881 -0.96048695 -0.10296508 0
-0.041128166 -0.040764548 0.055677745 -0.54699284 -0.83287662 -0.08435338 0
-0.035430193 -0.043696709 0.0548026 -0.40684789 -0.90902048 -0.090313487 0
-0.025205975 -0.047240555 0.055070452 -0.25768265 -0.93767571 -0.23316082 0
-0.016880991 -0.049208928 0.053944498 -0.25063983 -0.94247228 -0.22119153 0
-0.0096477177 -0.049933344 0.050531454 -0.11893777 -0.93588811 -0.33161324 0
0.016199775 -0.048402946 0.05467879 0.37092447 -0.92229944 -0.10852977 0
0.024899788 -0.044132166 0.055211697 0.50418407 -0.8459295 -0.17378646 0
0.030915193 -0.040661715 0.057426192 0.60348403 -0.79384494 -0.074948557 0
-0.052445758 -0.031626604 0.055696417 -0.62170905 -0.77792799 -0.09113691 0
-0.046064194 -0.036725011 0.054770201 -0.63393205 -0.75793624 -0.15382732 0
0.02961611 -0.039986081 0.050883673 0.57084799 -0.77666289 -0.26632178 0
0.035619095 -0.036147028 0.05495679 0.64626956 -0.74540293 -0.16343229 0
0.041018844 -0.03134425 0.055798449 0.75469321 -0.6481874 -0.10144611 0
-0.060609132 -0.021034688 0.05695973 -0.86239862 -0.48353362 -0.14987913 0
-0.057250693 -0.025561174 0.054414108 -0.81139529 -0.54715133 -0.20557994 0
0.045031827 -0.025447244 0.055171262 0.84390146 -0.53278118 -0.063044906 0
-0.063269004 -0.014912814 0.055205978 -0.89422482 -0.40837017 -0.18329127 0
0.04916054 -0.017944515 0.054440163 0.88960427 -0.43299237 -0.14533341 0
0.051017519 -0.013623805 0.055584613 0.94645882 -0.29494295 -0.13124162 0
-0.066698335 -0.0050775502 0.055091135 -0.95931309 -0.19944265 -0.19985247 0
0.053502005 -0.0049194982 0.054876026 0.95468974 -0.27954328 -0.10209328 0
-0.068452962 0.0048411503 0.055085767 -0.97689223 -0.1631774 -0.13803847 0
0.05611093 0.0048453882 0.054763362 0.97492218 -0.21443835 -0.059523005 0
-0.068606943 0.01520694 0.054817375 -0.99368221 0.088381819 -0.069168374 0
0.057447243 0.014896766 0.055511009 0.99735606 -0.00023184952 -0.072669551 0
-0.067318916 0.025122393 0.054964237 -0.96738815 0.23875123 -0.084603935 0
0.05587884 0.025136584 0.055040922 0.96744853 0.23052819 -0.10440359 0
-0.06363041 0.034887947 0.054766845 -0.91605037 0.39984369 -0.031252902 0
0.049684711 0.03938647 0.054637771 0.8731671 0.48346958 -0.06193969 0
0.052408174 0.034503087 0.055315521 0.88319099 0.46594188 -0.053589456 0
-0.06062752 0.041097656 0.055219062 -0.8649348 0.50173181 -0.012373158 0
-0.057557993 0.046231221 0.054682333 -0.85301775 0.51451802 -0.087360971 0
0.046184763 0.045164444 0.054940041 0.82121551 0.56321847 -0.091596998 0
-0.05267214 0.053540148 0.055165142 -0.75642133 0.64722943 -0.094449803 0
-0.047564734 0.058292624 0.054600805 -0.62848657 0.77629703 -0.048657969 0
0.036108647 0.056634843 0.05509223 0.66428512 0.74731857 -0.015504286 0
0.041431449 0.051177353 0.055000562 0.73551279 0.67672312 -0.032661092 0
-0.042636044 0.062393043 0.055179402 -0.65074486 0.75598806 -0.07080368 0
-0.035030589 0.067229614 0.05499246 -0.39851755 0.91130346 -0.10348774 0
-0.028756808 0.069645673 0.053913806 -0.34962246 0.9287082 -0.12355286 0
0.016517118 0.068497144 0.054503638 0.41382757 0.89940238 -0.14079061 0
0.025146874 0.064179771 0.055031832 0.47963983 0.86904299 -0.12128436 0
0.030821828 0.060779497 0.055868104 0.578466 0.81282371 -0.068517417 0
-0.024392733 0.071290791 0.055373751 -0.30397233 0.9479807 -0.094516695 0
-0.015279069 0.073615931 0.055365235 -0.15771991 0.98549896 -0.062578924 0
-0.0047621783 0.073879085 0.055185791 0.073810443 0.99726063 0.0048320377 0
0.0051667048 0.072308332 0.054706957 0.23994988 0.97017443 -0.034433473 0
0.011521691 0.07058356 0.055378992 0.30786303 0.94711196 -0.090549752 0
-0.013836054 -0.050833214 0.064485922 -0.19618291 -0.97794116 0.071717255 0
-0.0047664144 -0.052029472 0.064931557 -0.058140207 -0.9915334 0.11610889 0
0.0052916887 -0.05159599 0.065400578 0.1201706 -0.98270476 0.14089139 0
0.011996161 -0.050562978 0.06454175 0.27637362 -0.95319545 0.1226216 0
-0.041147016 -0.040573869 0.064244136 -0.51295227 -0.85026228 0.11804172 0
-0.035238411 -0.043514069 0.065011613 -0.44478762 -0.88487846 0.13839833 0
-0.025024166 -0.047881886 0.065001093 -0.29369819 -0.94611442 0.13641423 0
-0.018153766 -0.049476653 0.06671156 -0.24627101 -0.95896059 0.14051765 0
0.01618343 -0.04891428 0.065427177 0.31978089 -0.94300157 0.092131466 0
0.024981095 -0.044925801 0.065080144 0.5166229 -0.85542607 0.036702465 0
0.031036144 -0.040803775 0.064882077 0.60458434 -0.79652041 0.0057510976 0
-0.051983085 -0.032024641 0.064607583 -0.66973579 -0.74164051 0.03772708 0
-0.045983672 -0.037061471 0.065133333 -0.6050446 -0.79308194 0.070299111 0
0.036135711 -0.036580902 0.065071583 0.6577667 -0.75322062 0.0013330845 0
0.041230075 -0.031584058 0.06484548 0.80935228 -0.58618551 0.036542304 0
-0.060985319 -0.021468623 0.064308904 -0.87457037 -0.48400685 0.029392995 0
-0.056872912 -0.026752777 0.06551642 -0.76278871 -0.63644993 0.11438915 0
0.045361731 -0.024760133 0.065182947 0.85661483 -0.50761414 0.09240631 0
-0.064193286 -0.015006978 0.064955354 -0.90782434 -0.41769165 0.037266463 0
0.049151577 -0.017733563 0.065440431 0.89509416 -0.41767076 0.15606906 0
0.051013689 -0.01358509 0.064456932 0.92880929 -0.3375068 0.15297887 0
-0.067957379 -0.0049739522 0.065014265 -0.95844626 -0.2844772 0.021298157 0
0.053417478 -0.0050066183 0.064960301 0.96477401 -0.25259411 0.073535025 0
-0.069307342 0.0047319648 0.064700492 -0.99999768 0.0019867211 -0.00080410211 0
0.055799734 0.0050069378 0.064917825 0.97785324 -0.19343275 0.079916961 0
-0.068701655 0.015104587 0.064977407 -0.99441868 0.10039949 0.032426905 0
0.056977283 0.015418274 0.064926639 0.98526645 0.0087498147 0.17080256 0
-0.067280531 0.024748771 0.065127343 -0.97639894 0.20135003 0.078123212 0
0.055703744 0.025200533 0.065056697 0.97541726 0.20732266 0.074688368 0
-0.063578375 0.035195101 0.065009482 -0.88671225 0.46173456 0.023291513 0
0.049668934 0.039451148 0.066956148 0.885777 0.45769551 0.076902218 0
0.052315116 0.034515355 0.06496723 0.89215565 0.44851935 0.053746991 0
-0.060491331 0.040614996 0.065422222 -0.84989035 0.52549595 0.039249703 0
-0.057540853 0.045875892 0.065386385 -0.8607713 0.5007816 0.091052212 0
0.046315402 0.045220129 0.0650286 0.82933891 0.55773127 0.033657372 0
-0.052590199 0.052927043 0.064658657 -0.72181189 0.6720596 0.16529818 0
-0.04749224 0.057630043 0.06537579 -0.66101921 0.73970646 0.12604748 0
0.036533892 0.056521896 0.065216258 0.70474756 0.70942026 -0.0073360126 0
0.041356508 0.051459171 0.064359255 0.72665483 0.68688494 -0.012714366 0
-0.042661536 0.061775453 0.064765476 -0.58391398 0.78912812 0.19058172 0
-0.035058051 0.066386394 0.065034352 -0.45462725 0.86474824 0.21336509 0
-0.027496215 0.069320187 0.066184014 -0.29348868 0.9457739 0.13919766 0
0.01668345 0.068863764 0.066015601 0.30636963 0.94084829 0.14471358 0
0.024942506 0.065194882 0.064831078 0.49846032 0.86685097 0.010330278 0
0.03151688 0.061085526 0.065449566 0.60384977 0.79709256 0.0029987325 0
-0.023054017 0.071547143 0.063979924 -0.38521588 0.90656883 0.17245786 0
-0.015383176 0.073090635 0.064971104 -0.071668603 0.98449856 0.16008176 0
-0.0049317311 0.073330015 0.064712875 0.015618485 0.9936555 0.11137661 0
0.0048531494 0.072359674 0.065053187 0.21316615 0.97440934 0.071321353 0
0.01218373 0.07052961 0.063965015 0.27486297 0.95851386 0.075508855 0
-0.011255588 -0.050278351 0.071661592 -0.20814368 -0.96140808 0.1799182 0
-0.0048645204 -0.050715405 0.072548464 -0.026214696 -0.97360253 0.22673969 0
0.0037873893 -0.050456375 0.071753271 0.10462207 -0.96811742 0.22760235 0
-0.033693545 -0.041917447 0.074001819 -0.41728568 -0.85977376 0.2943837 0
-0.024981424 -0.045327749 0.075331494 -0.34524137 -0.89034575 0.29680443 0
-0.015557259 -0.048451055 0.075128511 -0.24582984 -0.94019008 0.23581819 0
-0.0051274966 -0.049162626 0.077730052 -0.017603878 -0.93904012 0.3433564 0
0.0056891982 -0.048972487 0.07656341 0.14167579 -0.94728309 0.2873722 0
0.014759532 -0.047257643 0.075022906 0.27820536 -0.92703116 0.25142583 0
0.024994459 -0.043614857 0.074992746 0.37722024 -0.90388381 0.20173971 0
0.031167442 -0.040750906 0.075030275 0.49764055 -0.86499375 0.064340428 0
-0.051419467 -0.031234132 0.073267922 -0.71518713 -0.65761065 0.23676077 0
-0.045084342 -0.035305347 0.074923791 -0.52973801 -0.79754299 0.28862229 0
-0.03797771 -0.038927522 0.076658428 -0.4288412 -0.85735154 0.28468156 0
0.036265288 -0.036065731 0.075107157 0.74053746 -0.66027826 0.12504719 0
0.040556937 -0.030930309 0.073109686 0.85122651 -0.49946642 0.16108 0
-0.060469326 -0.02055696 0.071332894 -0.85235375 -0.49564958 0.1668068 0
-0.055666525 -0.025153413 0.07540141 -0.73181534 -0.61841363 0.28637555 0
-0.049719237 -0.02962791 0.079749465 -0.58656925 -0.69613862 0.41391748 0
0.039774988 -0.02938062 0.079704821 0.82753313 -0.4325957 0.35784063 0
0.043363616 -0.025056252 0.074874103 0.86115187 -0.45528468 0.22612676 0
-0.062744476 -0.015190112 0.074790888 -0.87665719 -0.44725862 0.1772908 0
-0.059487045 -0.019548427 0.078664616 -0.72192848 -0.62807029 0.29042542 0
0.047874298 -0.015397525 0.075459026 0.8877815 -0.38223788 0.25639462 0
0.050436802 -0.011040416 0.072716326 0.91514373 -0.36546624 0.17013666 0
-0.066501401 -0.0049948026 0.075084545 -0.94373959 -0.2831046 0.17090154 0
0.049398918 -0.0087223258 0.079045884 0.86525822 -0.32661322 0.38033155 0
0.051948041 -0.0046217572 0.074866377 0.93223417 -0.25575712 0.25598377 0
-0.068381496 0.0050738496 0.07526689 -0.98875844 -0.02823603 0.14683141 0
0.054272044 0.0049250685 0.07481426 0.9543854 -0.17918561 0.23883279 0
-0.067753568 0.01495625 0.075171687 -0.97584385 0.12630005 0.17826109 0
0.054807715 0.015165829 0.07526613 0.95800203 0.020651549 0.28601697 0
-0.06556838 0.024862876 0.075314887 -0.93850708 0.26512179 0.22116721 0
0.054250069 0.025099535 0.074745998 0.9474656 0.14351958 0.28585157 0
-0.062392417 0.035318941 0.074562624 -0.90310317 0.37667546 0.20620443 0
-0.059849445 0.039570823 0.079142675 -0.89792341 0.37680411 0.22749132 0
0.048798896 0.037605368 0.075980641 0.84956795 0.44512942 0.28300905 0
0.051625561 0.033289142 0.074407987 0.86607277 0.44646332 0.22491887 0
-0.060370188 0.040430989 0.07205268 -0.85009599 0.5216248 0.072418019 0
-0.056241099 0.045416463 0.075239122 -0.76490879 0.61803168 0.18152517 0
0.045199517 0.045045648 0.075040981 0.82903582 0.49674317 0.25679931 0
-0.051390063 0.051555388 0.073795661 -0.73674852 0.64069241 0.21613604 0
-0.045796927 0.056329343 0.075713791 -0.61029792 0.74917769 0.25742811 0
-0.039321627 0.059709202 0.078848489 -0.50690866 0.81835163 0.27082154 0
0.028573735 0.059430845 0.078748271 0.49184752 0.78631884 0.37388331 0
0.035402216 0.055956911 0.075209051 0.60033488 0.74949545 0.27902421 0
0.040954441 0.051365055 0.073784709 0.7517553 0.6445514 0.13934666 0
-0.041219853 0.060780261 0.071811356 -0.50370634 0.82571399 0.25392205 0
-0.034701061 0.063806839 0.074701801 -0.48749712 0.82790011 0.27735895 0
-0.026077593 0.067947902 0.075796865 -0.37322715 0.8823548 0.28662094 0
-0.018121231 0.069462463 0.079026885 -0.21497844 0.911713 0.35009101 0
0.0068582152 0.069615714 0.078949653 0.13386318 0.94257444 0.30599687 0
0.015305978 0.067538656 0.075336583 0.39724055 0.8848902 0.2432473 0
0.025161944 0.063118979 0.07439106 0.47201684 0.83511519 0.28245819 0
0.03087054 0.060552564 0.072068393 0.55800182 0.78950149 0.25558048 0
-0.02171373 0.07059864 0.072621122 -0.27666801 0.94506097 0.17411067 0
-0.014645555 0.071249373 0.074420974 -0.098640263 0.97071052 0.21906887 0
-0.0048760986 0.071640015 0.075297885 0.0037938633 0.97407985 0.22617264 0
0.0047232965 0.070984662 0.074417569 0.13953219 0.96968544 0.20060171 0
0.010524193 0.070185088 0.073025607 0.35746661 0.93168938 0.064595863 0
-0.030933814 -0.040518459 0.081384629 -0.38681921 -0.86023301 0.3322199 0
-0.024579706 -0.042224951 0.084313922 -0.37685081 -0.86319077 0.33598381 0
-0.014693039 -0.04514464 0.085113265 -0.18304129 -0.90309179 0.3884857 0
-0.0049563576 -0.046178691 0.085115805 -0.025472799 -0.91222584 0.40889499 0
0.0047889207 -0.04578945 0.084926024 0.12232897 -0.90376776 0.41017008 0
0.014561214 -0.043588594 0.085269853 0.24550377 -0.88520515 0.39514518 0
0.023590934 -0.041436452 0.08356005 0.32043076 -0.86872256 0.37768406 0
-0.043281637 -0.032477356 0.083938986 -0.57570356 -0.71480531 0.3970122 0
-0.035225522 -0.036611132 0.085758157 -0.41690612 -0.81532252 0.40179414 0
-0.028139854 -0.038960073 0.088264383 -0.39775878 -0.82777482 0.39569777 0
0.026871016 -0.038074035 0.086655393 0.49763805 -0.72943437 0.46934196 0
0.033477176 -0.034273095 0.084276579 0.61996466 -0.61763483 0.48391223 0
-0.053313531 -0.023678798 0.084431008 -0.69499713 -0.65784889 0.29019621 0
-0.047467735 -0.027999617 0.086150967 -0.55301756 -0.75213534 0.35841888 0
0.037715122 -0.026955653 0.086382993 0.76273656 -0.45903921 0.45553929 0
0.04146149 -0.023093848 0.083146535 0.8255493 -0.40957725 0.38822025 0
-0.061477698 -0.013046488 0.083755016 -0.85903746 -0.39002529 0.33156434 0
-0.057743777 -0.017110251 0.086104468 -0.73497862 -0.51688701 0.43890128 0
0.039892171 -0.019535484 0.089637727 0.82202166 -0.38383389 0.42065656 0
0.044040624 -0.015533397 0.084978633 0.84017819 -0.36169469 0.40407613 0
-0.064338818 -0.0050646011 0.085327141 -0.88161558 -0.35450622 0.31157568 0
0.047410641 -0.0057878844 0.085816875 0.87383682 -0.28546718 0.39359593 0
0.050512202 -0.0019642161 0.081591547 0.91162115 -0.23114175 0.33988306 0
-0.066337384 0.0046175313 0.084975824 -0.9439975 0.0067665563 0.32988328 0
0.048691187 0.0044421288 0.088018298 0.87035489 -0.12266378 0.47690257 0
0.051497534 0.0056213764 0.08302217 0.89013541 -0.12766081 0.43744886 0
-0.065159783 0.014614471 0.085106179 -0.92953557 0.18882065 0.31671807 0
0.049139325 0.014957412 0.088383354 0.89046985 0.0073224744 0.45498329 0
0.051692344 0.015115225 0.083149113 0.90640104 0.033537563 0.42108497 0
-0.062722333 0.024789907 0.084508188 -0.89498198 0.28711343 0.34142795 0
-0.05962719 0.028930578 0.089028552 -0.88829142 0.28078341 0.36345431 0
0.048736159 0.025407216 0.08746504 0.87214226 0.17172754 0.45812395 0
0.051338576 0.024170443 0.082519628 0.90568906 0.13209009 0.40283939 0
-0.060843214 0.032667849 0.082327969 -0.89960331 0.30545241 0.31211016 0
-0.058271416 0.036075462 0.085953556 -0.86355823 0.33254477 0.37905294 0
0.046535727 0.035450239 0.085088417 0.80207336 0.48227432 0.35226378 0
0.050304852 0.031582218 0.081234187 0.87248337 0.25341436 0.41779646 0
-0.054138914 0.044169869 0.084202982 -0.71990508 0.59597486 0.35573956 0
-0.048941642 0.048408773 0.087152496 -0.69851726 0.60988498 0.37431785 0
0.038083367 0.04720661 0.086872935 0.66747254 0.57994848 0.46705475 0
0.041920435 0.043627925 0.083837211 0.82610536 0.40045407 0.39646754 0
-0.050150864 0.050419167 0.081148587 -0.71523428 0.64223289 0.27563894 0
-0.044534497 0.053855564 0.0842738 -0.57415265 0.74420035 0.34134227 0
-0.037182875 0.058012251 0.086031474 -0.50250995 0.78652126 0.358982 0
0.018861815 0.059704736 0.089192927 0.36995396 0.79050952 0.48808691 0
0.025926443 0.057631336 0.085842475 0.47406647 0.78205907 0.40453005 0
0.033495985 0.053298019 0.084310874 0.56405383 0.72883356 0.38813019 0
-0.032997418 0.061401665 0.083980046 -0.45567393 0.8297233 0.32236713 0
-0.025267532 0.064683683 0.08528547 -0.35988349 0.8716169 0.33281818 0
-0.015146198 0.067885026 0.085008636 -0.20123275 0.92585486 0.31984082 0
-0.0047389017 0.068590209 0.085604414 0.038365386 0.94376451 0.32838494 0
0.0052481657 0.067270868 0.084900923 0.24877942 0.8683362 0.42907003 0
0.014910427 0.063843131 0.084783167 0.33684283 0.83873385 0.42785808 0
0.022352943 0.06120291 0.082885578 0.46798834 0.79977691 0.37595716 0
-0.011838807 0.070127547 0.080475524 -0.082610458 0.94706166 0.31024143 0
-0.0055581494 0.070225641 0.080721848 0.0031096402 0.95222241 0.30538967 0
-0.021763118 -0.040531121 0.091205083 -0.32904342 -0.80520511 0.4933306 0
-0.014083723 -0.041573755 0.092479512 -0.16550221 -0.82264006 0.5439415 0
-0.0046741851 -0.04204521 0.093221098 -0.020898934 -0.86123037 0.50778496 0
0.0049414267 -0.041854002 0.092878915 0.11220006 -0.87758404 0.46610883 0
0.013463405 -0.040714797 0.0921425 0.19798893 -0.88008946 0.43155873 0
-0.040491443 -0.030630579 0.090880036 -0.46228781 -0.75259346 0.4689275 0
-0.034078483 -0.032569829 0.093351848 -0.45960376 -0.65878391 0.59562403 0
-0.025408857 -0.03611809 0.095140427 -0.36303878 -0.77157283 0.52237755 0
-0.01536258 -0.037979528 0.09722358 -0.17724815 -0.8075704 0.56250602 0
-0.0055014272 -0.038849723 0.098253824 -0.060531966 -0.82564306 0.56093621 0
0.0055393991 -0.038804483 0.098110221 0.086359091 -0.83930862 0.5367524 0
0.015248875 -0.037775297 0.09651126 0.25316325 -0.83659291 0.48581967 0
0.024750456 -0.034178261 0.094487414 0.54965931 -0.64977813 0.52503622 0
0.03134416 -0.03116608 0.09107434 0.52151841 -0.64279115 0.56110436 0
-0.051186163 -0.021672254 0.091328368 -0.6894843 -0.50222909 0.52189773 0
-0.044864483 -0.024653597 0.0947854 -0.53539634 -0.64985156 0.53948462 0
-0.036157832 -0.02820156 0.096970849 -0.36601087 -0.77412456 0.51649505 0
0.027786979 -0.027894223 0.098003976 0.58402699 -0.55642205 0.59102201 0
0.033787329 -0.024189245 0.094594993 0.68355757 -0.48597389 0.54459012 0
-0.054086909 -0.014214958 0.094006538 -0.68313879 -0.44792631 0.57678711 0
-0.048102602 -0.017160786 0.098207787 -0.61592954 -0.42722914 0.66189575 0
0.037481762 -0.015930073 0.096484236 0.77881044 -0.36892894 0.50729245 0
0.041438937 -0.013151447 0.092279918 0.81139278 -0.34790778 0.46968269 0
-0.061417181 -0.003372031 0.091938451 -0.76048857 -0.24305153 0.60214871 0
-0.056748278 -0.0056706611 0.096466251 -0.72406256 -0.29831275 0.62188655 0
0.039140705 -0.0069583515 0.098360911 0.8442359 -0.24397291 0.47722429 0
0.043058015 -0.0046031699 0.094628923 0.78589535 -0.2726866 0.55498695 0
-0.062080849 0.0052785967 0.092760563 -0.77991349 -0.06897635 0.62207484 0
-0.058294218 0.0048452159 0.097385272 -0.77322674 -0.088731259 0.62789106 0
0.044775262 0.0046811439 0.09505903 0.86292183 -0.11492647 0.49209535 0
-0.061637081 0.014495367 0.092792459 -0.83408368 0.14694637 0.53170592 0
-0.057911381 0.015299914 0.097463511 -0.75898451 0.12175517 0.63962346 0
0.045363128 0.015019584 0.095007285 0.84870589 0.037522949 0.52753228 0
-0.060743697 0.021627981 0.091805354 -0.88864136 0.229332 0.39714408 0
-0.056917984 0.025512883 0.095976256 -0.79922038 0.23588891 0.55281389 0
0.044184368 0.025204591 0.094970137 0.82381368 0.12494642 0.55291909 0
-0.053872164 0.034891848 0.094619483 -0.74472082 0.39129996 0.54062492 0
-0.048877124 0.037826061 0.098855637 -0.67091185 0.36598891 0.64492595 0
0.037402816 0.037445448 0.097846359 0.6053471 0.50508398 0.61517882 0
0.042529318 0.034361824 0.093961731 0.79321992 0.36095533 0.49042153 0
-0.051448185 0.04205963 0.091888234 -0.68865758 0.54979074 0.4727377 0
-0.045574199 0.045524936 0.095602944 -0.61429447 0.59667999 0.51634818 0
-0.038498532 0.048813604 0.098747171 -0.45946208 0.68611419 0.56404078 0
0.027559794 0.048214961 0.097776286 0.51675493 0.64055508 0.56802601 0
0.034523658 0.044408239 0.094318181 0.62602687 0.54431331 0.55840248 0
0.040363565 0.040807296 0.090486817 0.87664461 0.33814639 0.3422738 0
-0.042231202 0.05127646 0.092337899 -0.50466853 0.68786681 0.52167898 0
-0.034798726 0.054820042 0.094530791 -0.49651986 0.70740962 0.50303048 0
-0.026222346 0.058001712 0.097662054 -0.35745758 0.70649505 0.61080986 0
-0.017892897 0.059153516 0.099556312 -0.13877103 0.657462 0.74059868 0
-0.001769006 0.05983736 0.098915584 0.10893133 0.80318844 0.58568102 0
0.0058013503 0.059116609 0.098471731 0.22981468 0.79126227 0.56664729 0
0.015554654 0.057008658 0.095469929 0.37279961 0.75950462 0.53307897 0
0.024534583 0.052856512 0.09450154 0.44474277 0.71098262 0.54470879 0
0.031108864 0.051129743 0.090901762 0.52827764 0.66437465 0.52870506 0
-0.030089788 0.060087435 0.091311753 -0.49960184 0.78674799 0.36252683 0
-0.0243829 0.06200036 0.093437932 -0.40836817 0.80276716 0.43451172 0
-0.0147566 0.06406571 0.094896913 -0.10297067 0.83369648 0.54253775 0
-0.0049345456 0.063747801 0.095123269 0.14855902 0.7955054 0.58745331 0
0.0046755793 0.062349871 0.093711533 0.22479151 0.83787704 0.49742419 0
0.012110643 0.060875148 0.092000775 0.29932979 0.8325513 0.46611157 0
-0.023274463 -0.031881049 0.1022276 -0.34098628 -0.72175223 0.60233045 0
-0.015048364 -0.032902274 0.1040182 -0.16312492 -0.75217807 0.63844997 0
-0.0045004431 -0.033863947 0.10487046 -0.053419504 -0.77414942 0.63074487 0
0.0049215122 -0.033773527 0.10491804 0.040563665 -0.78449941 0.61880141 0
0.014603201 -0.033186261 0.10360213 0.32464936 -0.69914711 0.6370213 0
0.021476788 -0.03130728 0.10094457 0.51610827 -0.55960339 0.64844143 0
-0.04163358 -0.021468699 0.101347 -0.5756861 -0.47002807 0.66907334 0
-0.033952024 -0.024098331 0.10423567 -0.44477457 -0.66975665 0.59464407 0
-0.025815237 -0.026490627 0.10654689 -0.31598833 -0.66200215 0.67963552 0
-0.015618837 -0.028292688 0.10886081 -0.21140897 -0.7034874 0.67853636 0
-0.0081187012 -0.029555554 0.1093472 -0.14312062 -0.73594576 0.66174042 0
0.0084283156 -0.029756045 0.10947242 0.18665993 -0.64219183 0.74347001 0
0.01604327 -0.027025403 0.10795933 0.42542258 -0.51202112 0.74622381 0
0.024350358 -0.024009453 0.1042954 0.55260593 -0.51374477 0.65627199 0
0.030768311 -0.020871537 0.10085247 0.60426623 -0.48424822 0.63274479 0
-0.050541744 -0.010473558 0.10029694 -0.63751972 -0.44348773 0.62998992 0
-0.044229578 -0.014212222 0.10390113 -0.60649794 -0.45284599 0.65352184 0
-0.037383225 -0.016754212 0.10795105 -0.55193883 -0.46701288 0.69084185 0
0.02714812 -0.015692243 0.10776559 0.60039657 -0.40566695 0.68917203 0
0.033005979 -0.014557058 0.10307258 0.64064759 -0.40929759 0.64965075 0
-0.052260574 -0.0035041012 0.10236707 -0.68664336 -0.26854125 0.67557865 0
-0.046726033 -0.0057044495 0.10668206 -0.62993103 -0.30895922 0.71255249 0
0.02924207 -0.0090424502 0.10943443 0.62607527 -0.31226173 0.71450847 0
0.035061236 -0.0049120081 0.10541257 0.72239673 -0.24423213 0.64691091 0
0.04045086 -0.00071702898 0.10059903 0.77187794 -0.23202248 0.59192055 0
-0.053192396 0.0053886669 0.10361868 -0.75764877 -0.085051946 0.64709705 0
-0.04826729 0.004288449 0.10871492 -0.67290795 -0.19442342 0.71371877 0
0.03620844 0.0047313375 0.10688433 0.70905524 -0.097400963 0.69839376 0
0.041069105 0.0054403828 0.10162004 0.83476204 -0.10296101 0.54089868 0
-0.052917741 0.015145218 0.10394309 -0.7925542 0.089864254 0.60314363 0
-0.048773482 0.01509103 0.1087803 -0.6815362 0.11766618 0.7222625 0
0.036604881 0.015086668 0.10653976 0.69134581 0.027377183 0.72200519 0
0.040945452 0.014968529 0.10147949 0.8036111 0.086685993 0.58880788 0
-0.052318815 0.023945328 0.10220012 -0.71232104 0.2623812 0.65096456 0
-0.046736721 0.025593651 0.10717054 -0.64317459 0.30319211 0.70313656 0
0.028825594 0.02840697 0.10953686 0.52961749 0.39495695 0.75067598 0
0.035455942 0.025111977 0.10569365 0.65922189 0.25482708 0.70745289 0
0.040516458 0.023450837 0.10058098 0.80689323 0.11310795 0.57976717 0
-0.050559431 0.031321548 0.10057607 -0.67770708 0.33605051 0.6540513 0
-0.044624168 0.034584329 0.10457134 -0.61687827 0.36083984 0.69946826 0
-0.03811406 0.037061848 0.1085811 -0.54239219 0.35077375 0.76339275 0
0.026169047 0.035603732 0.1077629 0.54131192 0.35882425 0.7604121 0
0.034001581 0.034149066 0.10280182 0.54656088 0.40579882 0.73252881 0
-0.042518891 0.042899605 0.10184433 -0.53350472 0.501791 0.680866 0
-0.034941871 0.044547185 0.10566385 -0.43059301 0.57839149 0.69285858 0
-0.025635207 0.047255967 0.10787936 -0.26093072 0.58725822 0.76618725 0
-0.015765866 0.048762243 0.10900362 -0.13599788 0.58710033 0.79800862 0
-0.0049181962 0.049540777 0.10959017 -0.02039483 0.59561288 0.80301267 0
0.0059731998 0.048907775 0.1088905 0.23855749 0.67336905 0.6997602 0
0.015919456 0.046732124 0.10743962 0.28460306 0.64990127 0.70471948 0
0.024146901 0.044292331 0.10421066 0.54399204 0.5212723 0.65753162 0
0.030739605 0.041163106 0.10094182 0.58333343 0.49329525 0.64527667 0
-0.031888258 0.051386781 0.10117254 -0.44519082 0.63940227 0.62687308 0
-0.024744209 0.05321943 0.10310607 -0.26737329 0.65238047 0.70916241 0
-0.01482058 0.054520067 0.1042631 -0.13398023 0.65710217 0.74179918 0
-0.0048432918 0.055010762 0.10486813 0.0086153913 0.69157249 0.72225571 0
0.0049380376 0.054018214 0.10435637 0.22059615 0.68580997 0.69354314 0
0.014282112 0.052272502 0.10269169 0.29677209 0.72008896 0.62721473 0
0.021079851 0.050266664 0.10057842 0.43263328 0.70872211 0.55726236 0
-0.0071434518 0.060027953 0.10014491 0.1309783 0.71607625 0.68562347 0
-0.030294914 -0.020212868 0.11038317 -0.30812258 -0.63668662 0.70688796 0
-0.023613445 -0.021913048 0.11167923 -0.30107075 -0.60652417 0.73585653 0
-0.01471182 -0.023688542 0.11353555 -0.22959693 -0.63876778 0.73434395 0
-0.0049816649 -0.024984077 0.11408642 -0.025639813 -0.62699836 0.77859855 0
0.0049252319 -0.024983009 0.11385325 0.1025225 -0.59590423 0.79648435 0
0.013074866 -0.023158697 0.11210631 0.40721279 -0.48730192 0.7724731 0
0.020189937 -0.020369114 0.11015721 0.40687034 -0.4991425 0.76505774 0
-0.033698451 -0.013839378 0.11220162 -0.42461079 -0.42812496 0.79775596 0
-0.025035236 -0.015302931 0.11534853 -0.34334546 -0.45279923 0.82285285 0
-0.015634701 -0.016234715 0.11841597 -0.23785448 -0.41417572 0.87856907 0
-0.0057542166 -0.017950863 0.11883976 0.033289731 -0.50349748 0.86335516 0
0.005447058 -0.017445892 0.11858871 0.18349846 -0.48065689 0.85749471 0
0.01482458 -0.015497881 0.11559226 0.42522076 -0.40974009 0.80703187 0
0.02286838 -0.013961463 0.11196192 0.48012415 -0.38709527 0.78717101 0
-0.042009879 -0.0038534808 0.11114267 -0.5640738 -0.24680237 0.78797799 0
-0.035279028 -0.0048129125 0.11513062 -0.45406014 -0.276723 0.84690833 0
-0.02702794 -0.0062190779 0.11866568 -0.37670025 -0.29472363 0.87819982 0
0.016779833 -0.0057821814 0.1184549 0.46981311 -0.23716933 0.85030949 0
0.024832068 -0.0046572681 0.11383723 0.54420012 -0.18170097 0.81904268 0
