# .PCD v0.7 - Point Cloud Data file format
VERSION 0.7
FIELDS x y z normal_x normal_y normal_z curvature
SIZE 4 4 4 4 4 4 4
TYPE F F F F F F F
COUNT 1 1 1 1 1 1 1
WIDTH 236
HEIGHT 1
VIEWPOINT 0 0 0 1 0 0 0
POINTS 236
DATA ascii
-0.016144933 -0.012863864 -1.0674435e-05 0.021070886 -0.0044352398 -0.99976814 0
-0.021893069 -0.041512523 0.0087589994 -0.43286657 -0.62426847 -0.65031946 0
-0.014702884 -0.04309636 0.0071364301 -0.20529129 -0.65009302 -0.73159719 0
-0.0051199514 -0.043536548 0.0065693478 0.051135723 -0.67315251 -0.73773354 0
0.0040767859 -0.042415485 0.0078233201 0.32852653 -0.63975608 -0.69482559 0
0.010540115 -0.040383544 0.0097921351 0.53479147 -0.62219822 -0.57172334 0
-0.030856442 -0.031673085 0.0089736478 -0.67899024 -0.3234418 -0.65905815 0
-0.024770133 -0.03490188 0.0061022458 -0.49148223 -0.40986186 -0.76841301 0
-0.015145797 -0.035011534 0.0021885459 -0.1712475 -0.37303519 -0.91187662 0
-0.0050519099 -0.035329241 0.0018764457 0.080234051 -0.27534711 -0.95799088 0
0.005106302 -0.035296973 0.0037537732 0.28510132 -0.37080148 -0.88386846 0
0.01320645 -0.034059275 0.0074226391 0.59264809 -0.42527679 -0.68403792 0
-0.032024421 -0.024614332 0.0079610879 -0.71039093 -0.14747706 -0.68818259 0
-0.025290059 -0.025033444 0.0031154994 -0.46148467 -0.15025827 -0.87433082 0
-0.014873278 -0.024954155 0.00044294467 -0.0049674842 0.019195145 -0.99980342 0
-0.0049628792 -0.02505246 0.0013232587 0.091369376 0.012891558 -0.99573362 0
0.0051087774 -0.024878748 0.0016844448 0.089545868 -0.06388513 -0.99393165 0
0.014999751 -0.025110979 0.0055724643 0.58388305 -0.16802329 -0.79425997 0
0.020313555 -0.021492148 0.0096941032 0.74206352 -0.12060381 -0.65939093 0
-0.032071654 -0.015370783 0.007617041 -0.72996622 0.091330215 -0.67735368 0
-0.025317354 -0.014864465 0.0025603429 -0.45507824 0.060068514 -0.88842303 0
-0.014955633 -0.015001187 0.00048750034 0.067445338 -0.051884897 -0.99637288 0
-0.0048999167 -0.015014824 0.0010544144 -0.020168114 -0.072900265 -0.99713534 0
0.0049941433 -0.014944189 0.0009377551 0.084705204 -0.055745929 -0.99484545 0
0.015308638 -0.014868457 0.0050759059 0.59607071 0.065324262 -0.80027026 0
0.020425206 -0.016070459 0.0095422706 0.76429999 0.044282321 -0.64333862 0
-0.031016741 -0.0075887125 0.0087139579 -0.72725534 0.31875545 -0.60786068 0
-0.025134783 -0.0050569102 0.0049404241 -0.53258461 0.3546834 -0.7684747 0
-0.015008908 -0.0049526757 0.0010140727 -0.14267682 0.2078898 -0.96769071 0
-0.0050457106 -0.0051129828 0.00048605163 0.017637335 0.10131761 -0.99469775 0
0.0051410268 -0.0050327783 0.0018039884 0.268067 0.24868895 -0.93074906 0
0.013963969 -0.0053949188 0.0063720271 0.59877932 0.3399832 -0.72517216 0
-0.022859531 0.0023612657 0.0080522578 -0.46749955 0.59664506 -0.65227205 0
-0.014662847 0.0046918727 0.0059199613 -0.25726408 0.63453209 -0.72882378 0
-0.0050016744 0.0056383279 0.0053824196 0.042541701 0.64557922 -0.7625075 0
0.0045509445 0.004077706 0.006427289 0.34523812 0.60074133 -0.72105509 0
0.01169603 0.0015199959 0.008655889 0.54345798 0.54848117 -0.63546979 0
-0.010047153 0.010020964 0.0099772317 -0.12462371 0.76201445 -0.63545495 0
-0.0063912999 0.010115461 0.0097640492 -0.028587362 0.79708606 -0.60318863 0
-0.013496307 -0.051131312 0.017603014 -0.18864211 -0.89501983 -0.4041703 0
-0.0051219203 -0.051364768 0.017219752 0.070638664 -0.9019618 -0.4259989 0
0.0017902115 -0.050726689 0.018638108 0.30483189 -0.88712955 -0.3465237 0
-0.031019947 -0.04124644 0.018376715 -0.70788121 -0.61986923 -0.3386243 0
-0.024788538 -0.044358943 0.015067579 -0.51539373 -0.72344536 -0.45934319 0
-0.015776727 -0.048037618 0.01331625 -0.26117551 -0.81132525 -0.52300918 0
-0.0047972016 -0.048464313 0.012209728 0.079598181 -0.82635581 -0.55749458 0
0.0055979942 -0.046943329 0.014520342 0.37661409 -0.7949453 -0.47562981 0
0.013269892 -0.042918455 0.016142666 0.5903222 -0.65279478 -0.47474068 0
-0.033657294 -0.034940135 0.015479439 -0.78063619 -0.42625463 -0.45707136 0
-0.028669523 -0.038339671 0.011274461 -0.62177682 -0.53911805 -0.56810689 0
0.017139157 -0.036223996 0.013690293 0.70284051 -0.49026495 -0.51541793 0
0.021648735 -0.032955557 0.017284038 0.79096472 -0.41405013 -0.45048559 0
-0.03691525 -0.025085852 0.014948853 -0.86804271 -0.16846226 -0.46703574 0
0.019522728 -0.028384263 0.010667449 0.76205719 -0.26070809 -0.59270579 0
0.02315845 -0.025134606 0.015020526 0.84372431 -0.19354014 -0.50067103 0
-0.036967844 -0.015028083 0.014821882 -0.87438279 0.12865818 -0.4678694 0
0.02374774 -0.015199066 0.014908315 0.87031209 0.07207337 -0.48719838 0
-0.034161981 -0.0049511045 0.015069419 -0.79774898 0.36884901 -0.47701874 0
-0.029347504 -0.0012719113 0.01076732 -0.67089617 0.44034401 -0.59665358 0
0.018349241 -0.0029709451 0.01246093 0.71280199 0.45745578 -0.53164613 0
0.022016842 -0.0058785984 0.016108872 0.83035797 0.36614478 -0.42005214 0
-0.031417027 0.0020809863 0.017307239 -0.71517402 0.56093872 -0.41698173 0
-0.025496563 0.00579332 0.014537589 -0.55560553 0.67514169 -0.48526928 0
-0.017091228 0.0089238463 0.011324562 -0.34391716 0.75014496 -0.56480396 0
-0.0002001613 0.0098991813 0.010065453 0.16143778 0.7192598 -0.67572427 0
0.0071846242 0.008181381 0.012212502 0.43990499 0.72089589 -0.53553033 0
0.014454453 0.0045204931 0.015579853 0.64330137 0.62719977 -0.43907148 0
0.020291023 0.00032363104 0.01963615 0.78632808 0.54253978 -0.29553127 0
-0.021524915 0.010908759 0.01816689 -0.44227976 0.80425346 -0.39694464 0
-0.014571032 0.012176161 0.015631948 -0.24229094 0.86591429 -0.43759301 0
-0.0049772197 0.013193619 0.015015176 0.0080348235 0.8868807 -0.46192864 0
0.0039461846 0.012181266 0.016263077 0.33803469 0.83500564 -0.4341636 0
0.010615216 0.010319037 0.019414311 0.5376209 0.7683109 -0.3473646 0
-0.021707218 -0.050809413 0.026415193 -0.42063633 -0.88962191 -0.17787036 0
-0.015145255 -0.052935269 0.02519712 -0.27519667 -0.94205743 -0.19181925 0
-0.005100809 -0.053889699 0.025000364 0.086080968 -0.97238952 -0.21690714 0
0.0042221141 -0.051778052 0.025501754 0.35588533 -0.91417485 -0.19398433 0
-0.032276765 -0.042509977 0.025648655 -0.72092909 -0.66973394 -0.17809471 0
-0.026288074 -0.047432229 0.024396196 -0.56771952 -0.79548883 -0.21187782 0
0.0085368771 -0.049200326 0.022554174 0.44480681 -0.86004418 -0.24994187 0
0.015370005 -0.045289624 0.024917334 0.61603445 -0.76041359 -0.20560338 0
0.020694599 -0.040881824 0.026966652 0.75407362 -0.63990903 -0.14795049 0
-0.040306818 -0.031037891 0.028368939 -0.92907214 -0.34799629 -0.12539391 0
-0.037306879 -0.035367157 0.024791533 -0.8541348 -0.47203904 -0.21824975 0
0.019516807 -0.039467867 0.020717571 0.73603743 -0.53344893 -0.41675064 0
0.023645043 -0.035116285 0.025016883 0.86483729 -0.4496198 -0.22337958 0
-0.041035227 -0.024416644 0.02603825 -0.97275358 -0.09750165 -0.21034218 0
-0.039472308 -0.026649905 0.021460187 -0.93566042 -0.16760719 -0.31055978 0
0.027237911 -0.02510928 0.024922546 0.95668942 -0.19390474 -0.21713211 0
-0.04103953 -0.015340221 0.025668707 -0.96677929 0.076241709 -0.24397734 0
-0.039597489 -0.013330777 0.021280967 -0.94015086 0.14999034 -0.30597267 0
0.027680159 -0.014887029 0.024961228 0.96830964 0.11568831 -0.22134273 0
-0.040583175 -0.008061232 0.027943347 -0.94334447 0.24316488 -0.22576998 0
-0.038091321 -0.0041580009 0.024360055 -0.88665634 0.36515418 -0.28373054 0
0.024697896 -0.0047457321 0.025103914 0.88466859 0.42067987 -0.20097248 0
-0.033394214 0.0040918668 0.025401754 -0.7460143 0.61697477 -0.25060904 0
-0.028209686 0.0086389268 0.023612607 -0.59793919 0.75019354 -0.28227365 0
0.016712887 0.0067589306 0.024567235 0.69876879 0.67845732 -0.22675481 0
0.0212618 0.0017854435 0.026007062 0.81711763 0.54588634 -0.18527532 0
-0.023699744 0.012210978 0.025729544 -0.46251658 0.86257565 -0.20504095 0
-0.015155323 0.015465587 0.024902768 -0.27122799 0.93543059 -0.22672689 0
-0.0049991254 0.016892795 0.025071908 0.012871059 0.97408628 -0.2258101 0
0.0052060462 0.014815561 0.024896428 0.36201361 0.90875852 -0.20761555 0
0.011863898 0.011449466 0.025737846 0.60045594 0.77664864 -0.19044545 0
-0.022270642 -0.051241893 0.034896523 -0.46514702 -0.88493192 0.023103433 0
-0.01496267 -0.053888351 0.034952607 -0.24883135 -0.968337 0.020158807 0
-0.0050120419 -0.054783791 0.035261728 0.087468341 -0.99480939 0.051995285 0
0.0050313133 -0.05224828 0.034910787 0.37965772 -0.92390555 0.047523305 0
0.010108454 -0.050027534 0.035820387 0.45595199 -0.88988155 -0.014788499 0
-0.032898318 -0.042958558 0.034804698 -0.73030096 -0.68279934 0.021108711 0
-0.02726955 -0.047938522 0.034926474 -0.60408992 -0.79661328 0.021972476 0
0.0095763691 -0.049804542 0.039359201 0.43401617 -0.87213463 0.22585651 0
0.015242824 -0.046237025 0.035068348 0.61351311 -0.78576601 0.078570686 0
0.020948347 -0.041134931 0.03473036 0.77258569 -0.63009763 0.078028113 0
-0.04049309 -0.031191174 0.034767061 -0.93214339 -0.36134082 0.023271579 0
-0.037785228 -0.036300976 0.035046585 -0.85744172 -0.51328814 0.036455877 0
0.024327245 -0.035163272 0.035093538 0.90036541 -0.42470339 0.094705679 0
-0.042075429 -0.024802787 0.035123259 -0.98642069 -0.16323958 -0.018081276 0
0.027714582 -0.025128258 0.035116654 0.9737438 -0.19539349 0.11680929 0
-0.042493325 -0.015140993 0.035154294 -0.99682605 0.072862126 -0.032075975 0
0.028242912 -0.014980486 0.035105802 0.99072915 0.088616677 0.10297012 0
-0.04098285 -0.0070412871 0.035071857 -0.95268309 0.30339167 -0.018666467 0
-0.038890332 -0.0021630593 0.03488487 -0.87861997 0.47719035 0.01778245 0
0.02556265 -0.0048862989 0.035244014 0.91156536 0.4065392 0.06143681 0
-0.034134451 0.0049440311 0.035043254 -0.76651359 0.6413812 0.032970764 0
-0.029470654 0.0096116439 0.035734378 -0.63988388 0.76664746 0.052918088 0
0.01758438 0.0071992595 0.035234164 0.73405266 0.67505479 0.073944569 0
0.02148773 0.002302445 0.034815118 0.82675052 0.55938047 0.059808638 0
-0.024703331 0.012676504 0.034985073 -0.48323098 0.87530661 0.018059835 0
-0.015180671 0.016607106 0.034779198 -0.26990351 0.96281493 0.01180896 0
-0.0048637921 0.017965341 0.035163663 0.029401407 0.99926037 0.024786578 0
0.0050598225 0.01567501 0.035082493 0.39027402 0.91872859 0.060199223 0
0.012563538 0.011664173 0.03466792 0.55624932 0.82950032 0.050159536 0
-0.021738214 -0.05068174 0.042199131 -0.40886822 -0.88700682 0.21458268 0
-0.014694375 -0.052200347 0.044695504 -0.2179272 -0.91891795 0.32878169 0
-0.0048797703 -0.052695367 0.045082618 0.099585779 -0.93400973 0.34308672 0
0.0029639706 -0.051385146 0.043677151 0.33260205 -0.8897438 0.31262106 0
-0.031975538 -0.041967493 0.044309098 -0.68428993 -0.67574704 0.27406815 0
-0.0258404 -0.046782073 0.045433328 -0.55545855 -0.76596308 0.32367626 0
-0.018483104 -0.049412277 0.04890988 -0.27540454 -0.84225434 0.46342212 0
0.0070603187 -0.048310395 0.046611618 0.42919469 -0.81636035 0.38645524 0
0.01463787 -0.043991797 0.044620845 0.61676383 -0.70771438 0.34459069 0
0.020293586 -0.040289462 0.040692572 0.72968578 -0.60402912 0.32047999 0
-0.040187303 -0.030542973 0.041120004 -0.89797652 -0.39802963 0.18764465 0
-0.036606319 -0.035082724 0.045297187 -0.834171 -0.46839184 0.29114905 0
0.018710988 -0.037912894 0.047599588 0.75698477 -0.51332569 0.40431499 0
0.022294717 -0.034160979 0.044317339 0.8418051 -0.4040809 0.35788679 0
-0.041190233 -0.024225028 0.043875623 -0.95050079 -0.17270446 0.25830495 0
-0.039170343 -0.027189963 0.047872659 -0.89195698 -0.27461803 0.35916242 0
0.025123088 -0.024938226 0.044892091 0.90767819 -0.18748719 0.37545821 0
-0.041485202 -0.015325617 0.044309493 -0.96218401 0.072331071 0.26262161 0
-0.0397017 -0.013842405 0.049181432 -0.91963303 0.1015107 0.37943465 0
0.025842473 -0.015333803 0.045132183 0.93190444 0.047495291 0.35958067 0
-0.040685147 -0.0080586961 0.042626161 -0.92606223 0.30046695 0.2283165 0
-0.037960518 -0.0042065303 0.045784626 -0.84869957 0.42818764 0.31042612 0
0.019900093 -0.00045364618 0.049455747 0.82036018 0.44517606 0.35892549 0
0.023672707 -0.0049626548 0.04497882 0.88339752 0.35286307 0.30837718 0
-0.033198547 0.003710282 0.044450562 -0.73027289 0.61886424 0.28932434 0
-0.027768541 0.0082339207 0.046306249 -0.58717775 0.73808032 0.33235478 0
0.0096162884 0.0098802792 0.049713973 0.42951992 0.78175271 0.45207891 0
0.016148627 0.0061052097 0.045375764 0.68675309 0.67102462 0.2794567 0
0.020868108 0.0015000165 0.043228142 0.80192876 0.56292194 0.20007288 0
-0.023248244 0.011927087 0.044069346 -0.44510636 0.84936529 0.28365278 0
-0.015072121 0.014763891 0.04530229 -0.27138457 0.90448105 0.32903582 0
-0.0047103348 0.016170669 0.045039158 0.069612734 0.9393549 0.33580717 0
0.005056045 0.013719593 0.044798769 0.36361715 0.88477707 0.29146525 0
0.011431589 0.010996994 0.043397073 0.54560572 0.80460465 0.23436219 0
-0.011773751 -0.050266013 0.050540134 -0.099901207 -0.84519517 0.52503783 0
-0.0062004877 -0.050376672 0.050687376 0.032874849 -0.87436402 0.48415571 0
-0.030338835 -0.040349364 0.050388187 -0.6103965 -0.59543908 0.52236825 0
-0.024152745 -0.043048516 0.053305119 -0.45703274 -0.68311846 0.56962281 0
-0.015287849 -0.045488231 0.055435445 -0.24032928 -0.73742205 0.63122946 0
-0.0046553733 -0.046793379 0.055662751 0.056379545 -0.79190981 0.60802972 0
0.0047885505 -0.044341117 0.05490515 0.39227581 -0.72990477 0.55978441 0
0.011993804 -0.041948438 0.051927842 0.55075043 -0.67008805 0.4976503 0
-0.033063769 -0.033870656 0.053402293 -0.69722807 -0.47187561 0.53963536 0
-0.026725421 -0.036543697 0.05760061 -0.5363571 -0.52089232 0.66407245 0
-0.019280721 -0.039818704 0.0596922 -0.34699118 -0.59754318 0.72286886 0
0.0083207916 -0.038528588 0.058990281 0.46784258 -0.57122487 0.67440748 0
0.015122149 -0.035070378 0.055263106 0.67270875 -0.46109387 0.57866687 0
0.020485457 -0.031250868 0.050955828 0.81661046 -0.32239234 0.47875947 0
-0.035471369 -0.025063071 0.05513924 -0.78949004 -0.18213665 0.58611572 0
-0.029873133 -0.02970691 0.059758022 -0.62919778 -0.29103917 0.72069854 0
0.017941857 -0.025570028 0.057368763 0.76279497 -0.20911098 0.6118958 0
0.021451445 -0.024440199 0.052570157 0.85156095 -0.17912015 0.49270666 0
-0.035956386 -0.014896842 0.055318002 -0.78959054 0.098620564 0.60565728 0
0.018346509 -0.015002261 0.058113344 0.74890488 0.073011681 0.65864319 0
0.021841437 -0.015368033 0.053203348 0.85063201 0.035858564 0.52453715 0
-0.033630762 -0.005407183 0.05424457 -0.70959711 0.39979276 0.58020478 0
-0.028031891 -0.00276131 0.058316417 -0.5769878 0.44327104 0.68599999 0
0.016629132 -0.0040650158 0.056292009 0.69963002 0.35851005 0.61805212 0
0.021214411 -0.0068354714 0.051804453 0.81908154 0.27281961 0.50465328 0
-0.031359382 0.0014816074 0.051504038 -0.70040029 0.51638204 0.49273625 0
-0.024660002 0.0046765059 0.054777209 -0.49338332 0.6365667 0.59275264 0
-0.015817186 0.0075365026 0.057134401 -0.25412077 0.72988462 0.63457942 0
-0.0047868467 0.008207703 0.058052421 0.065966949 0.73042876 0.67979568 0
0.0058542015 0.006514404 0.0565839 0.35847941 0.68119454 0.63833112 0
0.013256786 0.0037189724 0.053668827 0.58751398 0.5988754 0.54422003 0
-0.020665061 0.010306311 0.050705224 -0.35338163 0.82755411 0.43620604 0
-0.014252109 0.011551545 0.052421447 -0.22960182 0.82201022 0.52113545 0
-0.0051373229 0.012048737 0.053185176 0.042168859 0.82878828 0.55797118 0
0.0031249102 0.011290777 0.052125026 0.26561597 0.82613623 0.49693772 0
-0.012931913 -0.0412351 0.060729373 -0.19663818 -0.58722603 0.78517455 0
-0.0051764189 -0.04162214 0.061290305 0.017289691 -0.6134575 0.78953844 0
0.0017762415 -0.040765751 0.060802367 0.29074046 -0.65372026 0.69865566 0
-0.023210039 -0.033274733 0.061849114 -0.39505011 -0.42028287 0.81688297 0
-0.015192698 -0.035255123 0.063737914 -0.22559837 -0.46436098 0.85643107 0
-0.0051326132 -0.035051435 0.065343805 0.00074554584 -0.47072744 0.88227844 0
0.0047681909 -0.034796834 0.063406952 0.35963148 -0.46323302 0.80998784 0
0.011490358 -0.031825088 0.061174773 0.58297569 -0.36683428 0.72496349 0
-0.030792428 -0.023576217 0.060707506 -0.61304975 -0.13013056 0.77925348 0
-0.024903035 -0.024924211 0.064180411 -0.47658831 -0.22487123 0.84988034 0
-0.015250023 -0.025479283 0.068021342 -0.26047108 -0.31101859 0.9140144 0
-0.004587498 -0.026599189 0.069043554 0.047759388 -0.31589383 0.94759166 0
0.0051650531 -0.025092842 0.067130648 0.39288715 -0.21908039 0.8931089 0
0.013108498 -0.024567645 0.062347479 0.60927612 -0.17312755 0.77382779 0
-0.030876806 -0.015489512 0.060816061 -0.62245488 0.092785388 0.77713627 0
-0.025085585 -0.014904956 0.064738937 -0.52449167 0.11872447 0.84309727 0
-0.016603595 -0.014590016 0.068881445 -0.32486451 0.14749578 0.93418849 0
-0.0034558016 -0.010699788 0.069756605 0.12697476 0.29666206 0.94650364 0
0.0052775377 -0.01487329 0.067618519 0.44220796 0.11902248 0.88898015 0
0.013367641 -0.015077459 0.062580854 0.60536736 0.093398303 0.79044741 0
-0.024025174 -0.0058780536 0.062719963 -0.47683582 0.36710536 0.79866213 0
-0.015095137 -0.0048327665 0.066177227 -0.27669036 0.41050372 0.86886662 0
-0.0048316722 -0.0049488358 0.067562819 0.077084869 0.42387599 0.90243399 0
0.0050390847 -0.0047528129 0.064801209 0.37621278 0.37630445 0.84667516 0
0.012174002 -0.006243038 0.061453428 0.54114074 0.28223187 0.79215646 0
-0.021166384 0.0010293146 0.060643557 -0.3765825 0.48891371 0.78686029 0
-0.014181486 0.0028370176 0.061977524 -0.19916135 0.57326251 0.79479861 0
-0.0050546792 0.0031381117 0.062590852 0.041833322 0.61432958 0.78793979 0
0.0037781312 0.0021140925 0.061626039 0.28760374 0.5442667 0.78807223 0
-0.0116902 -0.021173336 0.070279017 -0.17514403 -0.1480225 0.9733519 0
-0.0056943246 -0.021997273 0.070349 0.037083551 -0.18161243 0.98267072 0
-0.011998615 -0.016128773 0.070294537 -0.13620409 0.041033942 0.98983055 0
-0.0052415943 -0.015486266 0.070548519 0.04474875 0.058741339 0.99726981 0
0.0003040864 -0.018649006 0.070080429 0.24435341 -0.012369358 0.96960735 0
