# .PCD v0.7 - Point Cloud Data file format
VERSION 0.7
FIELDS x y z normal_x normal_y normal_z curvature
SIZE 4 4 4 4 4 4 4
TYPE F F F F F F F
COUNT 1 1 1 1 1 1 1
WIDTH 100
HEIGHT 1
VIEWPOINT 0 0 0 1 0 0 0
POINTS 100
DATA ascii
-0.032942977 -0.0023336823 -5.0768718e-05 -0.016197952 -0.00092844793 -0.99986833 0
-0.025593827 -0.0049425722 -9.513837e-05 0.011712354 0.0021239393 -0.99992919 0
-0.04645158 -0.022910804 0.0092644906 0.034540858 -0.24659984 -0.96850163 0
-0.044539735 -0.016008012 0.0090766251 0.015916707 0.14995772 -0.98856425 0
-0.01420406 -0.011480672 0.0056154868 -0.2973043 -0.93727136 -0.18202323 0
-0.0048783319 -0.013918716 0.0056700166 -0.086303003 -0.78667986 -0.6112991 0
0.0015360332 -0.012973608 0.0073653562 0.84998304 -0.4057638 -0.33598295 0
-0.042389844 -0.0019887751 0.0052088164 -0.55697203 -0.79726022 -0.23271926 0
-0.034924209 -0.0039138831 0.0044887369 -0.22300307 -0.9428162 -0.24772418 0
-0.024754152 -0.0058931471 0.0035166799 -0.28062388 -0.83182579 -0.47886953 0
-0.015581227 -0.0057394132 0.0018219055 0.11180131 -0.19071323 -0.97525841 0
-0.0049743941 -0.0050101178 0.0033613883 0.21031991 -0.016749233 -0.97748917 0
0.0035465462 -0.0047945543 0.0065736929 0.73606151 -0.23362261 -0.63532192 0
-0.043417919 0.0048191645 0.0042746877 -0.86816299 0.24608198 -0.43097192 0
-0.034926768 0.0051072156 0.00035023692 0.0019248237 0.061334971 -0.99811536 0
-0.024926331 0.0049511576 0.0005224981 0.031095352 0.049141947 -0.99830765 0
-0.014937591 0.0050352016 0.0012600792 0.14540298 0.010871172 -0.98931277 0
-0.0050172135 0.0050812936 0.0032296048 0.20830967 -0.01647578 -0.97792411 0
0.0052852789 0.0049885074 0.0060899039 0.50586796 -0.15548314 -0.84848249 0
0.010496551 0.0088237645 0.0087157404 0.88143361 -0.41017103 -0.23416777 0
-0.041145232 0.013189899 0.0060641556 -0.91849113 0.34273487 -0.19724812 0
-0.03600591 0.015669797 0.0022146229 -0.37308219 0.19635996 -0.90678138 0
-0.025006352 0.015113713 0.0010512455 0.020102115 0.057990503 -0.99811471 0
-0.015021133 0.014932376 0.0013828034 0.066712074 -0.0068042483 -0.99774909 0
-0.0050845142 0.015358541 0.0024726156 0.13900606 -0.18140824 -0.97353399 0
0.0050549032 0.014968489 0.0040742671 0.15085925 -0.17922223 -0.97217333 0
0.012515737 0.015716814 0.0070104464 0.82556063 -0.046777952 -0.56237113 0
-0.035155304 0.024849953 0.0041413684 -0.74840462 0.19377579 -0.63430399 0
-0.024853123 0.024973296 0.00083636446 -0.047623474 -0.092005722 -0.99461901 0
-0.014277396 0.026205683 0.0023144858 0.22012337 0.42199689 -0.8794682 0
-0.0053338967 0.024817541 0.003929405 0.37324411 0.79847234 -0.47236699 0
0.0045671244 0.021828271 0.0058143358 0.36061484 0.91001022 -0.20454425 0
0.010850818 0.020338235 0.0079181753 0.35944867 0.92369097 -0.13263348 0
-0.033460315 0.033678126 0.0051006507 -0.69916922 0.59672624 -0.39380217 0
-0.025222614 0.033010934 0.0040200208 0.35628936 0.89199138 -0.27822554 0
-0.017414462 0.030756786 0.0046685948 0.28050068 0.95824713 -0.055513553 0
-0.050309259 -0.030312721 0.011958114 -0.2679587 -0.96339649 0.0080829645 0
-0.049663097 -0.030166682 0.011731332 0.29151505 -0.95649791 -0.011429009 0
-0.050378717 -0.027691647 0.011518919 -0.99564779 0.034941554 0.086396828 0
-0.047248926 -0.024539787 0.012107443 0.21555482 -0.46462664 0.85887033 0
-0.043997977 -0.014892613 0.012516882 -0.043908145 0.11831195 0.99200517 0
-0.039777 -0.010773271 0.012423961 0.96274203 -0.26788408 0.036957979 0
-0.020174326 -0.010071817 0.019025242 -0.37714565 -0.92367697 -0.067690171 0
-0.014704359 -0.011437184 0.015057556 -0.13404675 -0.98863721 -0.068028554 0
-0.0045479406 -0.013805432 0.015135911 -0.65695024 -0.73995048 -0.14453277 0
0.0013575543 -0.013141814 0.014957437 0.90943772 -0.40238363 0.10493055 0
-0.042650327 -0.0039110458 0.014464332 -0.74085754 -0.67101854 0.029398162 0
-0.03567607 -0.0050766058 0.014829122 -0.1147885 -0.99328214 -0.014633839 0
-0.025003286 -0.0079367673 0.014924388 -0.34867942 -0.93517882 -0.062155776 0
-0.018615196 -0.009851017 0.012169926 -0.26773575 -0.96272612 -0.038418286 0
-0.0066560418 -0.0091563771 0.014941235 -0.012235112 -0.9996047 -0.025311261 0
0.0045387992 -0.0049661417 0.014942404 0.92998213 -0.35280907 0.10324224 0
-0.045048416 0.0050056046 0.015106831 -0.96576554 0.25937939 0.0043901573 0
0.0081208162 0.0042815865 0.015249756 0.91979516 -0.38153926 0.091677055 0
0.010667252 0.0091748517 0.013927135 0.77140403 -0.63123846 0.080460362 0
-0.041634694 0.014558583 0.015234898 -0.93815106 0.34528637 -0.02549362 0
-0.039752029 0.019359237 0.014143299 -0.93482369 0.35244355 -0.043452833 0
0.0086794179 0.019527551 0.016656028 0.33852994 0.93597203 0.096714705 0
0.012914378 0.015491316 0.014942974 0.98696452 0.10384067 0.12295549 0
-0.03796757 0.024803836 0.015113084 -0.97159392 0.23018228 -0.054967623 0
-0.014198975 0.027918596 0.01503621 0.42141888 0.90576005 0.044775892 0
-0.0047852863 0.024574472 0.015179278 0.30988076 0.94847983 0.066029906 0
0.004098163 0.021350019 0.014556835 0.31620324 0.94547242 0.078085728 0
0.01108489 0.02032353 0.010734961 0.24205175 0.87007904 0.42938718 0
-0.034506083 0.034235176 0.015250507 -0.56522173 0.82308567 -0.055266917 0
-0.025199417 0.032508068 0.01498983 0.38707569 0.92143232 0.033689979 0
-0.019164491 0.030251844 0.01420313 0.3270362 0.94318014 0.058809731 0
-0.020409625 -0.010169058 0.022147421 -0.39847925 -0.91717547 -0.0018490086 0
-0.014692089 -0.011961913 0.023214586 -0.31739774 -0.89085937 0.32500514 0
-0.0047693835 -0.01433193 0.023775527 0.022398023 -0.6711235 0.74100709 0
0.0007598378 -0.012131162 0.022235306 0.90697718 -0.36216494 0.21500902 0
-0.042359322 -0.0012123258 0.021002233 -0.35642231 -0.45061943 0.81847739 0
-0.034323186 -0.0035138675 0.022460282 -0.37972182 -0.50612074 0.7743727 0
-0.024719676 -0.0057554687 0.024094475 -0.27731708 -0.48877749 0.82715887 0
-0.014992964 -0.0052078934 0.025792891 -0.03793117 -0.055550195 0.99773508 0
-0.0051090922 -0.0050499318 0.025997365 -0.0026689144 -0.063324563 0.99798948 0
0.0027449217 -0.0047481088 0.023593454 0.7863093 -0.32542577 0.52518159 0
-0.042456847 0.0045623207 0.021185586 -0.37683803 0.064986169 0.92399669 0
-0.03507768 0.004917454 0.023005556 -0.21898614 0.01453082 0.97561979 0
-0.024874326 0.0050020656 0.025134401 -0.17209427 -0.0042267344 0.98507136 0
-0.015110125 0.0050534136 0.026272573 -0.060608793 -0.03269881 0.99762583 0
-0.0049919882 0.0049854172 0.026514115 -0.0088914074 -0.053379107 0.99853468 0
0.0055697788 0.005434542 0.024597095 0.63142282 -0.32540172 0.70386004 0
0.010328949 0.0098558022 0.020825604 0.37479085 -0.91885364 0.12344937 0
-0.041130487 0.01332501 0.020967156 -0.6289525 0.19755423 0.75192487 0
-0.035129528 0.015107783 0.022714758 -0.26914945 0.036751479 0.96239698 0
-0.024990845 0.014966728 0.025022365 -0.20641638 0.0043040798 0.97845477 0
-0.014985522 0.015114007 0.026762614 -0.10963838 -0.095570236 0.98936635 0
-0.005007992 0.015050112 0.027510898 -0.06199912 -0.15912583 0.98530972 0
0.0056424984 0.015661061 0.026945243 0.12485155 0.07087256 0.98964089 0
0.011909225 0.015300667 0.023813769 0.93929589 -0.041220102 0.34062308 0
-0.03457015 0.024800578 0.022606881 -0.46341768 0.023989694 0.88581514 0
-0.025109788 0.024918811 0.025421152 -0.24561636 -0.058730908 0.96758628 0
-0.014789862 0.025875138 0.025955161 0.12664315 0.56493068 0.81536174 0
-0.0050335345 0.023866888 0.025531862 0.31749645 0.8329286 0.45323944 0
0.0034874484 0.021037467 0.024660995 0.32412931 0.93751758 0.12649542 0
0.010140315 0.020047648 0.024657624 0.60825765 0.79220611 0.049315825 0
-0.033519682 0.033276677 0.022449393 -0.46160075 0.44830739 0.76547062 0
-0.025103411 0.032019611 0.023343889 0.30987635 0.89183837 0.3295466 0
-0.018497154 0.030367773 0.023241244 0.21832794 0.97479331 0.045945354 0
