# .PCD v0.7 - Point Cloud Data file format
VERSION 0.7
FIELDS x y z normal_x normal_y normal_z curvature
SIZE 4 4 4 4 4 4 4
TYPE F F F F F F F
COUNT 1 1 1 1 1 1 1
WIDTH 188
HEIGHT 1
VIEWPOINT 0 0 0 1 0 0 0
POINTS 188
DATA ascii
-0.133619 -0.045736894 0.0089031355 -0.27812219 0.034004532 -0.95994353 0
-0.12595783 -0.042952828 0.008577263 0.12787239 -0.22123681 -0.96680039 0
-0.1180171 -0.040800985 0.0093394928 0.32615289 -0.6681605 -0.66871947 0
-0.12277324 -0.038618684 0.0089806644 -0.24868102 0.55325532 -0.795026 0
-0.11471432 -0.036465693 0.0089277932 -0.012392988 0.12854131 -0.99162668 0
-0.10599021 -0.032860067 0.0091442689 0.086325631 -0.12162974 -0.98881453 0
-0.098638088 -0.030716712 0.0095703863 0.27122772 -0.45663798 -0.84729993 0
-0.10218416 -0.028899606 0.0093848277 -0.18820646 0.47484574 -0.8597092 0
-0.094775513 -0.026646098 0.0093944697 -0.0015898864 0.068363272 -0.99765921 0
-0.086171731 -0.02258349 0.0096118655 0.071509495 -0.059688777 -0.99565238 0
-0.079512909 -0.020205403 0.0098851463 0.16620377 -0.21785805 -0.96172464 0
-0.081955917 -0.019393967 0.0097806491 -0.082949907 0.27737916 -0.95717299 0
-0.078640364 -0.01845184 0.0099144364 0.027289731 0.062237177 -0.99768823 0
-0.041597318 -0.010745904 0.0085182618 -0.34613621 -0.82867497 -0.43987215 0
-0.037212558 -0.011106517 0.0078922482 0.14409932 -0.88000327 -0.45258111 0
-0.050494187 -0.0021188373 0.0090787522 -0.87121868 -0.1737833 -0.45910501 0
-0.045001198 -0.0048605739 0.0047657555 -0.54968542 -0.49934024 -0.66970539 0
-0.035121549 -0.0053137029 0.0043751108 0.45354706 -0.43126759 -0.77993792 0
-0.026031403 -0.0025489165 0.0075579388 0.40096954 -0.6801458 -0.61369795 0
-0.019318052 -0.00034316489 0.0093326196 0.46736199 -0.85554087 -0.22276111 0
-0.050550401 0.0032863994 0.0086790593 -0.92313147 0.055844888 -0.38040724 0
-0.045566082 0.0052502798 0.0037356475 -0.47962955 0.31192356 -0.820158 0
-0.035082899 0.0048309793 0.0030045982 0.20739594 0.18096802 -0.96137267 0
-0.024984237 0.0048152818 0.0050348998 0.12364026 -0.12031006 -0.98500693 0
-0.015352624 0.0050932216 0.0062413518 0.20343524 -0.54681492 -0.81216222 0
-0.005299564 0.0072640395 0.0070595015 0.19046792 -0.73875654 -0.64649892 0
0.0043828529 0.008535333 0.0079936562 0.17555913 -0.82012349 -0.54458833 0
0.010993231 0.009553127 0.0094044982 0.35825416 -0.75929111 -0.54325956 0
-0.044279329 0.0113588 0.0076356758 -0.19911833 0.85245866 -0.48339027 0
-0.034512505 0.013065324 0.0068436451 -0.2798247 0.73803985 -0.61399943 0
-0.024926811 0.015358139 0.005821404 -0.22778729 0.4149611 -0.88086331 0
-0.015079822 0.015227343 0.0036946905 -0.16283146 0.038413946 -0.98590583 0
-0.0048365286 0.015044615 0.0026276505 -0.067019969 -0.2676889 -0.96117169 0
0.0051191589 0.014693176 0.0028222091 0.1141782 -0.48821846 -0.86522025 0
0.014610707 0.015155333 0.0054695685 0.34222281 -0.62259418 -0.70374709 0
0.023889383 0.017905619 0.007616384 0.38128677 -0.69720536 -0.6070627 0
0.030657122 0.019798623 0.0096577955 0.40578717 -0.73315758 -0.54572582 0
-0.021686891 0.021162121 0.008519819 -0.46950644 0.69305247 -0.54703027 0
-0.014345082 0.024192089 0.006749121 -0.43959841 0.54956496 -0.71044469 0
-0.0051419004 0.025334354 0.0028007748 -0.35108489 0.27735999 -0.89432144 0
0.00492064 0.024832265 0.00048290021 -0.040959351 0.063006043 -0.99717236 0
0.015231004 0.024851922 0.0010293454 0.13315026 -0.14577752 -0.98031628 0
0.025137376 0.024781462 0.0031913635 0.25019917 -0.40988928 -0.87714946 0
0.034552258 0.025515603 0.0061351792 0.33031467 -0.60658777 -0.72314823 0
0.04298351 0.027974147 0.0078816907 0.40265229 -0.65346831 -0.64097601 0
-0.010369007 0.030517362 0.0095002092 -0.58625549 0.62722307 -0.51273352 0
-0.0039901496 0.033185005 0.006708819 -0.47292843 0.63363034 -0.61225104 0
0.0047581359 0.035416886 0.0046943175 -0.24953017 0.58212274 -0.77386558 0
0.014824711 0.034999404 0.0021848672 -0.12062657 0.3518801 -0.92824012 0
0.025096394 0.035013799 0.0014600144 -0.00020338353 0.1020089 -0.99478352 0
0.035085697 0.034711413 0.0021635829 0.12950858 -0.14124453 -0.98146701 0
0.045261178 0.034872171 0.0049838633 0.4615545 -0.30184972 -0.83417869 0
0.050885465 0.036863126 0.008678928 0.7983197 -0.1590437 -0.58085346 0
0.0074584684 0.041097257 0.0085388403 -0.37227067 0.7913121 -0.48501515 0
0.015475946 0.043168686 0.0070111528 -0.29431212 0.66124189 -0.69002867 0
0.024979718 0.045008216 0.0053451797 -0.23860936 0.56104213 -0.79265207 0
0.034855179 0.045415916 0.0033818907 -0.09104801 0.377013 -0.92172199 0
0.045091707 0.045058314 0.0052133207 0.4716019 0.339169 -0.81397545 0
0.050822586 0.042483043 0.008782276 0.83436352 0.19562067 -0.51533496 0
0.028023636 0.050878484 0.0089807482 -0.35234955 0.72400916 -0.59300977 0
0.035483658 0.052052226 0.0077296034 -0.10027698 0.75167674 -0.65186393 0
0.042816676 0.051625732 0.0082268342 0.3097828 0.72183651 -0.61885917 0
-0.13372271 -0.045785543 0.01159397 -0.44772071 -0.020795301 0.89393163 0
-0.12577729 -0.043036263 0.012428799 0.12676838 -0.38540539 0.91399807 0
-0.11780363 -0.041044671 0.011949371 0.40830815 -0.85601848 0.31704387 0
-0.1233715 -0.038149189 0.011863753 -0.41538003 0.79106534 0.44908261 0
-0.11431894 -0.03579646 0.012673713 -0.21582121 0.32037595 0.92237765 0
-0.10578194 -0.033167064 0.013083677 0.23159567 -0.51176047 0.82732379 0
-0.097861327 -0.031049179 0.012390726 0.43356186 -0.8679437 0.24227639 0
-0.10326861 -0.028244076 0.012426006 -0.44846979 0.86126488 0.23895137 0
-0.094433993 -0.025983404 0.013042337 -0.19668831 0.36610749 0.90954882 0
-0.085649312 -0.023236083 0.013285359 0.32846972 -0.70662457 0.62672919 0
-0.077948228 -0.020970436 0.012827369 0.44303316 -0.89469415 0.056955613 0
-0.083058141 -0.018446052 0.012903685 -0.44214109 0.88310468 0.15696283 0
-0.07434877 -0.016103026 0.013013717 -0.45405766 0.87402308 0.17296018 0
-0.065746568 -0.013098735 0.013330591 0.43638405 -0.87910515 0.19168486 0
-0.05825251 -0.010921963 0.013661011 0.48558193 -0.87221581 0.058734994 0
-0.042683128 -0.011364163 0.014714781 -0.42289904 -0.90617663 0.00056712294 0
-0.036331892 -0.011976835 0.014895895 0.30077896 -0.95248085 0.048085596 0
-0.062972069 -0.0084056519 0.013313135 -0.44679245 0.89463735 0.00073616306 0
-0.054079711 -0.0055522202 0.013915619 -0.98919111 0.14463882 -0.024096133 0
-0.047659386 -0.007546213 0.015222807 -0.67809892 -0.73385847 0.040418919 0
-0.031640086 -0.0084500518 0.015106126 0.69620615 -0.71696198 0.035531648 0
-0.025198316 -0.0038538093 0.015154165 0.51754433 -0.85255581 0.072776824 0
-0.019099779 -0.00050325255 0.015049901 0.47775394 -0.87842709 0.01081586 0
-0.05127015 0.0048850328 0.014898959 -0.99112719 0.13241731 0.011514759 0
-0.049708977 0.0094483811 0.016570566 -0.82677376 0.55705941 0.078294352 0
-0.014129891 0.0014395701 0.015074571 0.31210151 -0.95004362 -0.0031321349 0
-0.0048644259 0.0041206134 0.014944837 0.25488678 -0.96287292 -0.088929556 0
0.0048616277 0.0064705801 0.015074532 0.24386242 -0.96713263 -0.07201194 0
0.01255668 0.0088672396 0.014892541 0.39979097 -0.91387665 -0.070687495 0
-0.050060857 0.010091842 0.013645232 -0.87241244 0.48869133 0.008786235 0
-0.045084856 0.012468162 0.014936425 -0.33481559 0.939762 0.068891257 0
-0.034932807 0.015402686 0.014935134 -0.40119648 0.91571587 -0.022491748 0
-0.027797848 0.018761309 0.014777298 -0.45917118 0.88607699 -0.063477784 0
0.017460259 0.011358394 0.014576377 0.45041507 -0.88493073 -0.11842218 0
0.024879139 0.015121006 0.014875902 0.4522953 -0.88443691 -0.11489289 0
0.032480504 0.018831288 0.015290745 0.44258365 -0.89032978 -0.10692312 0
-0.022824643 0.022082828 0.015046569 -0.59107411 0.80580437 -0.036203139 0
-0.016386034 0.027020415 0.015101301 -0.61852723 0.78492266 -0.036336526 0
0.037564009 0.023497576 0.015690742 0.70632851 -0.70787585 0.0034608557 0
0.044546612 0.026502036 0.015255525 0.38119128 -0.91071653 0.15902385 0
0.05048101 0.029318916 0.016797483 0.79664415 -0.59805232 -0.087701231 0
-0.011486399 0.031121822 0.015103168 -0.65649688 0.75265533 -0.050217453 0
-0.0052481461 0.03578091 0.014958031 -0.55409169 0.82697934 -0.095328741 0
0.0010663228 0.039456867 0.013996345 -0.46190158 0.87845993 -0.12229094 0
0.038374253 0.030860879 0.01705513 0.32172221 -0.8078317 0.49386507 0
0.04430037 0.030394768 0.015275585 0.20310934 -0.95526683 -0.21496968 0
0.052719902 0.034868337 0.015031402 0.93676835 -0.29345077 -0.19066088 0
0.0059699337 0.042098947 0.015093031 -0.44820514 0.8849659 -0.12628323 0
0.015001501 0.046622533 0.014988123 -0.44750696 0.88339847 -0.13908482 0
0.025065091 0.049173255 0.015403834 0.018378092 0.99656999 -0.080687806 0
0.031940322 0.04879095 0.017080981 -0.42171326 0.90314466 -0.080546744 0
0.049317695 0.049001068 0.011395768 0.68849486 0.52703446 -0.49820617 0
0.052594557 0.04487272 0.014899358 0.92144817 0.30086219 -0.24579497 0
0.02573527 0.050944567 0.014988946 -0.22812065 0.97218871 -0.053009801 0
0.034877501 0.054356381 0.01504075 -0.50788814 0.85723817 -0.084807336 0
0.045095533 0.05362105 0.01497305 0.47137982 0.85503513 -0.21613891 0
0.050537158 0.050525744 0.017837519 0.70129645 0.70467067 -0.10780826 0
-0.041359887 -0.010703132 0.021284021 -0.2709786 -0.81934851 0.50521153 0
-0.037758518 -0.010898842 0.021407977 0.16008601 -0.83011049 0.53412461 0
-0.050286252 -0.00090528623 0.020742239 -0.91321915 -0.27276209 0.30270723 0
-0.044955127 -0.0046703024 0.024217069 -0.52270353 -0.48309392 0.70242524 0
-0.035194196 -0.0050679329 0.024330877 0.38614473 -0.43683669 0.81244445 0
-0.026163131 -0.0021055203 0.02232174 0.37695217 -0.71546513 0.58823186 0
-0.019707631 -0.00012177096 0.020249238 0.39332083 -0.84749007 0.35645387 0
-0.050583646 0.002933831 0.021322418 -0.91753358 0.032501787 0.39632779 0
-0.045426942 0.0052881218 0.02500884 -0.38158581 0.37009397 0.84700811 0
-0.035096727 0.0049761641 0.025577508 0.096902356 0.18812802 0.97735238 0
-0.024891501 0.0048349015 0.025013536 0.017634144 -0.11861946 0.99278319 0
-0.015328121 0.0052003688 0.024303958 0.1534469 -0.61516702 0.77331984 0
-0.0050181355 0.0067764972 0.023819713 0.13986816 -0.77014697 0.62234277 0
0.0048536169 0.0079441275 0.02322506 0.17972226 -0.86944574 0.46017841 0
0.011745222 0.0092665926 0.022025969 0.3521266 -0.89352489 0.27860418 0
-0.043765616 0.010966333 0.021415103 -0.19431135 0.80972064 0.55371064 0
-0.034285571 0.013102612 0.02266648 -0.30680174 0.60876614 0.73162591 0
-0.024874615 0.015323525 0.024191473 -0.30035859 0.32713929 0.89597136 0
-0.014921443 0.015059592 0.02734261 -0.26315442 0.010809178 0.96469313 0
-0.0057341 0.013738421 0.028789083 -0.11770494 -0.36142319 0.92494267 0
0.0054756645 0.012123904 0.028300436 0.10735939 -0.64400882 0.75744742 0
0.015505333 0.013652462 0.026000593 0.33411315 -0.72808993 0.59854263 0
0.024584441 0.016783185 0.024583729 0.38402766 -0.81056005 0.44217101 0
0.03190212 0.019145552 0.022486998 0.42770714 -0.87889767 0.21120022 0
-0.022157025 0.021436842 0.021602128 -0.4860256 0.74328071 0.45968795 0
-0.014151555 0.024597302 0.024460882 -0.52362764 0.52941072 0.66748661 0
-0.0073603373 0.025920536 0.028418299 -0.46888113 0.30293047 0.82968891 0
0.026684659 0.021363521 0.029027389 0.25860542 -0.58499408 0.76870364 0
0.035864428 0.023490902 0.025587818 0.46525171 -0.76851416 0.43923444 0
0.044475514 0.027441613 0.024517562 0.44249877 -0.89298862 0.082256556 0
0.050373044 0.029520147 0.02126565 0.79330397 -0.58984005 0.15085608 0
-0.010668177 0.030793454 0.021481913 -0.64095181 0.66714418 0.37960425 0
-0.004481581 0.033916887 0.024464937 -0.52369064 0.67825896 0.51547348 0
0.00421878 0.037242588 0.026944386 -0.36310029 0.65663695 0.66104931 0
0.011779477 0.038999666 0.02936027 -0.3018159 0.53044379 0.79217201 0
0.04843542 0.03284163 0.028408809 0.64402533 -0.40729216 0.64756811 0
0.052088555 0.035511442 0.024304502 0.88977295 -0.26670933 0.3703649 0
0.0066231037 0.04168966 0.022895297 -0.42112017 0.81785238 0.39214203 0
0.015273142 0.044752803 0.025000777 -0.41130906 0.75737751 0.50715297 0
0.0234436 0.047696687 0.027149072 -0.38006917 0.70046455 0.60406691 0
0.030657524 0.049542569 0.029125949 -0.4326407 0.61897302 0.65551084 0
0.048360005 0.047335912 0.028033771 0.6531744 0.45892751 0.60228622 0
0.052096806 0.044531487 0.02408505 0.88375473 0.28212935 0.37333706 0
0.026534306 0.051801834 0.022955468 -0.44522294 0.87732112 0.17912057 0
0.034473758 0.053859305 0.024649084 -0.19535421 0.92456943 0.32712087 0
0.044463206 0.052984655 0.024720034 0.42984939 0.81229162 0.39422324 0
0.050608426 0.050448366 0.020905027 0.75453734 0.60886157 0.24486952 0
-0.002771301 0.017505988 0.030710474 -0.19870651 -0.23346806 0.95184469 0
0.0049946047 0.017188095 0.031310283 0.038990647 -0.36519751 0.9301132 0
0.013602572 0.01850865 0.030643074 0.16176371 -0.45731154 0.87447047 0
0.020240502 0.019926647 0.030021258 0.22921085 -0.51737005 0.82449412 0
-0.0026727365 0.024327075 0.03107373 -0.33137214 0.12983572 0.93452406 0
0.0049731066 0.025001714 0.032512471 -0.088662982 0.038448785 0.99531937 0
0.014925322 0.024935298 0.032596383 0.044709772 -0.19664465 0.97945499 0
0.02450029 0.02570395 0.03198126 0.14973514 -0.38161814 0.91211128 0
0.034024913 0.027846554 0.031294812 0.19945534 -0.49568242 0.84529078 0
0.041694164 0.029408485 0.030497534 0.19788074 -0.62384659 0.7560811 0
-0.00034351906 0.030417139 0.030249227 -0.28431156 0.40977857 0.86674589 0
0.0062723081 0.032431595 0.031254813 -0.24039705 0.38700205 0.89019024 0
0.01517768 0.034665778 0.032289185 -0.19411835 0.27483433 0.94169217 0
0.02510789 0.034872353 0.033608753 -0.073598959 0.018371757 0.99711865 0
0.035035547 0.034787726 0.033813477 0.034303598 -0.23361777 0.97172326 0
0.044165891 0.035371628 0.032279428 0.39894664 -0.2705867 0.87614179 0
0.018448887 0.041115191 0.030656449 -0.32168534 0.49038887 0.80996126 0
0.025565103 0.043127887 0.031846847 -0.26800102 0.43713078 0.85854077 0
0.034973472 0.045109119 0.033228464 -0.13710946 0.34307194 0.92924845 0
0.044218976 0.044639859 0.032235101 0.40935618 0.28308979 0.86734521 0
0.036686029 0.050689753 0.030651243 -0.082820244 0.64240324 0.76187849 0
0.041293774 0.050394129 0.030599801 0.22592896 0.65963316 0.7168265 0
