# .PCD v0.7 - Point Cloud Data file format
VERSION 0.7
FIELDS x y z normal_x normal_y normal_z curvature
SIZE 4 4 4 4 4 4 4
TYPE F F F F F F F
COUNT 1 1 1 1 1 1 1
WIDTH 640
HEIGHT 1
VIEWPOINT 0 0 0 1 0 0 0
POINTS 640
DATA ascii
-0.022072917 -0.020263784 0.008163752 -0.14428298 -0.98417664 -0.10285331 0
-0.015019293 -0.020730525 0.0074103614 -0.028223265 -0.98517436 -0.16921858 0
-0.0076340465 -0.020476947 0.0074615972 0.1086439 -0.98857754 -0.10445517 0
-0.04321951 -0.011774471 0.0065320195 -0.53191733 -0.81806564 -0.21870635 0
-0.03474592 -0.014509791 0.0039470582 -0.34480694 -0.75207275 -0.56168914 0
-0.025827019 -0.017103549 0.0034767364 -0.14706074 -0.75215775 -0.6423642 0
-0.015892224 -0.018047303 0.0021527938 -0.058838934 -0.72728425 -0.68380958 0
-0.0044476669 -0.01722911 0.0029940226 0.16700023 -0.72526288 -0.66791064 0
0.0048386971 -0.01569761 0.0045574652 0.32451484 -0.82304466 -0.46614128 0
0.013630552 -0.012084416 0.0061859554 0.50207627 -0.80371875 -0.3193047 0
-0.052710894 -0.0028302472 0.005421258 -0.71491385 -0.5685572 -0.40699002 0
-0.046849184 -0.0070340401 0.0034224291 -0.54858363 -0.61714208 -0.56408483 0
-0.037608765 -0.0091714999 0.00018813224 -0.080084577 -0.23647723 -0.9683311 0
-0.014853833 -0.00088488363 8.6393542e-05 -0.0027043666 0.11066243 -0.99385434 0
-0.0094844997 -0.00032780177 2.2577791e-05 -0.026670076 0.092284642 -0.99537545 0
0.009208736 -0.0089273173 0.00060132769 0.33701301 -0.43076089 -0.83717811 0
0.016257484 -0.0069046244 0.0025369066 0.37719846 -0.55015105 -0.74502021 0
0.023832714 -0.0039214385 0.0056842179 0.65399498 -0.65759939 -0.37397003 0
-0.061494701 0.0080666263 0.0072036525 -0.84876204 -0.49693513 -0.18071683 0
-0.05627102 0.0041765971 0.0038164824 -0.64802516 -0.45338228 -0.61197054 0
-0.049330078 0.00014314684 0.00017157511 -0.52434134 -0.35794023 -0.77262217 0
-0.031774387 0.0070267506 0.00011402526 0.048776567 0.0335139 -0.99824733 0
-0.024832504 0.0053312532 0.00037559736 0.048454195 0.055801757 -0.99726546 0
-0.015098953 0.0049418919 0.00051199156 -0.02221835 0.055867795 -0.99819088 0
-0.0056608133 0.0051060715 0.00025413383 -0.030066783 0.055066027 -0.99803001 0
0.0032569862 0.0078163911 0.00012295248 -0.030430071 0.051053263 -0.99823225 0
0.027359027 0.0036348717 0.0027432693 0.59953451 -0.38567698 -0.70129281 0
0.032141544 0.0066341069 0.0062135826 0.8055622 -0.50354046 -0.31227654 0
-0.063236661 0.015672036 0.0048699696 -0.86179131 -0.29641256 -0.41164938 0
-0.058944881 0.012240078 0.0011440647 -0.54772538 -0.36612123 -0.75229788 0
-0.040897116 0.019996222 9.8276359e-06 0.072916321 0.024431223 -0.99703878 0
-0.03414204 0.0159145 0.00029410672 0.05135309 0.032546088 -0.99815005 0
-0.024936896 0.014587033 0.00067697023 0.037565745 0.029654201 -0.9988541 0
-0.014929876 0.015218731 0.00091164949 0.0031294951 0.031198157 -0.99950826 0
-0.0047216131 0.014559651 0.00069551758 -0.027524499 0.046564527 -0.99853599 0
0.0049410155 0.015242109 0.00045040672 -0.029897442 0.050230432 -0.99829006 0
0.013265682 0.016036004 0.0001709934 -0.064557873 0.048441768 -0.99673754 0
0.028957635 0.011475489 0.00053394958 0.43819731 -0.18369554 -0.87990856 0
0.03421038 0.015189369 0.004082616 0.75744832 -0.26521829 -0.5965997 0
-0.064992473 0.025150286 0.0037927006 -0.79284507 -0.059757024 -0.60648638 0
-0.04145531 0.027155606 0.00014443688 0.072916307 0.024431227 -0.99703866 0
-0.034936957 0.024856567 0.00053078413 0.059976749 0.029304061 -0.99776947 0
-0.024763234 0.02535818 0.00097764516 0.025092252 0.024103004 -0.9993946 0
-0.014694704 0.024642635 0.0011244027 0.0078535117 0.0047644447 -0.9999578 0
-0.0047212029 0.025011336 0.0010074746 -0.026043897 -0.0049336464 -0.99964857 0
0.0044787121 0.02476592 0.00076889049 -0.027028622 -0.0026110017 -0.99963123 0
0.01389705 0.025185047 0.00035903484 -0.074306242 -0.0080375224 -0.99720311 0
0.03669801 0.025192492 0.0039116601 0.80057096 -0.080327645 -0.59382957 0
-0.06474065 0.034701888 0.00398615 -0.7946099 0.070317931 -0.60303438 0
-0.05973728 0.037573189 9.0779795e-05 -0.48115122 0.040419638 -0.87570536 0
-0.043226961 0.035208069 0.00019054273 0.070073687 0.0063708341 -0.99752146 0
-0.035078887 0.035499014 0.00074029778 0.05981613 -0.0084995581 -0.99817324 0
-0.025118938 0.034800585 0.0010333472 -0.0029047453 -0.019910246 -0.99979752 0
-0.01492923 0.034875505 0.00094110682 -0.010839167 -0.029065657 -0.99951875 0
-0.0046833446 0.035198204 0.00078411447 -0.020675903 -0.026111664 -0.99944514 0
0.0049046827 0.035052877 0.00052982423 -0.033110071 -0.026358774 -0.99910402 0
0.012860443 0.03500852 0.00014864709 -0.063691154 -0.037398927 -0.99726868 0
0.037380122 0.035261236 0.0046550445 0.86409444 0.02256901 -0.50282353 0
-0.063882194 0.044888873 0.0043331673 -0.79339868 0.19313106 -0.57725126 0
-0.059289146 0.046227142 0.00052327802 -0.56186837 0.13059443 -0.81685311 0
-0.042269405 0.041807234 0.00011737207 0.061405148 -0.047823142 -0.9969666 0
-0.035351712 0.044385426 0.00039855059 0.050802469 -0.050431289 -0.99743456 0
-0.025179328 0.045066807 0.00064693898 0.0069607613 -0.048756551 -0.99878651 0
-0.014948228 0.044442423 0.00065219076 -0.0070349961 -0.034752648 -0.99937117 0
-0.0048812358 0.045229111 0.00052241015 -0.017181547 -0.027161434 -0.99948341 0
0.0041045723 0.044596978 0.00029426295 -0.041950323 -0.02955178 -0.9986825 0
0.010963739 0.040946722 4.7090729e-05 -0.063691154 -0.037398908 -0.99726868 0
0.035688788 0.045161258 0.0041770907 0.80520165 0.20426561 -0.55670983 0
-0.062188119 0.053917546 0.0063059363 -0.84421182 0.40241066 -0.35407934 0
-0.05773396 0.056503955 0.0023188447 -0.62910497 0.29760307 -0.71809429 0
-0.033521071 0.051638409 0.00012437 0.033575077 -0.054652967 -0.99794066 0
-0.024692539 0.053984087 0.00020484538 0.013018003 -0.051314067 -0.99859768 0
-0.015235888 0.054673754 0.00021049257 0.001661496 -0.047745399 -0.99885815 0
-0.0048714033 0.05404475 0.00024001212 -0.0047059548 -0.041586433 -0.99912387 0
0.0024331296 0.053162511 0.00012202236 -0.052115191 -0.036250502 -0.99798298 0
0.028607868 0.058799744 0.0016572723 0.53597057 0.44725832 -0.71602762 0
0.032981284 0.054808952 0.0053945738 0.82913715 0.38248074 -0.40772539 0
-0.054749008 0.064353384 0.0048748702 -0.70799655 0.54112184 -0.4537929 0
-0.048170686 0.067060553 0.00080307992 -0.28762355 0.30184692 -0.90893406 0
0.018086867 0.068883725 0.0007061488 0.28279209 0.28802204 -0.91491646 0
0.025511023 0.065518104 0.0046558082 0.65078437 0.5559119 -0.51714742 0
0.030641342 0.060951114 0.0075054527 0.83307356 0.49440908 -0.24808903 0
-0.050673902 0.070919178 0.0078222007 -0.59576458 0.79654431 -0.10286758 0
-0.044737708 0.074287713 0.0054220292 -0.55864912 0.74853486 -0.35722089 0
-0.036950093 0.078035921 0.0033709686 -0.39214873 0.78166783 -0.48498946 0
-0.02594398 0.07900738 0.00073309988 -0.084701084 0.55809355 -0.82544363 0
-0.016659524 0.079464011 3.6760015e-05 -0.063896365 0.41979215 -0.90536833 0
-0.00091339444 0.079460807 0.00046270783 0.24989468 0.52967232 -0.81055522 0
0.0061781956 0.077764936 0.0017435282 0.2607674 0.56411225 -0.7834397 0
0.014787377 0.074952468 0.0045200349 0.49012536 0.7102071 -0.50535429 0
0.021848736 0.071155094 0.0072414079 0.62543541 0.73714197 -0.25583625 0
-0.033969905 0.081714228 0.0069466075 -0.36697525 0.86814916 -0.33413494 0
-0.024555631 0.083366148 0.0053518326 -0.16316639 0.86361933 -0.4770098 0
-0.01507002 0.083667971 0.0043680705 -0.060516067 0.83855784 -0.54144114 0
-0.0050587384 0.083435521 0.0049479273 0.18601866 0.90103018 -0.39184389 0
0.0045888461 0.081806131 0.0062971404 0.30611765 0.91076547 -0.27712491 0
0.010155913 0.080111049 0.0087263491 0.47791547 0.87697327 -0.05014737 0
-0.023047928 -0.020569811 0.015561654 -0.15580364 -0.98606759 -0.058274642 0
-0.015054482 -0.021256488 0.014682613 -0.0089198351 -0.99867994 -0.050585061 0
-0.0062321695 -0.020707242 0.015275137 0.16968088 -0.98392713 -0.055640511 0
-0.043727577 -0.012458535 0.015176502 -0.56040972 -0.82635325 -0.055508919 0
-0.034726843 -0.017179968 0.015296859 -0.41015762 -0.90917462 -0.07191845 0
-0.027776899 -0.019648235 0.013946893 -0.20664498 -0.97725141 -0.047724277 0
-0.0016246241 -0.019595062 0.01440531 0.24709517 -0.96691781 -0.063355729 0
0.0052800057 -0.01769072 0.015550761 0.33626211 -0.93985391 -0.060020261 0
0.014399459 -0.012901832 0.015850173 0.53695011 -0.84037727 -0.073827893 0
-0.053997666 -0.0033701798 0.015133645 -0.73454624 -0.67547321 -0.064635061 0
-0.048393458 -0.0088956337 0.015231384 -0.63079798 -0.77410853 -0.053384326 0
0.019303555 -0.0095930342 0.012927586 0.5272814 -0.84708709 -0.066466406 0
0.025144963 -0.0045175445 0.015553094 0.72924751 -0.68168354 -0.059207894 0
-0.061234094 0.0067163343 0.015350116 -0.87967259 -0.47434264 -0.034282763 0
-0.058490586 0.0020065738 0.013871077 -0.81895983 -0.57142174 -0.052744344 0
0.029345388 0.00064358255 0.014513181 0.81976968 -0.56821859 -0.071451619 0
0.032746613 0.0055568106 0.015378552 0.84228987 -0.53593886 -0.057596833 0
-0.064502798 0.014381032 0.014685003 -0.95257813 -0.29819387 -0.060624592 0
0.03696318 0.015243624 0.014617789 0.9581911 -0.28091496 -0.054376174 0
-0.067231208 0.025045872 0.014967121 -0.98308188 -0.17308848 -0.059919707 0
0.039419297 0.025321579 0.015310264 0.99163818 -0.11143371 -0.065087251 0
-0.067563459 0.035104416 0.014933219 -0.99488312 0.061473835 -0.080178253 0
0.039652269 0.035850335 0.014346057 0.99726433 0.024383053 -0.069780648 0
0.040049843 0.034988586 0.019764906 0.99734265 -0.0056983428 -0.072630204 0
-0.06641946 0.04469626 0.015193519 -0.97211289 0.22684073 -0.059495892 0
0.038119055 0.045204654 0.015026293 0.95672631 0.28526899 -0.057413869 0
-0.062834173 0.055097423 0.01510179 -0.89732808 0.43597636 -0.068751611 0
-0.059982449 0.059740294 0.012159649 -0.83825642 0.53882378 -0.083637483 0
0.034701735 0.055220921 0.015142968 0.90908968 0.41209784 -0.061084725 0
-0.060170367 0.0603838 0.01818884 -0.83825636 0.53882378 -0.083637483 0
-0.056556407 0.065266758 0.014506742 -0.80906433 0.58261961 -0.077261426 0
0.027583167 0.066612311 0.014777709 0.77538526 0.63037741 -0.037442628 0
0.031030474 0.061789181 0.015141315 0.83677804 0.54556847 -0.046450268 0
-0.051379934 0.071138889 0.014819463 -0.62592191 0.77600199 -0.077734575 0
-0.045429941 0.075629242 0.014571155 -0.59416711 0.79903352 -0.092255086 0
-0.039628264 0.079785965 0.013613895 -0.56019723 0.82572311 -0.066032708 0
0.01599429 0.077085175 0.014755483 0.55593628 0.82806504 -0.072409861 0
0.022398783 0.07197196 0.015331596 0.67148435 0.73806179 -0.066132292 0
-0.034456115 0.082394466 0.014852971 -0.35846111 0.93187147 -0.055867929 0
-0.024952013 0.085122794 0.015152491 -0.18082185 0.98179638 -0.058131877 0
-0.014894394 0.08612752 0.01472691 -0.042435043 0.99763709 -0.054032762 0
-0.00469945 0.08512304 0.014475322 0.22139704 0.97192585 -0.079646736 0
0.0046870043 0.082662299 0.015142592 0.33117005 0.9412654 -0.065922335 0
0.010510357 0.080306903 0.015529267 0.4779155 0.87697321 -0.050147362 0
-0.024382584 -0.02082835 0.02466654 -0.18796627 -0.98088926 -0.050248329 0
-0.015217335 -0.021748234 0.025042674 -0.01155326 -0.99876064 -0.048413508 0
-0.0053527122 -0.021016126 0.024615997 0.16372129 -0.98504043 -0.053765476 0
-0.043920334 -0.012966482 0.025116906 -0.55726427 -0.8286345 -0.053116534 0
-0.034975756 -0.017765122 0.024769731 -0.39705414 -0.91586202 -0.05953734 0
-0.029022748 -0.01981185 0.024176257 -0.22646639 -0.97317684 -0.040494941 0
-0.00057250488 -0.019877285 0.022815891 0.24709512 -0.96691781 -0.063355736 0
0.0046804748 -0.018453805 0.024533546 0.31627357 -0.94714934 -0.053657629 0
0.014701519 -0.013535078 0.024833182 0.52353108 -0.84854984 -0.076670878 0
0.02027758 -0.010095553 0.027058978 0.5272814 -0.84708709 -0.066466406 0
-0.054003 -0.004224055 0.02454669 -0.731336 -0.6794371 -0.059269715 0
-0.049009658 -0.0090482775 0.02466812 -0.63407952 -0.77129942 -0.055139363 0
0.025393821 -0.0049470384 0.024344195 0.72252852 -0.68898845 -0.056986704 0
-0.061897106 0.0070940275 0.02530314 -0.89411038 -0.44508827 -0.049629033 0
-0.058840495 0.0014011808 0.025385102 -0.8184998 -0.57225865 -0.050775096 0
0.033126622 0.0052012419 0.025315775 0.85365719 -0.51830441 -0.051283017 0
-0.065031856 0.014218984 0.024511479 -0.93910968 -0.33935812 -0.053933844 0
0.0375688 0.015142786 0.024818396 0.94921017 -0.30773878 -0.065550171 0
-0.067845196 0.025060965 0.025058789 -0.98654485 -0.15399064 -0.054919884 0
0.03971697 0.022698795 0.024893155 0.98197645 -0.1807159 -0.055352204 0
0.040242981 0.026931651 0.025114838 0.99556708 -0.072704881 -0.05966768 0
-0.068330914 0.035471696 0.025154222 -0.99592817 0.057046313 -0.069805644 0
0.040361542 0.035528239 0.024735559 0.99661702 0.048922315 -0.066038817 0
-0.066982277 0.044922106 0.025247486 -0.97279388 0.22452787 -0.057089604 0
0.038571924 0.045435727 0.024549078 0.9633531 0.26406306 -0.047133334 0
0.040181316 0.040411167 0.029921968 0.96456558 0.25995222 -0.0451461 0
-0.06350325 0.05519722 0.025204126 -0.90733111 0.41580892 -0.062073782 0
0.035371706 0.055152189 0.02512406 0.90774441 0.41549936 -0.057968844 0
-0.060670316 0.060750492 0.025805954 -0.84685987 0.52594656 -0.078793988 0
-0.05680741 0.066229738 0.024793934 -0.78887129 0.61072588 -0.068527408 0
0.027440522 0.067305394 0.024596829 0.79852957 0.60140443 -0.025752855 0
0.03138325 0.061911207 0.025206601 0.81065553 0.58505642 -0.023378395 0
-0.051662445 0.071705006 0.024694897 -0.67352486 0.7374146 -0.050831672 0
-0.045314007 0.07680729 0.025744746 -0.57951194 0.81235474 -0.065158509 0
0.016366402 0.077468902 0.025214976 0.54796141 0.83527148 -0.045386828 0
0.022673681 0.072491921 0.024983214 0.67177576 0.73845941 -0.058266919 0
-0.040273834 0.080243289 0.026336093 -0.5479039 0.83461314 -0.056765433 0
-0.035324875 0.082574345 0.024504604 -0.3832325 0.92220724 -0.051638927 0
-0.025158782 0.085648052 0.025098452 -0.18455559 0.98119408 -0.056546394 0
-0.014864389 0.086736776 0.025499629 -0.043185726 0.99737966 -0.058040172 0
-0.0047787335 0.085892394 0.025060421 0.19531989 0.97880137 -0.061628044 0
0.0050496049 0.08315675 0.024896825 0.35227576 0.93449551 -0.05118563 0
0.01095715 0.080564283 0.024288421 0.47791547 0.87697327 -0.050147362 0
-0.030607862 -0.02009654 0.037629899 -0.21380995 -0.97533244 -0.05488186 0
-0.024282984 -0.021338494 0.034541458 -0.20536324 -0.97747391 -0.048690919 0
-0.015324458 -0.022201646 0.034638382 0.0019383056 -0.99901086 -0.044425301 0
-0.0051745567 -0.021547031 0.035016503 0.14988649 -0.98738146 -0.051107131 0
0.0012365475 -0.020253748 0.036018655 0.2802245 -0.95825553 -0.056751322 0
-0.044528376 -0.013153376 0.035047445 -0.56443059 -0.82392353 -0.050675441 0
-0.035673909 -0.01806277 0.035415366 -0.39158052 -0.91855431 -0.05406148 0
0.0059970762 -0.018580187 0.035188925 0.35260448 -0.93451571 -0.048481002 0
0.014713382 -0.014250151 0.034486849 0.51153362 -0.85778362 -0.050403461 0
0.020668702 -0.010510716 0.035335131 0.55164325 -0.8321175 -0.057186402 0
-0.054819789 -0.0041338555 0.035184983 -0.72992963 -0.68144625 -0.053232323 0
-0.049432464 -0.0094215479 0.034587473 -0.63625956 -0.76941735 -0.056308705 0
0.026289243 -0.0048895185 0.035250932 0.73061174 -0.68086243 -0.051310536 0
0.030311767 -0.00051263702 0.036227547 0.79895705 -0.59804511 -0.063321754 0
-0.061952438 0.0059832265 0.035016034 -0.89562935 -0.44131023 -0.055617526 0
-0.059154674 0.0010605369 0.033870228 -0.81499046 -0.57751572 -0.047604114 0
0.033852279 0.0052359123 0.035122793 0.86017126 -0.5055654 -0.067148685 0
-0.06596598 0.015072234 0.035353664 -0.94210702 -0.3306165 -0.055921078 0
0.038124342 0.014571756 0.035260133 0.94730109 -0.31348702 -0.06592866 0
-0.06837026 0.025021134 0.034657981 -0.98795891 -0.14507644 -0.053759079 0
0.039864168 0.020769136 0.033622269 0.98477978 -0.16633911 -0.050399665 0
0.040667601 0.025560414 0.035285216 0.99196225 -0.11361886 -0.055691876 0
-0.068892896 0.035000309 0.034526009 -0.99781579 0.034028951 -0.056618415 0
0.041091036 0.035122115 0.035739034 0.99687219 0.046158377 -0.064150244 0
-0.067621328 0.044277128 0.03459103 -0.97779912 0.20201217 -0.055677794 0
0.038892679 0.046105191 0.034973543 0.96430635 0.2595613 -0.052356541 0
0.040267415 0.040962134 0.03482952 0.96438783 0.25967759 -0.05023599 0
-0.064263679 0.054943781 0.034783613 -0.91458911 0.39986652 -0.060277756 0
0.036029827 0.054852862 0.034924969 0.91076022 0.4098011 -0.050784469 0
-0.06087622 0.061729684 0.035603527 -0.85308939 0.51801878 -0.062411007 0
-0.056995116 0.067146786 0.034662414 -0.76341844 0.64276129 -0.06364131 0
0.028224573 0.066638649 0.034890808 0.80947834 0.58672291 -0.022381905 0
0.031247053 0.062479574 0.035107631 0.8090331 0.58721405 -0.025400452 0
-0.052072581 0.072165266 0.035071567 -0.6824919 0.72751945 -0.070144452 0
-0.045994319 0.077095471 0.035362016 -0.57487273 0.81572729 -0.064112268 0
0.01666633 0.077874452 0.035362322 0.54612422 0.83657211 -0.043537684 0
0.02279086 0.073111154 0.035356004 0.67772567 0.73390085 -0.045577832 0
-0.040790644 0.080571957 0.035857446 -0.54589063 0.83559352 -0.061537877 0
-0.034520596 0.083491288 0.035253193 -0.36341959 0.93026137 -0.050397843 0
-0.024975698 0.086260647 0.035236858 -0.18357702 0.98147506 -0.054828361 0
-0.014764964 0.087296993 0.034777183 -0.043286502 0.99728012 -0.059654802 0
-0.0053006113 0.086601242 0.034854922 0.19192161 0.97920531 -0.065749802 0
0.0055628223 0.08357764 0.035844013 0.36271384 0.93050021 -0.051068153 0
0.011690902 0.08076603 0.034877606 0.48406172 0.87369579 -0.048372567 0
-0.031244719 -0.020390628 0.045564506 -0.24073699 -0.96915305 -0.052801758 0
-0.02508036 -0.021719366 0.045111034 -0.19729638 -0.97888005 -0.053554822 0
-0.015285111 -0.022672527 0.045099903 -0.0010798683 -0.99891055 -0.046653152 0
-0.0051385001 -0.022062825 0.045176167 0.15578032 -0.98649961 -0.050507613 0
0.0018303575 -0.020603217 0.046407457 0.28769279 -0.95656085 -0.047161624 0
-0.044978525 -0.013406585 0.044935293 -0.56422162 -0.82413256 -0.049593363 0
-0.036677655 -0.018221013 0.045021944 -0.41901904 -0.90658057 -0.050345488 0
0.006559887 -0.018863605 0.044592887 0.35612664 -0.93318462 -0.048376422 0
0.015652703 -0.014277175 0.045027331 0.52047956 -0.85267925 -0.045156009 0
0.021108674 -0.010887676 0.04601543 0.55135858 -0.83266532 -0.051693752 0
-0.054355558 -0.0053564948 0.044614758 -0.72225529 -0.68970585 -0.051508546 0
-0.04973672 -0.0098137856 0.043384984 -0.63625956 -0.76941735 -0.056308705 0
0.026356451 -0.0055776592 0.044896163 0.73351026 -0.67744398 -0.055067908 0
0.030686004 -0.00096138369 0.045906916 0.74463457 -0.66537637 -0.052855656 0
-0.062484991 0.0058852993 0.044830855 -0.88818288 -0.4562116 -0.054791667 0
-0.059398782 0.00056400924 0.044044543 -0.81980354 -0.57069761 -0.047184933 0
0.034479916 0.0050426903 0.04499843 0.86993957 -0.48906371 -0.063418344 0
-0.066343285 0.014625846 0.044719148 -0.94265437 -0.32978129 -0.051449545 0
0.038566858 0.013884895 0.045196239 0.93848127 -0.33984396 -0.061311938 0
0.040254254 0.018912343 0.047372371 0.98477966 -0.1663391 -0.050399661 0
-0.069005623 0.025649576 0.044612251 -0.98950857 -0.13376828 -0.054579202 0
0.041083485 0.024780009 0.044960126 0.99024111 -0.12838157 -0.054229286 0
-0.069465145 0.035320621 0.045033444 -0.99673772 0.05815845 -0.055958852 0
0.04169878 0.034402631 0.045466587 0.99781203 0.028998818 -0.059414834 0
-0.068057418 0.045176081 0.044988252 -0.97424293 0.21818806 -0.056962963 0
0.039302006 0.047234997 0.045466695 0.96301657 0.25949121 -0.072549604 0
0.04066629 0.042205669 0.045663089 0.96327776 0.25835803 -0.073124379 0
-0.065158926 0.054422852 0.044364665 -0.92176574 0.38317132 -0.059393916 0
0.036553167 0.055224348 0.044650313 0.90444452 0.42237905 -0.0598001 0
-0.061188459 0.062269695 0.044764157 -0.84924257 0.52437818 -0.06176069 0
-0.057572547 0.067397557 0.044686835 -0.77350211 0.63104874 -0.058923621 0
0.028323933 0.067339584 0.045086432 0.80100209 0.59420663 -0.072897725 0
0.031719562 0.062837772 0.04563782 0.80027986 0.59470373 -0.076678537 0
-0.05265658 0.072551496 0.044461306 -0.68583554 0.72417456 -0.072117001 0
-0.046571031 0.077472009 0.044986807 -0.55660528 0.82837594 -0.063117616 0
0.016951231 0.078170314 0.044778593 0.5565291 0.82970285 -0.043225799 0
0.023365438 0.073142231 0.044651654 0.68110722 0.73074949 -0.045805126 0
-0.041388202 0.08083909 0.044638325 -0.54602796 0.83538181 -0.063171901 0
-0.034694351 0.084018156 0.0451594 -0.3634865 0.92970639 -0.059360407 0
-0.025021886 0.086787492 0.044660348 -0.18896508 0.98003179 -0.061886147 0
-0.014941749 0.087844536 0.044482838 -0.044892684 0.9975813 -0.053067915 0
-0.0046990295 0.087146662 0.044824548 0.21329868 0.97503722 -0.061691716 0
0.0050845733 0.08423952 0.044797312 0.34677461 0.93649542 -0.052189697 0
0.012191905 0.081052139 0.04555174 0.49768329 0.86622149 -0.044404339 0
-0.031858027 -0.020664386 0.054765221 -0.32191128 -0.94564229 -0.046190746 0
-0.025151853 -0.022259405 0.055338163 -0.19242926 -0.97996074 -0.051458299 0
-0.014294313 -0.02319154 0.05546711 0.010680404 -0.99831378 -0.057057362 0
-0.0054555396 -0.022613313 0.05530566 0.1428954 -0.98859406 -0.047567107 0
0.0025263377 -0.020846007 0.055904336 0.29178774 -0.95527613 -0.048036393 0
-0.050284769 -0.010358541 0.057344768 -0.65658432 -0.75256222 -0.050469149 0
-0.044976283 -0.014019281 0.055105593 -0.56402618 -0.82439238 -0.047451451 0
-0.036407158 -0.018810565 0.054180823 -0.39169669 -0.91906095 -0.04359661 0
0.0075891013 -0.019058388 0.055434022 0.35822055 -0.93237931 -0.048443675 0
0.015259895 -0.015027018 0.054943994 0.51334673 -0.85710603 -0.042946447 0
0.021574624 -0.01111612 0.054876436 0.5572471 -0.82893175 -0.048455335 0
-0.05465075 -0.0058517247 0.055131245 -0.7290116 -0.68282664 -0.047851723 0
0.026533403 -0.0062020826 0.054363694 0.74105418 -0.66871262 -0.060516205 0
0.031235216 -0.0010762907 0.055176165 0.73546106 -0.67530644 -0.055301853 0
-0.062819183 0.0053639906 0.055141568 -0.88022625 -0.47157738 -0.053070772 0
-0.05984842 0.00027380011 0.055366728 -0.81980354 -0.57069755 -0.047184933 0
0.035138849 0.0048694792 0.055052225 0.87477326 -0.48066062 -0.061133195 0
-0.066922709 0.014586574 0.055092491 -0.94396275 -0.32556033 -0.054264888 0
0.038746826 0.012688854 0.055083908 0.92714643 -0.37072039 -0.054460738 0
0.040467665 0.018004315 0.054721203 0.98011041 -0.19095492 -0.054034892 0
-0.070094377 0.027301757 0.058440197 -0.99481052 -0.082706816 -0.059258759 0
-0.069389135 0.024734635 0.054199819 -0.98184299 -0.18297754 -0.050036393 0
0.041720212 0.025184581 0.055675332 0.98850721 -0.14161384 -0.052905601 0
-0.070163548 0.033905201 0.056496296 -0.99882585 0.012997233 -0.046669196 0
-0.069856286 0.03665616 0.052951377 -0.99350607 0.099149115 -0.055815071 0
0.042198304 0.034568101 0.054763179 0.99785209 0.043146711 -0.04928996 0
-0.06866309 0.04512798 0.05509638 -0.97413862 0.21786718 -0.05989904 0
0.039562728 0.048488412 0.054100636 0.95656097 0.28543907 -0.059292454 0
0.041013345 0.043634258 0.055782679 0.9696039 0.23628004 -0.063561335 0
-0.065667972 0.054607868 0.054406818 -0.92093772 0.38539103 -0.057857595 0
0.037107509 0.055205077 0.054759897 0.91042566 0.41056395 -0.050621171 0
-0.06149457 0.062964663 0.055359393 -0.84344256 0.53372663 -0.061159763 0
-0.058148336 0.067700714 0.055435177 -0.77825487 0.62538838 -0.056644939 0
0.028408319 0.068489872 0.054915581 0.80027974 0.59470379 -0.076678552 0
0.032419723 0.06307137 0.055016104 0.80700779 0.58617151 -0.071704216 0
-0.052947067 0.073261641 0.05484993 -0.69545412 0.71560001 -0.065269031 0
-0.047135774 0.0778675 0.055120744 -0.54630595 0.83523363 -0.062725626 0
0.017285772 0.078527272 0.055296332 0.55190825 0.83285308 -0.041869286 0
0.023436844 0.07358449 0.055094577 0.66169882 0.74896687 -0.034687776 0
-0.041657124 0.081442855 0.055238478 -0.53116441 0.84504241 -0.061381452 0
-0.035306606 0.084382467 0.054772865 -0.36612391 0.92869198 -0.059029136 0
-0.024737408 0.087503016 0.054395005 -0.1805498 0.98157519 -0.062544361 0
-0.014623811 0.088420153 0.054844327 -0.042133827 0.99733782 -0.05951428 0
-0.0045946068 0.087773688 0.055786319 0.21290486 0.97545952 -0.056128327 0
0.0050346693 0.084833741 0.054948889 0.35132891 0.93471295 -0.053662002 0
0.012650179 0.081241883 0.054468036 0.49937874 0.8652609 -0.044095278 0
-0.032384194 -0.020951375 0.064903386 -0.35684708 -0.93307382 -0.045093846 0
-0.025402768 -0.022693496 0.065004043 -0.17875338 -0.98264956 -0.049467541 0
-0.015234081 -0.023729503 0.065237001 -0.018322144 -0.99833804 -0.054638609 0
-0.0041543655 -0.022856057 0.065095328 0.17314462 -0.98383087 -0.045801375 0
0.0036100454 -0.020950444 0.065163292 0.31267577 -0.94854462 -0.04997012 0
-0.050606955 -0.010652439 0.066080555 -0.6605916 -0.74912518 -0.049296804 0
-0.045072 -0.014541793 0.065089226 -0.5545131 -0.83067781 -0.049896799 0
-0.036820915 -0.019094931 0.063929833 -0.38173148 -0.92318672 -0.044803545 0
0.0080161262 -0.019406212 0.064974636 0.34296086 -0.93811882 -0.048073001 0
0.015026108 -0.015670609 0.065041155 0.51729989 -0.85474914 -0.042481467 0
0.022332912 -0.011199401 0.06546966 0.55513483 -0.83036476 -0.048161883 0
-0.06004744 -0.00016567315 0.064140029 -0.81980354 -0.57069761 -0.047184933 0
-0.056217145 -0.004806174 0.064869136 -0.74361682 -0.66696531 -0.046811666 0
0.026807347 -0.0067795482 0.064053781 0.74064529 -0.66919333 -0.060206089 0
0.03151501 -0.0016888365 0.065952346 0.76553297 -0.64094442 -0.056121331 0
-0.063119121 0.0048066187 0.065444201 -0.87216747 -0.48646948 -0.051683843 0
0.035356086 0.0041539413 0.06523291 0.8659687 -0.49779871 -0.047902476 0
-0.067553096 0.014788139 0.064700812 -0.95061916 -0.30582273 -0.052873861 0
0.039023839 0.012115243 0.063779309 0.9237991 -0.37883067 -0.055520646 0
0.040833324 0.017110001 0.065013245 0.96868968 -0.2406397 -0.061096806 0
-0.070385106 0.027173117 0.064710021 -0.99042982 -0.12658346 -0.055004969 0
-0.069428317 0.02235187 0.064282462 -0.9734059 -0.22309981 -0.052032746 0
0.042192467 0.024904851 0.065202802 0.9865979 -0.15284851 -0.057112549 0
-0.070475243 0.035200164 0.064704254 -0.99855852 0.032792561 -0.042492598 0
0.042583466 0.035484396 0.06490425 0.99517173 0.088811748 -0.041782163 0
-0.070253879 0.041366264 0.068006113 -0.98194915 0.17772608 -0.06472531 0
-0.069159217 0.045765292 0.065016732 -0.97212434 0.22613949 -0.061928533 0
0.039836049 0.049409669 0.0641082 0.95285481 0.29887569 -0.052354913 0
0.041448418 0.044082575 0.06507162 0.97100961 0.23354363 -0.050967675 0
-0.066014737 0.05541971 0.065096609 -0.91995144 0.3881726 -0.054875847 0
0.037654489 0.05524921 0.064918198 0.91522151 0.40022007 -0.046834845 0
-0.061757173 0.063671805 0.065328591 -0.83750594 0.54315597 -0.05971124 0
-0.058357939 0.068407737 0.065688841 -0.76024431 0.64724213 -0.055732846 0
0.029184375 0.06882447 0.065805137 0.77583861 0.62737072 -0.066935077 0
0.032600898 0.064006343 0.065381229 0.82388115 0.56321526 -0.063312672 0
-0.053670797 0.073367171 0.065024033 -0.69586194 0.71593344 -0.056705397 0
-0.047525432 0.078387551 0.065364912 -0.54762322 0.83431858 -0.06341356 0
0.017836872 0.078757368 0.064281613 0.52025169 0.85204649 -0.057922214 0
0.023914492 0.073795155 0.065396108 0.66919291 0.73838866 -0.083445244 0
-0.042480994 0.081656143 0.065422937 -0.5278675 0.84713578 -0.06096622 0
-0.034991864 0.08514639 0.06473688 -0.35875705 0.93157113 -0.058894847 0
-0.024731776 0.088108562 0.064857028 -0.1816501 0.98179066 -0.055589985 0
-0.014968324 0.089048222 0.064971954 -0.035622071 0.99736685 -0.063169606 0
-0.0051213908 0.088375546 0.065065339 0.20096618 0.97863901 -0.043339588 0
0.0048406469 0.085492693 0.065431587 0.34701997 0.93631947 -0.053694468 0
0.012690603 0.081872873 0.065487891 0.5141654 0.85548526 -0.061472293 0
-0.032960262 -0.02121135 0.07501933 -0.35946199 -0.93203551 -0.045791399 0
-0.02522043 -0.023223674 0.075239919 -0.16236755 -0.98558939 -0.047436617 0
-0.015585865 -0.024219541 0.074879117 -0.031737138 -0.99851322 -0.044317786 0
-0.0051268432 -0.023484811 0.075022094 0.16699252 -0.98492485 -0.045126785 0
0.004238754 -0.02128236 0.075523555 0.30069995 -0.95244133 -0.04934651 0
-0.050886698 -0.011007293 0.07540594 -0.64158684 -0.76556766 -0.047671251 0
-0.04507741 -0.01515644 0.075513586 -0.55323684 -0.83161509 -0.0484288 0
-0.037995987 -0.019192446 0.07548181 -0.39557269 -0.9172982 -0.045675911 0
0.0086426856 -0.019682266 0.074579194 0.3445752 -0.93741786 -0.05015621 0
0.01461204 -0.016439406 0.074789405 0.51308447 -0.85691333 -0.049435392 0
0.022190779 -0.011848385 0.074975953 0.55985427 -0.82683724 -0.053882174 0
-0.060412265 -0.00053592271 0.074964426 -0.81948388 -0.57116872 -0.047036614 0
-0.056481935 -0.0052404711 0.075020559 -0.74532545 -0.6651094 -0.046037316 0
0.027389379 -0.0071186586 0.07518848 0.73196477 -0.67895311 -0.057010856 0
0.031643327 -0.0022386406 0.074581437 0.78240925 -0.6205129 -0.052910101 0
-0.063460946 0.0043829689 0.075093456 -0.86656064 -0.4964835 -0.050762445 0
0.036571257 0.0052553695 0.075562581 0.87729621 -0.47723612 -0.050961785 0
-0.068174526 0.015023818 0.075013645 -0.95630336 -0.28754863 -0.052911188 0
0.03941844 0.01141909 0.075038984 0.92374235 -0.37892625 -0.055810776 0
0.041156836 0.015960418 0.076172061 0.95450962 -0.29301471 -0.055261739 0
-0.070823632 0.026256774 0.075360544 -0.99116063 -0.12125365 -0.053834897 0
-0.069759876 0.02130132 0.07419911 -0.97608787 -0.20974523 -0.057092037 0
0.042805389 0.024833227 0.07498388 0.9883312 -0.13729556 -0.065963946 0
-0.070925891 0.034996852 0.075034447 -0.99837679 0.032082755 -0.047058005 0
0.04326307 0.034153134 0.075069539 0.99630713 0.058337457 -0.062998228 0
-0.070416518 0.042590365 0.0746549 -0.98478657 0.16416007 -0.056982059 0
-0.069359526 0.047563013 0.074846454 -0.96259886 0.2652047 -0.05540587 0
0.041666124 0.04512186 0.074808851 0.96677005 0.25057039 -0.050696708 0
-0.066920854 0.054534867 0.074616343 -0.92645639 0.37247699 -0.05421536 0
0.038114686 0.055416208 0.074897125 0.90826982 0.41545898 -0.049394771 0
0.040225863 0.050556466 0.077914529 0.95410442 0.29531458 -0.049740285 0
-0.062296871 0.063839674 0.074823849 -0.84073722 0.53838521 -0.057465315 0
-0.058934178 0.068502247 0.074248515 -0.76834363 0.63757592 -0.056078639 0
0.029582294 0.069642879 0.075974859 0.80692273 0.58606362 -0.073520057 0
0.033925861 0.065891884 0.074898012 0.91111672 0.41197968 0.011791456 0
-0.053126447 0.074686185 0.075162433 -0.67131931 0.73911321 -0.055154711 0
-0.048162218 0.07874433 0.075550325 -0.54772967 0.83424449 -0.063469194 0
0.018684328 0.078921847 0.074832387 0.47585577 0.87345952 -0.10310052 0
0.025869349 0.07559032 0.074663311 0.46610734 0.84237093 -0.27047223 0
0.034677118 0.07473468 0.077145763 0.79528695 -0.29875255 -0.5275088 0
0.040942021 0.07357572 0.079444237 0.68382555 -0.035446644 -0.72878402 0
-0.043037459 0.081992291 0.075120822 -0.52106953 0.85137123 -0.060443997 0
-0.03446744 0.086019412 0.075328089 -0.34457773 0.93691611 -0.058773134 0
-0.024755105 0.088668741 0.074866191 -0.17980823 0.98210251 -0.056067862 0
-0.014903509 0.089580499 0.07409656 -0.024000207 0.99838108 -0.051567446 0
-0.0052724658 0.088757113 0.074689046 0.1633195 0.98607993 -0.031194555 0
0.0049890853 0.086006172 0.075092807 0.35067481 0.93493032 -0.054152574 0
0.013531298 0.082046762 0.075063974 0.49813157 0.86506546 -0.05938518 0
0.026690144 0.082445033 0.076592013 -0.73453891 0.63333583 0.2435943 0
0.032793179 0.082448199 0.078612387 0.35174608 0.42314538 -0.83499867 0
-0.013589726 0.090031505 0.079370879 0.028876036 0.9981674 -0.05318024 0
-0.032933231 -0.021704188 0.085520312 -0.32762331 -0.94388288 -0.041810673 0
-0.024866035 -0.023712596 0.084317647 -0.16653177 -0.98502421 -0.044659674 0
-0.014732985 -0.024710422 0.08533515 -0.0095615033 -0.99887502 -0.046447691 0
-0.0051619434 -0.023932865 0.08459805 0.16255857 -0.9856236 -0.04605256 0
0.0046569719 -0.021647805 0.085305825 0.29850906 -0.95313615 -0.049231842 0
-0.051344786 -0.011194099 0.084752493 -0.63066369 -0.77464753 -0.046738956 0
-0.044666249 -0.015945738 0.084815219 -0.53436309 -0.84398025 -0.046404298 0
-0.038751479 -0.019303579 0.084462963 -0.42056856 -0.90624553 -0.042907678 0
0.0094806431 -0.019802421 0.082442902 0.34379879 -0.93762642 -0.051565375 0
0.015452174 -0.016618937 0.085331775 0.50079274 -0.8636921 -0.056942757 0
0.022501132 -0.01229935 0.08560776 0.57257062 -0.818165 -0.052620098 0
-0.060621712 -0.00097625749 0.084013879 -0.81863016 -0.57242399 -0.046641011 0
-0.056529075 -0.0058650868 0.084618263 -0.74660534 -0.66366726 -0.046111245 0
0.027463801 -0.007794491 0.084991388 0.70473647 -0.7078644 -0.047691565 0
0.031934321 -0.0027565768 0.08519356 0.79660231 -0.60234982 -0.050984688 0
-0.064403176 0.0050270306 0.085273392 -0.87225294 -0.48647413 -0.050176509 0
0.037131749 0.0053614117 0.085160941 0.8797037 -0.47259465 -0.052683458 0
-0.070128851 0.019217661 0.088162489 -0.97608781 -0.2097452 -0.057092037 0
-0.068710834 0.015045418 0.084499367 -0.95320547 -0.29797485 -0.051090449 0
0.039726291 0.010538877 0.086110458 0.92374247 -0.37892616 -0.055810779 0
0.041598655 0.015939096 0.084938884 0.95510769 -0.29125264 -0.054231443 0
-0.071110979 0.024859667 0.085738577 -0.98760885 -0.14670013 -0.055747837 0
-0.069990613 0.020442698 0.081298456 -0.97608787 -0.20974521 -0.057092033 0
0.043511901 0.025305664 0.084858254 0.99140316 -0.11624853 -0.060050666 0
-0.071480416 0.034361985 0.084736533 -0.99788576 0.029510671 -0.057906512 0
0.043847982 0.034750685 0.084769681 0.99650162 0.057617802 -0.060536683 0
-0.070725217 0.043819666 0.084826723 -0.98186481 0.18197373 -0.053169604 0
-0.069715127 0.048342023 0.084005192 -0.96568346 0.25391468 -0.054614466 0
0.042139888 0.045280401 0.08486785 0.96535158 0.25596476 -0.050777707 0
-0.067300268 0.055171125 0.085351884 -0.92636538 0.3726154 -0.054817349 0
0.038285483 0.056575418 0.085262872 0.89102769 0.44959107 -0.062749937 0
0.040433597 0.051317744 0.085547343 0.95782578 0.28051886 -0.062281121 0
-0.062720321 0.064175002 0.084800936 -0.8422184 0.53628647 -0.05536183 0
-0.059322733 0.06898088 0.084636308 -0.73479176 0.6760897 -0.054623283 0
0.029893786 0.069811337 0.080982156 0.82318306 0.56431812 -0.062568255 0
0.033408791 0.065087616 0.085335635 0.83989763 0.53895545 -0.064023495 0
-0.054352738 0.074222721 0.085376367 -0.69517136 0.71681011 -0.054036666 0
-0.048742332 0.079075806 0.085053675 -0.56352782 0.82390428 -0.060151789 0
0.019033691 0.079364903 0.084351934 0.53056866 0.84540105 -0.0615963 0
0.02634727 0.074714713 0.084965676 0.471241 0.87528008 -0.10870487 0
0.033468489 0.076828569 0.085101917 0.6015504 -0.77557427 0.19136798 0
0.043980353 0.077187866 0.082646608 0.17311203 -0.77879161 0.60292274 0
-0.043859437 0.082227953 0.085565783 -0.51923162 0.85250825 -0.060235381 0
-0.035252452 0.086284354 0.084239066 -0.35041481 0.93477643 -0.058330961 0
-0.02489868 0.089203224 0.084462367 -0.17679283 0.98263419 -0.056341436 0
-0.016269106 0.089887649 0.082434215 -0.0043114233 0.99830908 -0.057968382 0
-0.0051248032 0.089193545 0.085195713 0.15538162 0.98627627 -0.055817697 0
0.005264129 0.086509146 0.085284114 0.35203311 0.93437487 -0.054921716 0
0.014234785 0.082280122 0.084865034 0.4833329 0.87335426 -0.06034603 0
0.036116786 0.084665626 0.083444349 -0.72956222 0.67440861 0.11363117 0
0.044335127 0.08465822 0.086457826 0.66507131 0.10507489 -0.73935062 0
0.05054212 0.082607597 0.088896073 0.74030685 -0.67204159 -0.017492894 0
-0.021118879 0.090082951 0.0891921 -0.072126076 0.99580884 -0.056235705 0
-0.01502216 0.090237178 0.085777551 -0.016276728 0.99846697 -0.052903425 0
-0.0094407713 0.090062618 0.088803068 0.14944185 0.98684889 -0.061615407 0
0.037443239 0.0928367 0.086043514 -0.61887074 0.7847811 0.033430677 0
0.042404849 0.091880396 0.088235527 0.34802011 0.57433939 -0.74095631 0
-0.034243595 -0.021638667 0.094782822 -0.34114227 -0.93904126 -0.04270222 0
-0.025284406 -0.024105433 0.09495151 -0.18214442 -0.98228025 -0.044146739 0
-0.014488203 -0.025165984 0.094862364 0.00063544116 -0.99890661 -0.046746563 0
-0.0042845411 -0.024258655 0.094466813 0.18363214 -0.98182374 -0.047972295 0
0.00530951 -0.021905333 0.094719388 0.31251979 -0.94866842 -0.048575908 0
0.010203931 -0.02017583 0.096051574 0.42054203 -0.90621442 -0.04381698 0
-0.051838443 -0.011375814 0.09442836 -0.6309393 -0.77443868 -0.046478704 0
-0.045212403 -0.016175313 0.095173419 -0.53532106 -0.84343612 -0.045240983 0
-0.0392159 -0.019503793 0.093437985 -0.44114512 -0.89651799 -0.040577389 0
0.01508007 -0.017464567 0.095116533 0.48969755 -0.87025285 -0.05344465 0
0.0224034 -0.013010191 0.095725082 0.59846592 -0.79958844 -0.049967047 0
-0.061178166 -0.0010670677 0.09489499 -0.81863016 -0.57242399 -0.046641003 0
-0.056597669 -0.0064983191 0.094813317 -0.7407164 -0.67022902 -0.046177614 0
0.028009254 -0.0079291295 0.095210038 0.68651789 -0.72592038 -0.041627232 0
0.032135803 -0.0032927208 0.094958656 0.80498439 -0.59118372 -0.050019406 0
-0.064783171 0.0046999562 0.095043369 -0.87129003 -0.48827851 -0.049374387 0
0.03756649 0.0049445657 0.095300794 0.87459856 -0.48214424 -0.05112949 0
-0.070319496 0.018176878 0.095440336 -0.97110498 -0.2320786 -0.055628929 0
-0.068560287 0.012887645 0.095195137 -0.94082302 -0.33511186 -0.050517194 0
0.039905749 0.010204809 0.091348924 0.92374247 -0.37892616 -0.055810776 0
0.041618779 0.014342632 0.09467683 0.94595414 -0.31988049 -0.053360213 0
-0.07156688 0.024416858 0.095300615 -0.98568988 -0.16047573 -0.05160398 0
0.044033628 0.024777973 0.094621904 0.99140763 -0.11829497 -0.055830747 0
-0.072054468 0.035006832 0.094961278 -0.99789816 0.029252945 -0.057822797 0
0.044350099 0.035080608 0.094685242 0.99649096 0.066326678 -0.051053841 0
-0.071082436 0.044766221 0.095214613 -0.98067582 0.18840966 -0.052694879 0
-0.06987828 0.049729034 0.093760237 -0.93271226 0.35621375 -0.056211479 0
0.042739417 0.045187946 0.094665699 0.97064579 0.23298162 -0.059718974 0
-0.070027605 0.050189048 0.099153116 -0.93271226 0.35621375 -0.056211479 0
-0.067909405 0.055084202 0.094981767 -0.92651713 0.37214121 -0.055469748 0
0.038772069 0.056990769 0.095238879 0.88776898 0.45629346 -0.060519036 0
0.040773191 0.052430496 0.095593356 0.9485938 0.30981508 -0.064687058 0
-0.06348455 0.063977286 0.094928101 -0.84194815 0.53700763 -0.0524025 0
-0.059675638 0.069408238 0.094721556 -0.72672325 0.68478358 -0.054264799 0
0.034047205 0.065285139 0.095236473 0.84824187 0.52572954 -0.063985251 0
-0.054626469 0.074611627 0.09447208 -0.69553328 0.71646839 -0.053911995 0
-0.048929684 0.079594716 0.094059266 -0.57932454 0.81311768 -0.056767736 0
0.019449314 0.079784676 0.093625523 0.53356141 0.84339017 -0.063286617 0
0.025486151 0.077112488 0.095545173 0.34668484 0.93681729 -0.046722233 0
0.033482909 0.075297512 0.096256301 0.83193064 -0.53385079 0.15130991 0
0.042485811 0.078054979 0.09837842 0.43494117 -0.10823327 -0.89393044 0
-0.044127662 0.082726136 0.095093332 -0.51505482 0.85509771 -0.059382718 0
-0.034894653 0.087057583 0.094602667 -0.33901086 0.93899935 -0.057894513 0
-0.026846522 0.089455113 0.094535142 -0.20345649 0.97743738 -0.056759793 0
-0.0033276137 0.089511134 0.094836228 0.15850163 0.9854328 -0.061639167 0
0.0054911054 0.087013364 0.094899401 0.3600516 0.93103468 -0.059475172 0
0.015311307 0.082396172 0.095163569 0.48931739 0.86967075 -0.065125957 0
0.028362267 0.080039255 0.099352002 -0.1104505 0.59025168 0.79962718 0
0.036704894 0.082380779 0.096199125 -0.70706654 0.70516485 0.05291013 0
0.043913707 0.086378485 0.095107719 0.35731837 -0.83842385 0.41154465 0
0.053716265 0.087137923 0.09397167 0.88977557 -0.43783355 -0.12884592 0
-0.021916021 0.090324812 0.095799051 -0.10730502 0.9926089 -0.056684412 0
-0.01482327 0.090705737 0.095117666 -0.0073316824 0.99857974 -0.052770529 0
-0.0071288096 0.090196498 0.096608892 0.14425805 0.98769909 -0.060333323 0
0.039522689 0.09636157 0.090296999 -0.32347685 0.91182232 -0.2528694 0
0.045564584 0.095164582 0.094929799 -0.93584317 0.27364174 0.22207616 0
0.053400829 0.092396043 0.097727366 0.73611653 0.27910927 -0.61662835 0
0.045652121 0.10049107 0.098686576 -0.11848217 0.8953203 -0.42937583 0
-0.03502455 -0.02179946 0.10554719 -0.3568531 -0.93325102 -0.041212853 0
-0.025456825 -0.024524413 0.10471894 -0.20322514 -0.9780153 -0.046752244 0
-0.014969902 -0.025672292 0.10531324 -0.011281556 -0.99881673 -0.04730593 0
-0.0045999521 -0.02482634 0.10480993 0.16478066 -0.98515844 -0.048063796 0
0.0051064664 -0.022475867 0.10498744 0.29330224 -0.95485163 -0.047245909 0
0.010893789 -0.020322623 0.10570858 0.42054203 -0.90621436 -0.043816969 0
-0.052228324 -0.011680538 0.10555534 -0.63995409 -0.76708668 -0.045130841 0
-0.044795953 -0.016963419 0.10485922 -0.52451026 -0.85027236 -0.043884184 0
-0.039716043 -0.019768463 0.10472298 -0.44114506 -0.89651799 -0.040577378 0
0.016252482 -0.017383026 0.10452773 0.49402177 -0.8678444 -0.052805576 0
0.023375647 -0.012733247 0.10572959 0.63596773 -0.77044487 -0.044268113 0
-0.061226454 -0.0018501874 0.10540202 -0.8044464 -0.59210634 -0.04770869 0
-0.05718546 -0.0065547023 0.10501724 -0.7393617 -0.67168832 -0.046682302 0
0.027863465 -0.0085617378 0.10464073 0.68326479 -0.72931141 -0.035412431 0
0.032608684 -0.0034321772 0.10482161 0.79368091 -0.6066367 -0.045414835 0
-0.065441176 0.0048246328 0.10521042 -0.87283331 -0.48558956 -0.048629463 0
0.037902474 0.0046301777 0.10419018 0.86854452 -0.49304342 -0.05038451 0
0.040391915 0.0093490891 0.10535096 0.92031431 -0.38732517 -0.054779869 0
-0.070677459 0.017549226 0.10548376 -0.95995981 -0.27492741 -0.053777877 0
-0.06887605 0.012282552 0.10469304 -0.94438374 -0.32426167 -0.054714724 0
0.042542629 0.015398839 0.10493046 0.95305502 -0.29827875 -0.052115541 0
-0.072174147 0.025178937 0.1049298 -0.9887144 -0.14134596 -0.049649358 0
0.04460831 0.025540927 0.10455251 0.9943468 -0.092390664 -0.052330296 0
-0.072586916 0.034719381 0.10401147 -0.99791116 0.02898219 -0.05773484 0
0.044910554 0.034530122 0.10444039 0.99769211 0.038978286 -0.055597298 0
-0.071726665 0.044187784 0.10544082 -0.97951186 0.19476944 -0.051198855 0
0.043323185 0.045439199 0.10477474 0.97089833 0.23120379 -0.062459316 0
-0.07022202 0.050774563 0.10608936 -0.93271214 0.35621372 -0.056211475 0
-0.068381131 0.055345289 0.1044966 -0.92988116 0.36360443 -0.055791736 0
0.039064769 0.057609618 0.10421177 0.88792872 0.45600045 -0.060383599 0
0.041347828 0.05250122 0.1050083 0.94273365 0.32729638 -0.064267986 0
-0.063637652 0.064729966 0.10549049 -0.83537495 0.54731923 -0.050894074 0
-0.059936013 0.069829069 0.10352637 -0.72570503 0.68589401 -0.053866521 0
0.034843225 0.065219291 0.10551315 0.84320796 0.53394467 -0.062476367 0
-0.054954719 0.075076185 0.10471256 -0.69737804 0.71459675 -0.054913282 0
-0.049601238 0.07969369 0.10272457 -0.59229428 0.80382878 -0.05519712 0
0.025162803 0.076341353 0.10471048 0.64089394 0.7675969 -0.0070620338 0
0.030779779 0.070838004 0.10559486 0.73111075 0.67972666 -0.058726382 0
0.046003036 0.079771422 0.10130981 -0.2818574 -0.82309866 0.49301627 0
-0.0450073 0.082894318 0.10563331 -0.51955259 0.8524397 -0.058408991 0
-0.034706157 0.087786347 0.10521209 -0.33509517 0.94028753 -0.05975502 0
-0.028465647 0.089710057 0.10444359 -0.24556826 0.96769762 -0.057074733 0
-0.0011825819 0.089678735 0.10277382 0.18768118 0.98029143 -0.061680548 0
0.0051929415 0.087725416 0.10420024 0.35027513 0.93457294 -0.062295802 0
0.015135852 0.083203301 0.10494009 0.48145473 0.87408072 -0.06468644 0
0.020330096 0.080302529 0.10751594 0.53803492 0.84034884 -0.065820232 0
0.038293798 0.087100975 0.10211682 -0.93631923 -0.2770305 0.21577853 0
0.044509899 0.085305981 0.10463263 0.20368563 -0.95447838 0.21790661 0
0.058286626 0.089912012 0.10065033 -0.060634341 -0.94756764 0.31374991 0
-0.023420865 0.090671666 0.10562971 -0.13269983 0.98946637 -0.057852812 0
-0.014889709 0.091236703 0.10515307 0.0015639818 0.99848324 -0.055033561 0
-0.006412209 0.090620838 0.10561768 0.13189626 0.98960763 -0.057273015 0
0.037838276 0.090967409 0.10517677 -0.30495501 0.93320465 -0.19008283 0
0.046723403 0.093070388 0.10474754 -0.67704564 0.73585755 0.011084744 0
0.055104181 0.095206797 0.10508306 0.97674775 -0.075070202 -0.20081933 0
0.060727131 0.093006678 0.10734885 0.97551346 0.07936129 -0.20512266 0
0.04829374 0.10227421 0.10395025 -0.89425975 0.44188607 0.070965573 0
0.051872957 0.10217494 0.10699476 0.54344004 0.72257763 -0.42726403 0
-0.040247478 -0.020179365 0.11872287 -0.44116721 -0.89621711 -0.04654403 0
-0.035292823 -0.022110296 0.11507262 -0.36426315 -0.93018872 -0.045401599 0
-0.025324879 -0.025073104 0.11562853 -0.20417075 -0.97780138 -0.047104005 0
-0.014809622 -0.026074653 0.11486111 0.0034156956 -0.99890143 -0.046735942 0
-0.005069532 -0.025344217 0.11453863 0.15462801 -0.98681659 -0.047783859 0
0.004880283 -0.023044225 0.1150043 0.30152223 -0.95220596 -0.048869215 0
0.011080769 -0.020687144 0.11504211 0.42054209 -0.90621436 -0.04381698 0
-0.052402679 -0.012081518 0.11489549 -0.63570684 -0.77043891 -0.047965031 0
-0.045215569 -0.017161865 0.11400577 -0.52237618 -0.85149348 -0.045628365 0
0.016382322 -0.01797374 0.11558945 0.48601231 -0.87245673 -0.051101591 0
0.023704143 -0.013043934 0.11498839 0.65502322 -0.75414157 -0.047065347 0
-0.06159398 -0.0021297687 0.11499202 -0.79792309 -0.6007067 -0.049702115 0
-0.057497997 -0.0069596833 0.11551832 -0.73970902 -0.67102623 -0.050541144 0
0.028343851 -0.0085920095 0.11424773 0.69278449 -0.71988165 -0.042663258 0
0.032885157 -0.0037657665 0.11513792 0.7822662 -0.62164295 -0.040245637 0
-0.066196032 0.0052200039 0.11508354 -0.87760329 -0.4769378 -0.048402589 0
0.037972879 0.0035568774 0.11486988 0.86130071 -0.50569141 -0.049369104 0
0.040528275 0.0085668694 0.11409085 0.90385985 -0.42488945 -0.050062653 0
-0.071111925 0.017253159 0.11503172 -0.96338016 -0.26258564 -0.054290373 0
-0.069264606 0.011666211 0.11492228 -0.94505012 -0.32217696 -0.05551815 0
0.042775609 0.014451804 0.11533267 0.9508689 -0.30541396 -0.050701398 0
-0.072718665 0.025397576 0.11504315 -0.98923314 -0.13679804 -0.051999673 0
0.045086581 0.024757812 0.11493448 0.99266982 -0.10960516 -0.050924998 0
-0.073172539 0.035350848 0.11457998 -0.99780041 0.036112681 -0.055589277 0
0.045459062 0.034962691 0.11481366 0.997226 0.049237803 -0.055820808 0
-0.072119251 0.044618528 0.11439481 -0.98091948 0.18766505 -0.050781179 0
0.043983161 0.045226634 0.11452948 0.9735375 0.22020537 -0.061108116 0
-0.070518829 0.051468898 0.11541459 -0.9327122 0.35621366 -0.056211468 0
-0.068748973 0.056020509 0.11490169 -0.93153799 0.35929331 -0.056082677 0
0.039186083 0.058682781 0.11409988 0.88792878 0.45600039 -0.060383596 0
0.041640107 0.053475477 0.11498185 0.92948943 0.3633723 -0.06332428 0
-0.064061984 0.064965963 0.11463185 -0.83861959 0.54183614 -0.055952843 0
0.035657719 0.065069474 0.1149503 0.84617108 0.52971339 -0.058294449 0
-0.060594112 0.070377134 0.11776312 -0.73806453 0.67176998 -0.063132711 0
-0.055265654 0.075619511 0.11492004 -0.69152331 0.7194674 -0.064515099 0
0.025462963 0.076800287 0.11439607 0.65364057 0.75451112 -0.058881469 0
0.031000251 0.071453869 0.11561815 0.73956138 0.67069632 -0.056704115 0
-0.050338276 0.080144465 0.11607957 -0.59542745 0.8010571 -0.061430246 0
-0.04556822 0.083202481 0.11511983 -0.52901232 0.84658903 -0.058591381 0
-0.035421614 0.088116795 0.11458857 -0.33596846 0.93993628 -0.060374375 0
-0.029671673 0.089802139 0.11121251 -0.28653914 0.95635474 -0.057280492 0
0.0053726579 0.088384725 0.11522892 0.34806165 0.93546438 -0.061314389 0
0.015304279 0.083832949 0.11465389 0.48257592 0.87354118 -0.063610002 0
0.020583021 0.08058469 0.11318588 0.53803486 0.84034884 -0.065820225 0
0.047793768 0.087391682 0.11304294 -0.11570927 -0.86443043 0.48925605 0
0.051401254 0.085925981 0.11679231 0.95357311 -0.10845838 -0.28095406 0
-0.030232711 0.0900985 0.11893572 -0.28440517 0.95695853 -0.057828538 0
-0.024933679 0.090948135 0.11480607 -0.15895098 0.98557901 -0.058039539 0
-0.015250768 0.091787666 0.1153939 0.011256803 0.99819911 -0.0589226 0
-0.005042647 0.09097755 0.11511275 0.13700499 0.9889012 -0.057480387 0
0.00087127159 0.090191551 0.11879534 0.31928664 0.94568163 -0.061174955 0
0.039589126 0.093350112 0.110617 0.25240278 0.86714083 -0.42937127 0
