# .PCD v0.7 - Point Cloud Data file format
VERSION 0.7
FIELDS x y z normal_x normal_y normal_z curvature
SIZE 4 4 4 4 4 4 4
TYPE F F F F F F F
COUNT 1 1 1 1 1 1 1
WIDTH 370
HEIGHT 1
VIEWPOINT 0 0 0 1 0 0 0
POINTS 370
DATA ascii
-0.071197428 -0.050885458 -0.0015458682 -0.57945281 -0.76276284 -0.28710157 0
-0.06516578 -0.052045166 -0.0019507626 -0.075670265 -0.55352128 -0.82939029 0
-0.054936085 -0.051964637 -0.0015713206 0.093194447 -0.72782183 -0.67940426 0
-0.044855952 -0.051358219 -0.0016919223 0.051716268 -0.82404739 -0.5641554 0
-0.035106372 -0.050853774 -0.001625631 0.05774067 -0.93577945 -0.34782571 0
-0.025562622 -0.050541207 -0.0012074045 0.038955942 -0.95167714 -0.30461958 0
-0.015918769 -0.050261974 -0.0010856652 0.052079305 -0.98107648 -0.1864848 0
-0.0089336159 -0.050085951 -0.00023708485 0.095239602 -0.97243232 -0.21284944 0
-0.074181743 -0.04469857 -0.0017780813 -0.24481514 -0.16174617 -0.9559831 0
-0.065025173 -0.045007981 -0.0012498022 0.040485125 0.14303811 -0.98888886 0
-0.055333704 -0.044906545 -0.0010891111 0.0078139454 0.17178434 -0.98510361 0
-0.045185719 -0.04494502 -0.0010662788 -0.0010647285 0.18662608 -0.98243046 0
-0.035120033 -0.045209095 -0.0012094706 -0.016849896 0.23381485 -0.97213513 0
-0.025414562 -0.045118634 -0.0013513153 -0.0086512882 0.18180308 -0.98329687 0
-0.014808344 -0.04497917 -0.0014165455 -0.011233388 0.14837492 -0.98886746 0
-0.0049533686 -0.045514874 -0.0014876549 0.0098270085 -0.091356814 -0.99576974 0
0.004677665 -0.043831129 -0.0013422394 0.092557631 -0.11057554 -0.98954844 0
0.011085683 -0.041733664 -0.00064492098 0.5172869 -0.32334852 -0.79237622 0
-0.075504556 -0.03487106 -0.0016610026 -0.068712391 0.010488588 -0.99758142 0
-0.065140866 -0.035048477 -0.0007548178 0.059946857 0.0054560667 -0.99818665 0
-0.054971017 -0.035247676 -0.00038420406 0.017287498 0.032605208 -0.99931878 0
-0.045050498 -0.034969103 -0.00023083473 0.012965818 0.039382175 -0.99914014 0
-0.035012841 -0.035890695 -0.00018928455 0.0011626891 0.054659531 -0.9985044 0
-0.025238771 -0.035239682 -0.0001934278 -0.0080236597 0.047751158 -0.99882704 0
-0.014848343 -0.035164367 -0.00036199382 -0.021843735 0.042594902 -0.99885356 0
-0.0050238892 -0.035127349 -0.00059376063 -0.027521988 0.039797794 -0.99882859 0
0.0050611347 -0.03487201 -0.00092763716 -0.037192293 0.035365339 -0.99868214 0
0.012621537 -0.034565039 -0.00097944762 0.24845691 -0.056239836 -0.96700895 0
-0.080441959 -0.023445958 -0.00060497882 -0.87264013 -0.06132447 -0.48449832 0
-0.075288393 -0.025154205 -0.0013084966 -0.024436772 0.049981911 -0.99845111 0
-0.064968035 -0.025221983 -0.00078987837 0.056859434 -0.0075087571 -0.9983539 0
-0.054852281 -0.025050575 -0.0003285298 0.034127168 -0.010760638 -0.99935961 0
-0.045341346 -0.02509295 -0.00011093514 0.01628175 -0.011582018 -0.99980032 0
-0.037363093 -0.021976961 -3.6831305e-05 0.013342788 -0.026727011 -0.99955374 0
-0.022792656 -0.023915848 -5.3241456e-05 -0.014756756 -0.017092736 -0.99974501 0
-0.014797945 -0.024925228 -0.00020252742 -0.028791089 -0.010789349 -0.99952716 0
-0.0050551249 -0.024862925 -0.00053693127 -0.038053047 -0.010622521 -0.9992193 0
0.0051093712 -0.02493546 -0.0010160267 -0.095790677 -0.027736325 -0.99501497 0
0.012835972 -0.025023695 -0.0017338296 0.31195861 -0.063706569 -0.9479574 0
-0.080515608 -0.017374119 -0.00037839735 -0.89823633 0.079886004 -0.43219173 0
-0.07523068 -0.015272226 -0.00090338197 -0.079138063 0.039011568 -0.99610001 0
-0.065088138 -0.014703547 -0.0009344928 0.037199631 -0.027917366 -0.99891782 0
-0.054950215 -0.014947133 -0.00059507234 0.024720954 -0.052114718 -0.99833512 0
-0.044563748 -0.015188079 -0.0004135707 0.0088044051 -0.053451296 -0.99853158 0
-0.035240326 -0.015038262 -0.00038076763 -0.00021640972 -0.063735507 -0.99796677 0
-0.02522311 -0.01467572 -0.00043400386 -0.0038860457 -0.062871918 -0.99801409 0
-0.014649929 -0.014833385 -0.0005349167 -0.022332238 -0.048786912 -0.99855947 0
-0.0046946411 -0.014881981 -0.00080902921 -0.027604606 -0.040516164 -0.99879748 0
0.0050952546 -0.014860784 -0.0014085262 -0.1387438 -0.059767392 -0.98852313 0
0.012361043 -0.015187931 -0.0019938436 0.54952294 0.091062628 -0.83050114 0
-0.07250566 -0.0079514701 -0.00077444769 -0.17863277 0.2786493 -0.94363385 0
-0.064704299 -0.0063683959 -0.0011302975 -0.066818148 0.15332739 -0.98591381 0
-0.054768495 -0.0051510353 -0.0015259988 -0.043733686 0.19812262 -0.97920108 0
-0.045315553 -0.0052567031 -0.001476813 0.0039966144 0.078850187 -0.99687856 0
-0.034845602 -0.0046058688 -0.0015419703 -0.0012006504 0.056756116 -0.9983874 0
-0.024899354 -0.0045607849 -0.0014249737 -0.017056523 0.14066945 -0.98990965 0
-0.015115622 -0.0044976426 -0.0014929491 -0.0086096246 -0.04623647 -0.9988935 0
-0.0051228679 -0.0048677046 -0.0015721732 -0.016444758 -0.17839997 -0.98382062 0
0.004472902 -0.0051879664 -0.0019810053 -0.016274348 0.062303368 -0.99792457 0
0.011230171 -0.0077593694 -0.0018905631 0.73953271 0.34106734 -0.5803141 0
-0.012509746 0.00024450646 -0.0011066134 -0.075961985 0.98219651 -0.17181344 0
-0.0046889945 0.00063451729 -0.0013516721 -0.046691623 0.97364831 -0.22322407 0
0.0011033748 0.00046471402 -0.0016193268 0.39356041 0.89806116 -0.19645976 0
-0.071563639 -0.050912276 0.005161236 -0.5376966 -0.84313363 -0.002838657 0
-0.064755067 -0.053006433 0.004960143 -0.12059928 -0.9926039 0.013904927 0
-0.055281281 -0.052879713 0.0050365012 0.074601695 -0.99720794 -0.0033076445 0
-0.044754952 -0.052115105 0.0048983581 0.071368292 -0.9970817 -0.027105322 0
-0.035118911 -0.051478837 0.0051500848 0.06071946 -0.99767381 -0.030986698 0
-0.02487486 -0.050892625 0.0052477531 0.053267598 -0.99856138 -0.0061457721 0
-0.014893574 -0.050366182 0.0049944622 0.054505959 -0.99851137 -0.0020496829 0
-0.0085702017 -0.050068542 0.0053252322 0.042937282 -0.99898458 0.013649782 0
-0.076511562 -0.045494214 0.0049552633 -0.84493375 -0.53424925 -0.025781933 0
-0.010772852 -0.049959607 0.0014660483 0.031584173 -0.99938428 0.015282402 0
-0.0039317999 -0.049770534 0.0049883113 0.084676102 -0.99634796 -0.01099201 0
0.004956651 -0.047693819 0.0049838587 0.39991167 -0.91470724 -0.058148965 0
0.011755862 -0.042460121 0.0045999959 0.82649082 -0.56065232 -0.050812356 0
-0.080225654 -0.03243348 0.0056073135 -0.99536955 -0.090589985 -0.032140486 0
-0.07955455 -0.037126858 0.0042164354 -0.98801798 -0.15211168 -0.026126426 0
-0.034515984 -0.03117761 4.2415952e-05 0.0042300131 0.039415061 -0.99921393 0
-0.028695159 -0.030872943 1.9409439e-05 -0.014639025 0.020191345 -0.99968892 0
0.014820839 -0.035008874 0.0050766603 0.98146844 -0.18942951 -0.028915608 0
-0.080715038 -0.024970679 0.0050865863 -0.99782836 -0.054158401 -0.03748839 0
-0.040366285 -0.027845025 1.2988033e-05 0.014695997 -0.0087929331 -0.99985337 0
-0.034520444 -0.025988393 5.7073172e-05 0.0069140168 -0.0096893162 -0.99992913 0
-0.026946925 -0.025777537 3.3036136e-05 -0.010116051 -0.0033132916 -0.99994338 0
0.014865612 -0.024822326 0.0051324139 0.99659067 0.075129136 -0.034098018 0
-0.080696039 -0.017208023 0.0049818321 -0.98962367 0.14268987 -0.016871689 0
-0.078846872 -0.011948524 0.0049989321 -0.86411518 0.50323755 -0.0075497553 0
0.013779044 -0.01504059 0.0049692583 0.98226148 0.1794242 -0.054491751 0
-0.074036375 -0.0066485973 0.0049111489 -0.61378539 0.78614008 -0.072465345 0
-0.065008074 -0.002962332 0.0051227356 -0.14437407 0.98879862 -0.037860837 0
-0.055238623 -0.0022872281 0.0050121103 -0.05461669 0.99850547 -0.0019247222 0
-0.044981848 -0.0017948765 0.0049720393 -0.04249154 0.99907506 -0.0066012121 0
-0.034832351 -0.0011979188 0.0050367028 -0.070540674 0.99750137 0.0038730951 0
-0.025078908 -0.00048658467 0.0047443025 -0.075512461 0.99602973 -0.047143158 0
-0.019083794 -9.8814678e-05 0.0031182473 -0.076480418 0.99645966 -0.034912221 0
0.0064784768 -0.0024952062 0.0050667422 0.58970398 0.80703235 -0.0307911 0
0.011609336 -0.0078163734 0.0046945582 0.8759985 0.48188034 0.020441581 0
-0.014267232 0.00026371542 0.0052919253 -0.055139828 0.99834585 -0.016283454 0
-0.0048910454 0.00086965651 0.0050774189 -0.031715948 0.99944508 -0.010181554 0
0.0013622189 0.00043750118 0.0044744173 0.3263635 0.9452185 0.0069867494 0
-0.071437575 -0.050916228 0.014725879 -0.50018418 -0.86590886 0.004196235 0
-0.064991966 -0.052850839 0.014717033 -0.13894472 -0.99028665 0.0051702503 0
-0.055017509 -0.052874323 0.015181339 0.067846358 -0.99768853 0.0038145739 0
-0.045419533 -0.052165404 0.014925663 0.07523562 -0.99711674 0.009890683 0
-0.034970701 -0.051393695 0.01505716 0.071908221 -0.99733424 0.012392551 0
-0.025345383 -0.050762162 0.014913415 0.058126658 -0.99822813 0.012724211 0
-0.015367571 -0.050240923 0.014761608 0.049003594 -0.99873745 0.011048 0
-0.0096392455 -0.050014473 0.01074234 0.044247594 -0.99895906 0.011088721 0
-0.076788411 -0.045371693 0.01507016 -0.83759993 -0.54626596 -0.0044588163 0
-0.010522197 -0.049972724 0.017842695 0.048508421 -0.99872476 0.013989233 0
-0.0046920408 -0.049674343 0.015196904 0.061781231 -0.99792206 0.018295068 0
0.0052934797 -0.047731675 0.01517956 0.39833876 -0.91719496 -0.0089272568 0
0.011897179 -0.042698592 0.015149708 0.81932652 -0.57301915 -0.018790616 0
-0.080254354 -0.033131585 0.0147875 -0.99625856 -0.086241275 -0.0055941013 0
-0.079762377 -0.038065936 0.014727373 -0.98941487 -0.14331362 -0.022789937 0
0.014833631 -0.034847949 0.015151232 0.98671949 -0.16242704 0.0014462053 0
-0.080846488 -0.025051432 0.015083345 -0.99818647 -0.060166411 -0.0019222361 0
0.014989168 -0.024898633 0.01487173 0.9978146 0.065903895 -0.0047652572 0
-0.080713429 -0.017176108 0.014639842 -0.98385072 0.17893757 0.0043782825 0
-0.078906439 -0.011922176 0.014834344 -0.88590676 0.46365693 -0.013835888 0
0.013930471 -0.014686428 0.015132543 0.9806993 0.19540012 -0.0068987324 0
-0.07419762 -0.006509929 0.014961989 -0.61514223 0.78841066 0.0029404296 0
-0.065104857 -0.0029813438 0.015324381 -0.13688137 0.9905687 0.006095232 0
-0.05498426 -0.0023000739 0.014701459 -0.041184865 0.99914265 0.0042156568 0
-0.045021992 -0.0018319157 0.014954497 -0.049816869 0.99873203 0.0072583309 0
-0.034807757 -0.0012711514 0.015067113 -0.066557445 0.99772269 0.010940294 0
-0.025004279 -0.00055286929 0.014975248 -0.072816454 0.99705267 0.024161365 0
-0.018608263 -0.00012628593 0.016313465 -0.071560934 0.99714392 0.024148501 0
0.0063304757 -0.0023508901 0.014988967 0.57586044 0.81744331 0.013085215 0
0.011381993 -0.0076083238 0.014870524 0.85817957 0.51329696 0.0073493933 0
-0.013743442 0.00026252243 0.014664809 -0.071378127 0.99715954 0.024042957 0
-0.0048687044 0.00079744065 0.015165745 -0.0069916775 0.99978971 0.019281505 0
0.0010935555 0.00039462294 0.015315841 0.27361017 0.96174937 0.01325158 0
-0.071508124 -0.050910115 0.024720479 -0.51540732 -0.85691971 -0.0066275066 0
-0.065113544 -0.052899625 0.024885066 -0.13521709 -0.99077678 -0.0088082487 0
-0.054801248 -0.052843411 0.024950732 0.074329264 -0.99722815 -0.0033375474 0
-0.044886772 -0.052065879 0.024783576 0.074806519 -0.99719447 -0.0026918994 0
-0.034980781 -0.051354714 0.024892196 0.06716942 -0.99773514 -0.003590019 0
-0.0247162 -0.050724391 0.024948286 0.057652611 -0.99832433 -0.0049707494 0
-0.015529108 -0.050214089 0.025155848 0.052835125 -0.99859381 -0.004337606 0
-0.076655723 -0.045608427 0.024777198 -0.82674843 -0.56255174 -0.0047425441 0
-0.010719434 -0.049961496 0.024517974 0.050478611 -0.9987129 -0.004958244 0
-0.0049583642 -0.049645245 0.024925057 0.064325318 -0.99791491 -0.0052985502 0
0.0051665185 -0.047875777 0.024895117 0.37875551 -0.92549467 -0.0019954047 0
0.01219921 -0.042454883 0.024519473 0.81367093 -0.58131695 -0.0032053713 0
-0.080265023 -0.033636782 0.025309581 -0.99690104 -0.078490838 -0.0052364073 0
-0.079800807 -0.038391385 0.024203466 -0.99011523 -0.14025658 0.00028968946 0
0.014882796 -0.035016309 0.024863673 0.98752278 -0.15686713 -0.013833232 0
-0.080852032 -0.02513735 0.024921549 -0.99865776 -0.051770128 -0.0015586721 0
0.015037025 -0.025097262 0.025107114 0.99810022 0.061557144 -0.0025890435 0
-0.080679283 -0.017262129 0.025104687 -0.98209876 0.18827493 0.0058850218 0
-0.079098895 -0.012274605 0.02485233 -0.91546261 0.40237612 0.0046601593 0
0.014004854 -0.014948475 0.024897162 0.98074698 0.19526623 0.002534108 0
-0.074138843 -0.0065047438 0.02496068 -0.60377562 0.79715425 -0.0003600014 0
-0.065018326 -0.0030054569 0.024973534 -0.14636178 0.98922926 0.001919371 0
-0.054958429 -0.0023312697 0.025131539 -0.040014703 0.99919659 0.0022544092 0
-0.044870749 -0.0018587558 0.025013119 -0.050927907 0.99870181 0.0010476914 0
-0.034910209 -0.0013375812 0.025339574 -0.056177765 0.99841791 0.0024029012 0
-0.024988443 -0.00069977285 0.025165586 -0.068994746 0.99761069 0.0035410016 0
-0.017224295 -0.00017082033 0.025033981 -0.067304052 0.99770343 0.0076107187 0
0.0061621317 -0.0023159999 0.025029298 0.55448323 0.83218902 -0.0031313438 0
0.011403308 -0.0076575349 0.025241829 0.86945003 0.49401516 -0.0023746253 0
-0.012271686 0.00017842432 0.0246382 -0.072347052 0.99731755 0.011112063 0
-0.0049247835 0.00061883993 0.025200801 -0.019401051 0.99975491 0.010667678 0
0.0010063596 0.00031523046 0.024479583 0.26587707 0.96392542 0.012534 0
-0.071518064 -0.050905909 0.034751419 -0.53441858 -0.84521526 0.0028283633 0
-0.065144055 -0.053016499 0.035013232 -0.15148637 -0.98844337 -0.0056251902 0
-0.055036902 -0.052922186 0.035031024 0.068998843 -0.99757302 -0.0093414336 0
-0.045014981 -0.052182306 0.034976512 0.072952725 -0.99722934 -0.014546469 0
-0.035332832 -0.051491518 0.03473651 0.066804878 -0.99762756 -0.016625715 0
-0.025263112 -0.050856426 0.034990314 0.062153317 -0.99794096 -0.015833847 0
-0.01517956 -0.050279986 0.035244327 0.051763903 -0.99856317 -0.013859906 0
-0.0093943784 -0.050020289 0.037895463 0.048979107 -0.99871588 -0.012946251 0
-0.076660022 -0.045610812 0.03507226 -0.82452065 -0.56583065 0.0012066741 0
-0.010248101 -0.049986362 0.031329613 0.048985757 -0.99875998 -0.0088787097 0
-0.0051253322 -0.049751941 0.035044 0.064626008 -0.99778706 -0.015636604 0
0.0057501728 -0.047741964 0.035129752 0.41328886 -0.91040474 -0.018853622 0
0.011953706 -0.04290488 0.035222974 0.81519133 -0.57894456 -0.016920883 0
-0.08032652 -0.033233225 0.034785882 -0.99694985 -0.078045219 -1.3140305e-05 0
-0.07976564 -0.038401216 0.034784179 -0.98611355 -0.16601676 0.0042949035 0
0.015006685 -0.035050672 0.034997202 0.98605084 -0.16638082 -0.0046027857 0
-0.080857173 -0.024892742 0.035031937 -0.99936688 -0.035490565 0.0025206096 0
0.015025928 -0.025127701 0.03494747 0.99728942 0.073521107 0.0029228858 0
-0.080635041 -0.01723988 0.0354155 -0.98744512 0.15771659 0.0088095926 0
-0.078955442 -0.012062147 0.035233952 -0.8988027 0.43834537 0.0026716676 0
0.013932113 -0.014935935 0.034967363 0.98011547 0.19832225 0.0064767553 0
-0.074125029 -0.0064666704 0.035102688 -0.59503186 0.80368197 0.0056890426 0
-0.065150119 -0.0030336846 0.035124715 -0.14344855 0.98965776 -0.00044800784 0
-0.054796066 -0.0023394513 0.034847874 -0.046601862 0.99891281 0.0012402247 0
-0.044963531 -0.0018614483 0.034889538 -0.049467068 0.99877542 -0.00077819161 0
-0.034988407 -0.0013583517 0.035073031 -0.054629195 0.99850655 0.00052680128 0
-0.024863785 -0.00073276472 0.034947991 -0.065611571 0.99782473 0.0063966624 0
-0.016937077 -0.00021408052 0.035090912 -0.065367095 0.99783957 0.006579814 0
0.005938686 -0.0022188672 0.034752198 0.53788698 0.84298491 0.00735607 0
0.011350078 -0.0076391571 0.035027403 0.86097819 0.508627 0.0038876738 0
-0.011911063 0.00012447024 0.035135627 -0.07369554 0.99724787 0.0081046792 0
-0.0047848979 0.00051489106 0.035197318 0.0023652618 0.99994141 0.010555538 0
0.00082362106 0.00021655671 0.03473663 0.18802764 0.98206156 0.014166793 0
-0.071410567 -0.050976161 0.044880144 -0.55159277 -0.83411318 -0.00085028092 0
-0.064966805 -0.053084012 0.045102876 -0.14068456 -0.99004698 -0.0038479632 0
-0.054810189 -0.053023614 0.045286443 0.067839302 -0.99763006 -0.011496297 0
-0.044999935 -0.052320987 0.044973679 0.071115404 -0.9973833 -0.013003932 0
-0.034958202 -0.051642112 0.045193873 0.06479378 -0.99774837 -0.017316025 0
-0.024945196 -0.051000554 0.04471131 0.060868286 -0.99799812 -0.017169813 0
-0.015094696 -0.05044926 0.045050185 0.053271119 -0.99839783 -0.019076765 0
-0.0082767531 -0.050106786 0.046164863 0.053268291 -0.99839777 -0.019086611 0
-0.07673613 -0.045456223 0.045016095 -0.83180934 -0.5550614 -6.9403111e-05 0
-0.0034412241 -0.049825151 0.044647601 0.052246507 -0.99849439 -0.016710745 0
0.0049887178 -0.048231907 0.044661429 0.35449049 -0.93493485 -0.015278413 0
0.012074782 -0.04290029 0.044830736 0.83172691 -0.55507821 -0.010889011 0
-0.080311634 -0.032797173 0.044638876 -0.99567467 -0.092314392 0.010486126 0
-0.079763509 -0.037858166 0.044941153 -0.99264008 -0.12053312 0.011726651 0
0.015005515 -0.035036299 0.044867016 0.98875898 -0.14951718 -0.00053920946 0
-0.080826059 -0.024665875 0.044851996 -0.99984413 -0.017118592 0.0043193959 0
0.014996353 -0.025148168 0.044990998 0.99719 0.074700914 0.0056416229 0
-0.08042033 -0.017278111 0.044801775 -0.98946398 0.14178888 0.029272258 0
-0.079045132 -0.012302425 0.044615164 -0.89466995 0.44671866 0.002834789 0
0.013878224 -0.014623976 0.044792805 0.98221344 0.18776569 0.00084240746 0
-0.074223317 -0.006593931 0.044903226 -0.6087746 0.79333282 0.0040574018 0
-0.064847469 -0.0029974189 0.045293014 -0.1376953 0.99047363 0.0013414117 0
-0.054977629 -0.0023489466 0.04490282 -0.048808139 0.99880779 -0.00091449165 0
-0.044858407 -0.0018468115 0.044668637 -0.049594879 0.99876857 -0.0012939959 0
-0.035156962 -0.0013606801 0.045256291 -0.050857294 0.99870437 -0.00178244 0
-0.025122317 -0.00081146974 0.0451691 -0.060727783 0.99814481 0.0043692165 0
-0.016108762 -0.00023544329 0.044959586 -0.063821979 0.99792027 0.0090545295 0
0.0059467033 -0.0023542766 0.04512028 0.54312843 0.83962804 0.0060236575 0
0.011438929 -0.0076786559 0.04486312 0.85137618 0.52447695 -0.0090838354 0
-0.01127434 7.1983006e-05 0.045113813 -0.068533137 0.99759042 0.010797499 0
-0.0050291819 0.00044013921 0.045084249 -0.0087991534 0.99994445 0.0058053685 0
0.00078580558 0.00014296538 0.045026932 0.18784876 0.98217613 0.0065464191 0
-0.071404159 -0.051028583 0.055046998 -0.54180545 -0.84045702 -0.0088783437 0
-0.065018035 -0.053085338 0.054933101 -0.14583057 -0.98930281 0.0036805959 0
-0.054955449 -0.053130314 0.054965939 0.065880351 -0.99780232 -0.007086352 0
-0.045059964 -0.052478854 0.05493176 0.064518869 -0.99775565 -0.017914576 0
-0.034897115 -0.051822763 0.055062145 0.064714037 -0.99769586 -0.020371201 0
-0.024903012 -0.051188067 0.055124283 0.059797619 -0.99799991 -0.020503746 0
-0.015036922 -0.050641306 0.05520837 0.053227089 -0.99839449 -0.019373044 0
-0.006419675 -0.05019154 0.055614054 0.052600943 -0.99841744 -0.019891055 0
-0.076908126 -0.045227677 0.054860901 -0.84309888 -0.53774685 -0.003558143 0
-0.0017479334 -0.049899474 0.053828444 0.069059677 -0.99748605 -0.015888631 0
0.0052326708 -0.048254766 0.054856375 0.37119666 -0.92853785 -0.0055304756 0
0.012072266 -0.04311955 0.055164482 0.83389181 -0.5518688 -0.0080843959 0
-0.080240205 -0.032632504 0.055311143 -0.9959358 -0.089994676 0.0035700353 0
-0.079728983 -0.037588056 0.054788955 -0.99364799 -0.11253287 -0.00024367827 0
0.015038723 -0.035101213 0.055556096 0.98857707 -0.15056521 -0.0067426562 0
-0.080775551 -0.024873665 0.05472983 -0.99911159 -0.041976176 0.0037402681 0
0.014926134 -0.025036121 0.055094332 0.99719745 0.074788995 0.0019491769 0
-0.080497898 -0.017005123 0.054879658 -0.98458725 0.17280152 -0.026975289 0
-0.079114415 -0.012396604 0.054812267 -0.90373629 0.4280358 -0.0067892284 0
0.0139715 -0.015259228 0.054824706 0.98728019 0.15898249 -0.0015827497 0
-0.073972866 -0.0063894787 0.055028655 -0.59250206 0.80551922 -0.0089536486 0
-0.065151431 -0.0030168633 0.055144724 -0.14448795 0.9894706 -0.008439987 0
-0.054740258 -0.0023026562 0.054912098 -0.04455952 0.99898243 -0.0069615184 0
-0.044951141 -0.001828896 0.054792684 -0.050150182 0.99873114 -0.0045881625 0
-0.034930654 -0.0013102404 0.055148456 -0.053511355 0.99855024 -0.0058175335 0
-0.025066789 -0.00079141447 0.055166695 -0.052075736 0.99861699 -0.0072332015 0
-0.015431699 -0.00025118358 0.055087965 -0.060143489 0.99818945 -0.00079871976 0
0.0058577019 -0.0023314264 0.055011354 0.53045702 0.84770924 0.0020714612 0
0.011583607 -0.0077941078 0.054775026 0.83879095 0.5444473 -0.0026031365 0
-0.010704968 3.9738039e-05 0.054663569 -0.062938176 0.9980163 0.0014984645 0
-0.0047906442 0.0003444991 0.054699771 -0.008977009 0.99988663 0.012089342 0
0.00064667873 0.00010990147 0.054178745 0.17584004 0.98439807 0.0063671493 0
-0.071405441 -0.051023267 0.065606669 -0.53691417 -0.84348828 0.015833059 0
-0.064748995 -0.053141661 0.065060265 -0.13784437 -0.99039584 -0.010719097 0
-0.054940421 -0.053210765 0.064910129 0.049213704 -0.99867052 -0.015334154 0
-0.045209233 -0.052679274 0.064869113 0.058093186 -0.99807948 -0.021509709 0
-0.03498394 -0.052048445 0.064731933 0.062599473 -0.9976325 -0.028471943 0
-0.02519221 -0.051469479 0.065329544 0.05845261 -0.99767327 -0.035090603 0
-0.015082258 -0.050886195 0.065130778 0.053926762 -0.99792349 -0.035222583 0
-0.0052021546 -0.050350789 0.065179817 0.063948527 -0.99751985 -0.029405029 0
0.00012212085 -0.050056227 0.068875358 0.082520626 -0.99635524 -0.021602783 0
-0.076875225 -0.045286503 0.064774662 -0.85219312 -0.52313977 0.0095780855 0
-0.00053333229 -0.049848519 0.062716395 0.18187734 -0.98302585 -0.024098486 0
0.0054260171 -0.048324 0.064855777 0.38719115 -0.92143375 -0.03229228 0
0.012097431 -0.04308987 0.064963356 0.82499075 -0.56490779 -0.0164131 0
-0.08021275 -0.032590967 0.064886585 -0.99674344 -0.080574892 -0.0031975354 0
-0.079695098 -0.037817743 0.06517902 -0.99030054 -0.13893262 0.0015942852 0
0.015078104 -0.035328269 0.064803749 0.9902696 -0.13514796 -0.033184607 0
-0.080686465 -0.025373429 0.064917006 -0.99858743 -0.050869558 -0.015339307 0
0.01491946 -0.024912007 0.064822122 0.99771965 0.066526115 -0.011391383 0
-0.080556497 -0.017171571 0.065126188 -0.98650062 0.16357383 -0.0077513759 0
-0.079136238 -0.012194633 0.065317512 -0.90650779 0.42036253 -0.03922911 0
0.013948214 -0.015113874 0.06490986 0.98593152 0.16687505 -0.0095723839 0
-0.07420744 -0.0064806393 0.064643517 -0.61548918 0.78807557 -0.010489104 0
-0.065078132 -0.0028232664 0.065112464 -0.13520214 0.99000901 -0.040033318 0
-0.05512571 -0.0021720976 0.064801648 -0.048423965 0.99847525 -0.026501413 0
-0.044950627 -0.0016863425 0.06506113 -0.051094823 0.99822825 -0.030489372 0
-0.035051316 -0.0011426673 0.065097943 -0.051249743 0.9982174 -0.030587889 0
-0.025237512 -0.00065156707 0.064826272 -0.053637918 0.9980796 -0.030984268 0
-0.016357549 -0.00018400594 0.064673804 -0.049778651 0.99842829 -0.025750604 0
-0.0010644237 -0.000136271 0.068893924 0.13473043 0.98741013 0.082878366 0
0.005554405 -0.0022519252 0.065255262 0.50031495 0.86576104 0.011949109 0
0.011608383 -0.0079007987 0.065138474 0.85379928 0.52035463 0.016056368 0
-0.011975259 7.9708334e-05 0.066585571 -0.048009023 0.99844831 -0.028213957 0
-0.005090151 0.00029492399 0.064834699 0.0073780324 0.99996936 -0.0026351348 0
0.0002902335 6.8454443e-05 0.063362427 0.23566273 0.97158349 0.022107974 0
-0.072828241 -0.051880341 0.076476961 -0.58438742 -0.80153036 0.1266509 0
-0.064824387 -0.053753186 0.075951494 -0.059087023 -0.87067968 0.4882884 0
-0.055095647 -0.053905725 0.075865574 0.069575205 -0.82235157 0.56470984 0
-0.04502058 -0.053531267 0.075845256 0.054845523 -0.85992855 0.5074591 0
-0.034890749 -0.053209729 0.075918324 0.056056023 -0.9552812 0.29033685 0
-0.024901479 -0.052683923 0.075878568 0.038985275 -0.94213611 0.33295611 0
-0.014892153 -0.052327748 0.075817607 0.048482578 -0.9830032 0.17707108 0
-0.0049714358 -0.051752742 0.07572671 0.068632036 -0.99519992 0.069761477 0
0.0035511309 -0.051300805 0.076705821 0.26571429 -0.96092814 -0.077544242 0
-0.080990799 -0.042747609 0.077780873 -0.93145102 -0.34380126 -0.11916196 0
-0.076210648 -0.045458406 0.075570799 -0.53952712 -0.32652432 0.77607495 0
-0.064744249 -0.045058053 0.076220483 0.041438192 0.046465866 0.99806005 0
-0.054806434 -0.044827528 0.075862944 0.027146984 0.042983312 0.99870688 0
-0.045226559 -0.044921786 0.075707816 0.0073868204 0.059706751 0.99818861 0
-0.035121959 -0.045052316 0.075650349 0.0034981472 0.065269329 0.99786156 0
-0.024847403 -0.044975977 0.075755753 -0.029158279 0.027671684 0.9991917 0
-0.015224228 -0.045107681 0.076251067 -0.072783008 0.034444969 0.9967528 0
-0.0050860913 -0.044958826 0.077020481 -0.040920902 -0.081080712 0.99586719 0
0.0057298061 -0.046301898 0.075853102 0.1402835 -0.33426121 0.93198174 0
0.013060425 -0.044114955 0.075973913 0.81573904 -0.55627507 0.15851761 0
-0.081439637 -0.034555446 0.076561399 -0.9948436 -0.099477708 0.019758184 0
-0.075736962 -0.035496447 0.07570301 -0.067535393 -0.0041729328 0.99770808 0
-0.065028362 -0.035139278 0.075872764 0.040676113 0.019910622 0.99897397 0
-0.054948524 -0.03519693 0.075513668 0.032875556 0.021620162 0.99922562 0
-0.045079317 -0.03507432 0.075298332 0.010247479 0.024332279 0.99965143 0
-0.035129916 -0.034892194 0.07520321 -0.0049417992 0.032501206 0.99945945 0
-0.025096484 -0.034601275 0.075832099 0.0049959994 0.030220043 0.99953079 0
-0.015061021 -0.035026435 0.075260341 -0.0045718336 0.058147874 0.99829745 0
-0.0045936308 -0.035090853 0.076158293 -0.12744914 0.15997662 0.97885871 0
0.0049765152 -0.034980021 0.076700337 -0.11794047 -0.091772795 0.98877084 0
0.015163937 -0.034954846 0.076012261 0.79324836 -0.042333513 0.6074248 0
-0.081915401 -0.024869261 0.076138228 -0.99550092 -0.032670185 0.088941596 0
-0.075100124 -0.025128786 0.076388702 0.052115262 -0.012785352 0.99855924 0
-0.065000728 -0.025216835 0.075881414 0.043303538 -0.015659347 0.99893922 0
-0.055131394 -0.024944497 0.075535446 0.034285266 -0.014805795 0.99930239 0
-0.045100432 -0.025048805 0.075219043 0.02431526 -0.015747923 0.99958032 0
-0.03523675 -0.025111496 0.075031362 0.013154382 -0.0064725247 0.99989253 0
-0.024568431 -0.025632884 0.075359918 -0.072366498 0.047162373 0.99626237 0
-0.015698865 -0.024490409 0.075619854 0.086173296 -0.076815918 0.99331439 0
-0.0047904104 -0.02484804 0.075432479 -0.058315806 0.018558549 0.99812567 0
0.0052046203 -0.025092894 0.076906316 -0.1224663 0.10589231 0.98680735 0
0.015353703 -0.024813298 0.075959429 0.86013347 0.062287815 0.50625145 0
-0.081636816 -0.015545511 0.076458722 -0.97757119 0.20761973 -0.035334263 0
-0.075474501 -0.014686367 0.076069057 -0.05930933 0.0066350419 0.99821764 0
-0.06534563 -0.015129563 0.076182 0.04198873 -0.037204422 0.99842519 0
-0.054799248 -0.015094065 0.075784534 0.033231884 -0.037732322 0.99873513 0
-0.044624235 -0.014744698 0.075529285 0.017443078 -0.037556559 0.99914229 0
-0.035193935 -0.014884056 0.075374089 0.015635116 -0.04462358 0.99888152 0
-0.025121229 -0.014847134 0.075265899 0.0027697238 -0.049994808 0.99874562 0
-0.014278078 -0.015535223 0.075753845 -0.068979502 0.01053402 0.99756241 0
-0.0055458015 -0.014624316 0.076054476 -0.00086281094 -0.13341321 0.99106008 0
0.0052091517 -0.015134443 0.076396927 -0.029764958 -0.012018254 0.99948478 0
0.014681192 -0.015166086 0.075835109 0.90158629 0.17653497 0.39494005 0
-0.08062987 -0.0089432644 0.078415714 -0.87033308 0.49110278 0.036584258 0
-0.074518278 -0.0057542389 0.075957201 -0.50197083 0.7169472 0.4837479 0
-0.065119132 -0.0033126189 0.075817466 -0.01919988 0.60497046 0.79601645 0
-0.054883618 -0.0033022831 0.075557239 0.0050795656 0.35822704 0.93362069 0
-0.044973798 -0.0030119999 0.075199969 0.007218482 0.27906927 0.96024388 0
-0.035139725 -0.0033356755 0.075043827 -0.010987227 0.24954841 0.96830004 0
-0.025000362 -0.0038089966 0.074828781 -0.017986611 0.27153078 0.96226168 0
-0.015181135 -0.0049835723 0.075696193 -0.021651188 -0.050050888 0.99851197 0
-0.0050533917 -0.0048197568 0.076256417 -0.021948071 -0.0023238668 0.9997564 0
0.0053775939 -0.0039551621 0.07524357 0.22565743 0.35690325 0.90647596 0
0.012344334 -0.0063535366 0.07624422 0.77557468 0.55654138 0.2979019 0
-0.062321547 0.00018508501 0.078368939 -0.068489254 0.97867382 -0.19366689 0
-0.054505695 0.00041065892 0.078434519 -0.066240549 0.99420702 0.0846439 0
-0.044171039 0.00063999585 0.078089863 -0.04952864 0.99820769 0.033592101 0
-0.034706194 0.00074797514 0.077797003 -0.039500758 0.99903023 -0.0194495 0
-0.024824791 0.0010926495 0.077412337 -0.064109437 0.99770916 0.021596156 0
-0.014837414 0.0012325359 0.076256908 -0.055012006 0.99847746 0.004056769 0
-0.0050246455 0.0014497373 0.075934939 0.021973131 0.99651247 0.080499582 0
0.0032544415 0.00099580351 0.076715991 0.23438811 0.97199184 0.017152086 0
-0.081967093 -0.036854409 0.080039106 -0.61044639 -0.17781121 0.77184093 0
