# .PCD v0.7 - Point Cloud Data file format
VERSION 0.7
FIELDS x y z normal_x normal_y normal_z curvature
SIZE 4 4 4 4 4 4 4
TYPE F F F F F F F
COUNT 1 1 1 1 1 1 1
WIDTH 646
HEIGHT 1
VIEWPOINT 0 0 0 1 0 0 0
POINTS 646
DATA ascii
0.0053851032 -0.054407865 0.0044388226 0.15583181 0.60024023 -0.78449225 0
0.014036272 -0.05615605 0.006902277 0.54056287 0.58256191 -0.60697073 0
-0.033333149 -0.04965676 0.0090732016 -0.16179116 0.8782056 -0.45008725 0
-0.02454352 -0.04921269 0.0080043357 -0.048688203 0.96011043 -0.2753495 0
-0.014927306 -0.04776692 0.0079492042 -0.092440292 0.79831415 -0.5951044 0
-0.0048972857 -0.045312915 0.0090283854 0.025367118 0.32285321 -0.94610906 0
0.0033680373 -0.0466079 0.0093033127 0.10139234 0.27334297 -0.95655799 0
-0.011611217 -0.033444501 0.0096666748 -0.15962586 -0.093903452 -0.98270124 0
-0.0048240651 -0.035094123 0.0091386205 0.0094608078 -0.1076102 -0.99414814 0
0.0021143642 -0.033483602 0.0095681734 0.16039097 -0.13558154 -0.97769749 0
-0.013690701 -0.024399454 0.0089799203 -0.22782028 -0.12918656 -0.96509522 0
-0.0049222903 -0.024582176 0.0079672728 -0.025289174 -0.11962927 -0.99249649 0
0.0029607087 -0.024337171 0.0088433865 0.27885139 -0.063887104 -0.95820689 0
-0.020275228 -0.013236076 0.009832778 -0.60071194 0.11107222 -0.79171216 0
-0.014901781 -0.015150923 0.0082532037 -0.25321305 -0.10383697 -0.96182173 0
-0.0048062927 -0.014963685 0.0071207713 0.020993961 -0.047241941 -0.99866277 0
0.0039176503 -0.014797681 0.0085286181 0.30153036 -0.053260844 -0.95196778 0
-0.020965233 -0.0045197178 0.0093120476 -0.52104199 -0.086602613 -0.84912616 0
-0.014703546 -0.0045811939 0.0074047279 -0.19410689 -0.057112318 -0.97931641 0
-0.00503845 -0.0048865015 0.006705285 0.051366031 -0.036245581 -0.9980219 0
0.0037699107 -0.0048654522 0.0082054194 0.40826276 -0.06358771 -0.91064703 0
-0.021732064 0.0057499907 0.0088337027 -0.5145368 -0.065353267 -0.85497415 0
-0.014801967 0.0046061343 0.0069685145 -0.18573879 -0.037677016 -0.98187655 0
-0.0048479917 0.0045393198 0.0064731892 0.11724099 -0.0060945083 -0.99308479 0
0.0035208913 0.0045746751 0.0081448015 0.37915713 0.079246081 -0.9219327 0
-0.023308063 0.015579183 0.0088308174 -0.28832838 -0.029137906 -0.95708817 0
-0.015137159 0.015479705 0.0068323361 -0.20062229 0.0018651696 -0.97966689 0
-0.0048400476 0.01505393 0.0066813077 0.18847801 0.07027813 -0.97955966 0
0.0026362031 0.014127675 0.0085982336 0.4355295 0.11942486 -0.89221734 0
-0.024185373 0.02530955 0.008947595 -0.2399561 -0.024126152 -0.9704839 0
-0.01517867 0.025277225 0.0069196029 -0.14185056 0.0160277 -0.98975831 0
-0.0048784511 0.025432268 0.0077230721 0.22580373 0.088126488 -0.9701786 0
0.0011808205 0.024827821 0.0092782471 0.56138015 0.11644839 -0.81932414 0
-0.024540439 0.035225037 0.008756523 -0.23367126 -0.025316691 -0.97198606 0
-0.015085603 0.034844816 0.0073049567 -0.052372057 0.067196935 -0.9963643 0
-0.0047112941 0.035294339 0.0083558057 0.15920718 0.030149959 -0.9867847 0
0.0012633258 0.035895642 0.0092112785 0.43227309 -0.075113006 -0.89860892 0
-0.04046762 0.048896186 0.0096737295 -0.52044725 0.028178787 -0.85342872 0
-0.034932211 0.047868006 0.007360768 -0.1650048 -0.45927024 -0.87283695 0
-0.025523594 0.045351256 0.0088438671 -0.087810546 0.012715986 -0.99605602 0
-0.015255996 0.045011058 0.0080661448 -0.037359465 0.067369699 -0.99702841 0
-0.0050311647 0.044982579 0.0083578518 0.053373139 -0.029526899 -0.99813801 0
0.0046890448 0.046287727 0.0085950531 0.049657855 -0.17198072 -0.98384792 0
0.015220024 0.04725631 0.0087413406 0.048208572 -0.37460998 -0.92592835 0
0.023465699 0.047532 0.009124754 0.13286619 -0.38804212 -0.91201413 0
-0.081579283 0.059020169 0.0095503163 -0.32072818 -0.60627508 -0.72771144 0
-0.073885947 0.058315184 0.0085075283 -0.14199682 -0.71114039 -0.68856096 0
-0.064576618 0.057615742 0.0077826893 -0.091273651 -0.71945536 -0.68851513 0
-0.054745823 0.057790928 0.0070267334 -0.10346868 -0.80775458 -0.5803678 0
-0.044981632 0.056517251 0.0048879143 -0.14040059 -0.92148602 -0.36214787 0
-0.034282327 0.054495025 0.0063139186 -0.12448488 -0.76374513 -0.6334011 0
-0.024810368 0.05494684 0.0062940344 0.047596462 -0.76586729 -0.6412347 0
-0.015276118 0.055759341 0.0070715202 0.16578057 -0.36541104 -0.91596478 0
-0.0048991125 0.055899885 0.0076691061 -0.022938175 -0.23065749 -0.97276461 0
0.0047519212 0.055039968 0.0075363577 -0.031933468 -0.24633579 -0.96865833 0
0.01457427 0.055203024 0.0071469098 -0.02025892 -0.29630986 -0.95487702 0
0.02505425 0.055527937 0.0075137177 0.16629958 -0.33736691 -0.92656779 0
0.033641253 0.058358565 0.0080027292 0.31186298 -0.80872452 -0.49870443 0
-0.12280399 0.068850569 0.0090886075 -0.22004305 -0.57382685 -0.78886229 0
-0.1147145 0.067664273 0.0084398901 -0.12709282 -0.555255 -0.82191205 0
-0.10453442 0.066666909 0.0078053232 -0.07494472 -0.54984027 -0.83190084 0
-0.095035784 0.066182338 0.0074827527 -0.029961444 -0.52940202 -0.84784186 0
-0.084406458 0.065657832 0.0061498745 -0.34653422 -0.5491938 -0.7604605 0
-0.075525075 0.064785123 0.0032155786 -0.18528716 -0.56886494 -0.80128735 0
-0.065242469 0.063704409 0.0029388664 -0.07414066 -0.60316014 -0.7941668 0
-0.054363668 0.062916555 0.0018550658 -0.041040316 -0.54917401 -0.83469969 0
-0.04492484 0.065524235 0.0018417782 -0.046937983 0.044477288 -0.99790704 0
-0.03540767 0.065078199 0.0010430522 -0.13334444 0.0090415711 -0.99102855 0
-0.02445663 0.063758895 0.0014300419 0.14382134 -0.0337018 -0.98902965 0
-0.015714282 0.062656008 0.0024629619 0.15042415 -0.58172482 -0.79935527 0
-0.005027859 0.06321381 0.0028743607 0.0084853685 -0.661816 -0.74961829 0
0.0050151437 0.064311758 0.0021632535 0.0042345277 -0.52924275 -0.8484599 0
0.015294057 0.064682409 0.0020791816 0.0050826445 -0.4514156 -0.89229935 0
0.024644701 0.06401211 0.0021840129 -0.035184257 -0.5285641 -0.84816396 0
0.03587047 0.064880103 0.0046167406 0.46318769 -0.52672791 -0.71275163 0
0.042023171 0.066718645 0.0076368982 0.73403221 -0.41950348 -0.53405386 0
-0.12473624 0.075526282 0.007784145 -0.42556629 -0.16437694 -0.88987279 0
-0.11513285 0.07466986 0.0055429684 -0.12353867 -0.17577653 -0.97664779 0
-0.10497939 0.074778423 0.0044462159 -0.073694423 -0.1305726 -0.98869604 0
-0.095222399 0.074918061 0.0040346757 -0.016177475 -0.14343199 -0.989528 0
-0.084996887 0.074871764 0.0026272321 -0.33797508 -0.12459095 -0.93287188 0
-0.078745484 0.073493913 0.00013176596 -0.13835375 -0.20677078 -0.96855772 0
-0.047064729 0.074546807 0.00080094527 -0.14022782 -0.11536112 -0.98337585 0
0.013473 0.079694368 1.8109156e-05 0.0094866734 0.37338662 -0.92762733 0
0.027290136 0.073454291 1.8764729e-05 0.095586255 -0.083862416 -0.99188226 0
0.038602035 0.07570795 0.00054028013 0.36284325 -0.059544604 -0.92994583 0
0.042644564 0.075038657 0.0057327813 0.89139456 -0.041774441 -0.45129883 0
-0.12411927 0.084053062 0.008348031 -0.35412756 0.34682813 -0.86850661 0
-0.11501642 0.085190542 0.0072206701 -0.088043705 0.37228739 -0.92393208 0
-0.10502997 0.085261159 0.0059681628 -0.17109883 0.33601239 -0.92618626 0
-0.095075965 0.085459277 0.0050216396 0.0040056193 0.37144077 -0.92844808 0
-0.084679455 0.085445821 0.0036767991 -0.40077618 0.37232134 -0.83711123 0
-0.076141872 0.087158993 0.00088504539 -0.11538256 0.42460895 -0.8979944 0
-0.065706752 0.089199677 0.00042040023 -0.082269646 0.43231151 -0.89796352 0
-0.052345697 0.087723948 0.00037566456 0.62133789 0.24178663 -0.74530429 0
-0.04601064 0.086184628 0.0014374162 -0.13823159 -0.0094290217 -0.99035501 0
-0.035485066 0.088719375 0.0003306242 -0.031592317 0.027542995 -0.99912125 0
-0.026146792 0.089281254 0.00015528697 -0.023032693 0.23641263 -0.9713797 0
-0.014436555 0.089243397 0.00039603171 0.07228221 0.65877134 -0.74886274 0
-0.0043940488 0.088159375 0.0010745272 0.12005805 0.61832047 -0.77670199 0
0.0046577095 0.08774095 0.0010655037 -0.018367512 0.4826282 -0.87563276 0
0.014807767 0.087986909 0.0010116223 -0.016137399 0.47763827 -0.87840837 0
0.025237996 0.088106729 0.00086738099 -0.001575507 0.39717856 -0.91773999 0
0.036284495 0.086464554 0.0020027086 0.43053111 0.40236053 -0.80792886 0
0.042432994 0.084399261 0.006881115 0.81952184 0.25989339 -0.51072431 0
-0.11222213 0.090484649 0.0095239887 -0.11727452 0.67618793 -0.72733521 0
-0.10430522 0.091324814 0.008861878 -0.15532805 0.58937258 -0.79278827 0
-0.095610298 0.091354899 0.0087239612 0.062262971 0.6565029 -0.7517494 0
-0.083479837 0.091642894 0.0077939755 -0.35998911 0.69376665 -0.6237753 0
-0.07447084 0.093717955 0.0059074974 -0.19695231 0.70901299 -0.67713392 0
-0.065026835 0.094958059 0.0053054723 -0.11284397 0.69531006 -0.70979583 0
-0.055129156 0.095377281 0.0045772237 -0.054690264 0.70137125 -0.71069503 0
-0.045081086 0.096662939 0.0048887799 -0.091614865 0.91282797 -0.39793444 0
-0.034767754 0.097186334 0.0047066119 -0.019639129 0.97382957 -0.22642954 0
-0.024273412 0.096148446 0.0043122368 0.13872223 0.96890074 -0.20490858 0
-0.015760055 0.094336301 0.0050162738 0.23831406 0.77046621 -0.59125972 0
-0.0049807383 0.093604535 0.0061208615 -0.011307026 0.75673985 -0.65361828 0
0.0046373839 0.093668677 0.0058475435 -0.0048633097 0.75956935 -0.65040815 0
0.015114769 0.093578063 0.0057332409 -0.025567448 0.80174875 -0.59711421 0
0.025116097 0.093520798 0.0054136231 0.0073733162 0.76169479 -0.64789414 0
0.034442678 0.093094803 0.0065190643 0.30399621 0.71231699 -0.63260639 0
0.040823482 0.090916954 0.0090189632 0.64849985 0.4700847 -0.59872228 0
-0.060284667 0.10005768 0.0096782558 -0.14233479 0.80543458 -0.57533991 0
-0.057518788 0.10008483 0.0095772501 0.073611662 0.97888851 -0.19067964 0
-0.080788814 -0.081091627 0.016558861 -0.69267094 -0.71223253 -0.11371787 0
-0.07490015 -0.082659967 0.015227436 -0.12717019 -0.99156952 -0.024853867 0
-0.064620644 -0.082688831 0.015032818 0.028063962 -0.99927294 0.025806932 0
-0.055294413 -0.082413301 0.015347673 0.028962284 -0.99928516 0.024298549 0
-0.044978563 -0.082034066 0.015128501 0.047570247 -0.99851716 0.026466377 0
-0.034531992 -0.081569374 0.015230136 0.034916434 -0.9982807 0.047081001 0
-0.025043119 -0.081272155 0.015444683 0.023145728 -0.99847245 0.050169531 0
-0.014975882 -0.081135213 0.01492069 0.014194169 -0.99896067 0.043313593 0
-0.0047426661 -0.080945358 0.015133489 0.020074328 -0.9991895 0.034891158 0
0.0048982278 -0.080823824 0.015398304 -0.0022173929 -0.99950236 0.031465873 0
0.011756018 -0.080631815 0.015688473 0.23167279 -0.97275126 -0.0090852026 0
-0.081257395 -0.07547494 0.01596779 -0.97820401 0.088256076 -0.18795712 0
-0.079559535 -0.071045943 0.012278439 -0.93834794 0.29715049 -0.17664857 0
0.017044755 -0.076901399 0.014333631 0.6978932 -0.70418751 -0.13063359 0
0.020720901 -0.072089449 0.016116826 0.95457888 -0.2596097 -0.14622585 0
-0.080254793 -0.069373824 0.019165678 -0.93974727 0.31578603 -0.13097487 0
-0.077999331 -0.064753875 0.014784569 -0.9370054 0.30532911 -0.16969106 0
0.019676577 -0.061354723 0.01081336 0.94034255 0.17649366 -0.29087093 0
0.020979576 -0.065288521 0.015520859 0.9932642 0.037491959 -0.10963868 0
-0.074089676 -0.055650089 0.015136906 -0.70235556 0.65833455 -0.2707254 0
-0.065065101 -0.052796878 0.014870779 -0.098541364 0.94427294 -0.31406701 0
-0.054939236 -0.051743098 0.014264459 -0.21370107 0.92587149 -0.31159884 0
-0.043781213 -0.051466852 0.012965734 -0.11707911 0.9355014 -0.33336088 0
-0.039731219 -0.050055664 0.010749797 -0.5981679 0.75602603 -0.26574397 0
0.0095912926 -0.050280612 0.010451061 0.34676582 0.73733854 -0.57972866 0
0.016500439 -0.053969607 0.014931299 0.77607632 0.60409474 -0.18103889 0
0.020718291 -0.058549881 0.017358376 0.89355522 0.37319598 -0.24956717 0
-0.05129436 -0.049351916 0.018884199 -0.33337069 0.90661842 -0.25866383 0
-0.045007393 -0.048729438 0.017221348 -0.02593407 0.86524022 -0.50068635 0
-0.034988552 -0.048256513 0.014906359 -0.12988795 0.96339822 -0.23450588 0
-0.024324061 -0.04663172 0.01526532 -0.33088514 0.87447542 -0.3546938 0
-0.016016154 -0.043742176 0.012159522 -0.50138104 0.27865863 -0.81912541 0
-0.0074086413 -0.043601722 0.010124844 -0.069068685 0.091366082 -0.99341923 0
0.0060355668 -0.043501642 0.010549717 0.262059 0.099563561 -0.95990217 0
0.013078874 -0.04486442 0.015483866 0.84831572 0.13900983 -0.51091748 0
-0.021855233 -0.034895994 0.017171381 -0.82409865 -0.19801702 -0.53070766 0
-0.016443107 -0.03493404 0.012021875 -0.5662685 -0.13818833 -0.81255388 0
0.0068726554 -0.035293046 0.010790197 0.30369535 -0.053369708 -0.95127326 0
0.0126755 -0.03480285 0.015877629 0.8502264 -0.082292207 -0.51994532 0
-0.023459569 -0.024398539 0.015614376 -0.75584728 -0.23540811 -0.61096472 0
-0.018521477 -0.02568996 0.011170247 -0.55893606 -0.20594339 -0.80322963 0
0.0080643967 -0.025657235 0.010585729 0.31362012 -0.041882377 -0.94862437 0
0.013183412 -0.024940873 0.01492219 0.87435871 -0.06264402 -0.48121989 0
-0.024019603 -0.014248345 0.014621198 -0.72644114 -0.24930732 -0.64041322 0
-0.01936573 -0.013183387 0.013500801 -0.9032138 -0.17081341 -0.39373541 0
0.0088351397 -0.014621953 0.010509534 0.47622219 0.04010877 -0.87840974 0
0.01341008 -0.015070946 0.014780533 0.80605525 0.046758216 -0.58999032 0
-0.026477715 -0.0046878653 0.014438908 -0.80975258 -0.091866434 -0.57953542 0
0.0078382529 -0.0049475054 0.012413959 0.65693182 0.054998472 -0.75194132 0
0.013027222 -0.0048142569 0.015806604 0.812567 0.15530485 -0.56179643 0
-0.030185172 0.0071227737 0.019015152 -0.95741415 -0.13615718 -0.25459629 0
-0.027404727 0.0051330561 0.014177814 -0.8162365 -0.081774078 -0.57190114 0
0.0081972471 0.0052715447 0.011355161 0.65276748 0.10632931 -0.75005907 0
0.011878734 0.003983303 0.016601127 0.93433923 0.22333321 -0.27772748 0
-0.050312124 0.019005138 0.018301418 -0.95836222 -0.23415373 -0.16344383 0
-0.044329826 0.017559761 0.017650619 -0.34666058 -0.53858364 -0.76795459 0
-0.034699712 0.015074677 0.015211671 -0.42484668 -0.6877647 -0.58862972 0
-0.028084176 0.013283902 0.011773125 -0.55247277 -0.36828163 -0.74775833 0
0.0077901385 0.015563534 0.014211426 0.83362901 0.21869971 -0.50718153 0
0.010472156 0.012415428 0.018504858 0.94321018 0.23164476 -0.23810785 0
-0.051022001 0.025272325 0.018343538 -0.93009925 -0.10777553 -0.35114077 0
-0.044762447 0.02429327 0.016325722 -0.22423093 -0.075011373 -0.97164494 0
-0.034943998 0.024760442 0.011758996 -0.33934051 -0.0028802187 -0.94065922 0
-0.029332845 0.025498064 0.010211073 -0.23859504 -0.021971939 -0.97087061 0
0.0057642455 0.024598448 0.014783753 0.83999217 0.20548353 -0.50218493 0
-0.05335189 0.036122747 0.017809818 -0.60516322 -0.51176524 -0.60981458 0
-0.044699565 0.035233315 0.015576982 -0.26723906 -0.090533204 -0.95936799 0
-0.035305228 0.035199679 0.011712127 -0.37401384 -0.049194366 -0.92611748 0
-0.029553443 0.033302542 0.010070239 -0.24291407 -0.028817084 -0.96961963 0
0.0057712146 0.034957055 0.014572134 0.82168722 -0.30552998 -0.48112527 0
-0.063097425 0.045374412 0.017210281 -0.75869781 -0.26040468 -0.59713238 0
-0.055341262 0.044658825 0.01434987 -0.15268454 -0.37386084 -0.91483086 0
-0.045175448 0.045086648 0.013083437 -0.21024999 -0.31960413 -0.92393082 0
-0.035388909 0.043680433 0.010863423 -0.23525131 -0.19857605 -0.95143288 0
0.0081504108 0.041604403 0.012022295 0.56407869 -0.49681905 -0.65953475 0
0.015468583 0.042723127 0.014451916 0.11050995 -0.94002068 -0.32272086 0
0.025746446 0.04467864 0.01434518 0.4120574 -0.841977 -0.34825787 0
0.030728804 0.047511615 0.017453723 0.89583296 -0.34176096 -0.28404742 0
-0.12117493 0.059711546 0.018638846 -0.063553207 -0.9809469 -0.18358731 0
-0.11556071 0.059615884 0.018225165 -0.024434067 -0.97315216 -0.22886214 0
-0.10471162 0.059185222 0.017371161 -0.13068546 -0.94798869 -0.29023901 0
-0.094866253 0.058506798 0.016856939 -0.023445899 -0.93030518 -0.36603615 0
-0.084516205 0.057497595 0.015320142 -0.36214879 -0.87083972 -0.33239487 0
-0.074709304 0.054622594 0.014671522 -0.14921588 -0.90790778 -0.39171162 0
-0.065101348 0.053248018 0.01467677 -0.12562001 -0.84213358 -0.52443355 0
-0.055582136 0.053261057 0.012683271 -0.21047094 -0.4601388 -0.86253947 0
-0.04595241 0.052859224 0.011625648 -0.093219735 -0.35394752 -0.93060797 0
-0.037097149 0.054074451 0.010578881 -0.13977519 -0.19769983 -0.97024614 0
0.02889964 0.051436674 0.010849439 0.6524561 -0.28967726 -0.70027727 0
0.035115439 0.05552816 0.014560249 0.59951043 -0.73987943 -0.30523056 0
0.040886309 0.058887474 0.016467754 0.73824316 -0.65460759 -0.16274494 0
-0.13236427 0.068424046 0.016958604 -0.64520472 -0.64930046 -0.40264088 0
-0.1254088 0.06480293 0.015024108 -0.47950828 -0.67157257 -0.56485575 0
-0.11492407 0.062554941 0.013006216 -0.06273672 -0.75927371 -0.6477403 0
-0.10589243 0.062007729 0.012342135 -0.15719809 -0.77547288 -0.61149871 0
-0.094446182 0.06124194 0.011562703 0.055770289 -0.77129126 -0.63403422 0
-0.087010391 0.061487034 0.011707787 -0.1512516 -0.72152913 -0.67566174 0
0.03952717 0.060230371 0.010851913 0.69615269 -0.60930377 -0.37963194 0
0.043382954 0.064650983 0.015200575 0.93634242 -0.30550009 -0.1730102 0
-0.13352332 0.075051583 0.014822278 -0.80622667 -0.19235197 -0.55946338 0
-0.12871708 0.072405301 0.010860146 -0.57126057 -0.27329409 -0.77393258 0
0.044777192 0.074794762 0.014937897 0.99562669 -0.078467242 -0.05069932 0
-0.13355263 0.084081441 0.015935492 -0.71034658 0.42582625 -0.56042814 0
-0.12738442 0.086679913 0.011773968 -0.54074627 0.52674466 -0.65584564 0
0.044667903 0.084912352 0.014866363 0.98301834 0.1457392 -0.11151216 0
-0.13088681 0.090517879 0.01978052 -0.50597227 0.70762551 -0.4932121 0
-0.12377983 0.092539616 0.015535703 -0.38854188 0.76354522 -0.51578468 0
-0.11510782 0.093912788 0.014683083 -0.106325 0.85080558 -0.51461148 0
-0.10544106 0.09518759 0.01481194 -0.10101213 0.90024233 -0.42350945 0
-0.095123425 0.09566886 0.014615164 -0.017819576 0.90263993 -0.43002746 0
-0.085163027 0.096151449 0.014111231 -0.23110905 0.81220347 -0.53564352 0
-0.076059125 0.098541223 0.011841113 -0.23422918 0.75458419 -0.61297578 0
-0.068084627 0.099385463 0.01066683 -0.14233482 0.80543453 -0.57533991 0
-0.051971152 0.099607497 0.012595684 0.22640401 0.96212071 -0.15187167 0
-0.04499815 0.098966345 0.014816185 0.075914904 0.98730016 -0.13955393 0
-0.035197478 0.098541051 0.014663633 -0.091293693 0.98909259 -0.11559124 0
-0.025167795 0.099158436 0.012125716 -0.03656482 0.89171767 -0.4511126 0
-0.014554201 0.098741643 0.013466253 0.15274975 0.92151558 -0.35703856 0
-0.0051187202 0.09854275 0.014836111 -0.0057204966 0.95260155 -0.30416712 0
0.0051576584 0.09851367 0.014837472 0.023084024 0.95844954 -0.28432655 0
0.014944065 0.09833061 0.015004945 -0.0027888799 0.95947278 -0.28178775 0
0.024656024 0.098443814 0.014762856 0.0092829252 0.96806204 -0.25053889 0
0.035196573 0.097416602 0.014975784 0.30238876 0.91560745 -0.26499817 0
0.042149425 0.092734925 0.015491571 0.80371189 0.55958372 -0.20227024 0
-0.081245758 0.10092895 0.018147383 -0.4043757 0.91413695 -0.028876133 0
-0.074703984 0.10110083 0.016412847 -0.040748019 0.96516168 -0.25846165 0
-0.064876981 0.1009786 0.015635377 0.0027819679 0.98790783 -0.15501729 0
-0.055643961 0.10136906 0.015816392 0.0779147 0.95411235 -0.28913483 0
-0.049678929 0.10017573 0.019112403 0.53427273 0.77574176 -0.33582348 0
-0.030777894 0.10046875 0.018345943 -0.74506122 0.6539855 -0.13109864 0
-0.02462727 0.10094791 0.016738454 -0.0054813907 0.96389461 -0.26622748 0
-0.016872883 0.10044029 0.017846217 0.15398763 0.97066456 -0.18465711 0
-0.081090815 -0.081150778 0.024642093 -0.71505332 -0.69906026 -0.0036854937 0
-0.075130522 -0.0826056 0.024810003 -0.039973933 -0.99901128 0.019457413 0
-0.064930186 -0.082415454 0.024958046 0.025773404 -0.99922901 0.029612897 0
-0.054719876 -0.082159661 0.024579501 0.026809558 -0.99926263 0.027485926 0
-0.045041099 -0.08179643 0.025090666 0.049293406 -0.99848467 0.024465958 0
-0.034829475 -0.081252202 0.025186485 0.051415399 -0.99839896 0.023579158 0
-0.025243254 -0.080886148 0.024679527 0.025419625 -0.99930805 0.027151953 0
-0.014915876 -0.080699742 0.025107216 0.013493354 -0.99931341 0.034506269 0
-0.0047712065 -0.080575503 0.024967572 0.012914345 -0.99923462 0.036924832 0
0.0042585423 -0.080515675 0.024758259 -0.0029892698 -0.99950534 0.031306777 0
0.012283721 -0.080456235 0.024657233 0.16013892 -0.98702592 0.011634978 0
-0.082352422 -0.074960075 0.025058929 -0.99248362 0.097629577 -0.073788546 0
0.017344946 -0.077885315 0.025000485 0.65134162 -0.75867349 -0.012988486 0
0.021165663 -0.072489418 0.024977976 0.93791163 -0.34616953 0.022101276 0
-0.080616154 -0.068068981 0.025445761 -0.94410455 0.3170563 -0.090232916 0
-0.078912519 -0.063354678 0.024511443 -0.94350511 0.32164618 -0.079634964 0
0.021688934 -0.065128893 0.024998045 0.99879551 0.0045616725 -0.048854362 0
-0.074979521 -0.054576833 0.025087556 -0.76164138 0.64478636 -0.064444602 0
-0.065472268 -0.050547253 0.025401948 -0.10265409 0.99366802 -0.045672268 0
-0.057092432 -0.050493374 0.022359656 -0.038091984 0.98393822 -0.17439778 0
0.017589875 -0.05389405 0.024435675 0.80882084 0.58489466 -0.060885787 0
0.021375274 -0.057982877 0.024910241 0.89084208 0.45340002 0.028787598 0
-0.061046783 -0.04992111 0.026973478 -0.065414034 0.99746615 -0.027969509 0
-0.054177016 -0.048932038 0.026495649 -0.33374813 0.93915147 -0.081281409 0
-0.044924498 -0.046459846 0.025010923 -0.078662977 0.99351579 -0.082087934 0
-0.035367802 -0.046997145 0.025430745 -0.0036370782 0.9997223 0.023282962 0
-0.024822207 -0.044273112 0.024705557 -0.66370678 0.7478568 0.014267569 0
0.015704222 -0.045148332 0.025297716 0.99643761 0.047102604 0.069954671 0
-0.023462994 -0.034996036 0.025111251 -0.98155242 -0.18990564 0.022153588 0
0.015553638 -0.035240829 0.025066007 0.99331897 -0.050357804 0.10383324 0
-0.026026811 -0.025206272 0.024942789 -0.96902949 -0.23343091 0.080572158 0
0.015865127 -0.024802167 0.025141321 0.99693328 -0.076766819 0.015193973 0
-0.028394895 -0.015009951 0.024906058 -0.98166931 -0.18705826 0.036532391 0
0.016277874 -0.014721375 0.02485111 0.98669732 0.078372449 0.14242969 0
-0.030232778 -0.0021397995 0.025314588 -0.99477971 -0.10196824 -0.0039655892 0
-0.029480832 -0.0063979938 0.02479741 -0.99304724 -0.11766592 0.0034419044 0
0.014920781 -0.0049592522 0.024957119 0.97886759 0.15192433 0.13688403 0
-0.031074248 0.0050018863 0.025069438 -0.98238742 -0.17165345 -0.073823944 0
-0.029992674 0.00088937255 0.020650329 -0.96294957 -0.093120225 -0.2530942 0
0.01295173 0.0051224306 0.024735767 0.96987081 0.24073909 0.037355676 0
-0.050294273 0.019075135 0.025674362 -0.95306021 -0.30103153 0.03249792 0
-0.045180563 0.016156934 0.025036223 -0.28290457 -0.95121545 0.12310272 0
-0.035383135 0.013104022 0.024985479 -0.54167742 -0.84057826 0.0037225964 0
0.0093629621 0.017589252 0.025885025 0.94344997 0.29131919 0.15822521 0
0.011042275 0.013184736 0.024259496 0.96050209 0.27415264 0.047708631 0
-0.051119763 0.024669508 0.024752229 -0.98824447 -0.01130539 0.15246356 0
-0.049688652 0.027112693 0.029134396 -0.93134534 0.12052962 0.34361106 0
0.0078197317 0.024850752 0.025285527 0.96616107 0.19609693 0.16756743 0
-0.060533267 0.039582752 0.026759058 -0.53193086 -0.83392531 -0.14703088 0
-0.054280728 0.036300909 0.02490426 -0.68230963 -0.72600538 0.085847668 0
-0.049805656 0.030494446 0.028075643 -0.97586304 -0.14002191 0.1675868 0
0.0074475757 0.034779731 0.025328843 0.94108802 -0.27031058 0.20318845 0
0.010532406 0.039588422 0.02549864 0.71790224 -0.69607085 -0.01008515 0
-0.063814372 0.044472314 0.024869502 -0.86947274 -0.4819234 0.1084758 0
-0.05899898 0.04139984 0.027888006 -0.5784393 -0.47042775 0.66641253 0
0.0089543704 0.040440433 0.029030461 0.43182099 -0.63782293 0.63774014 0
0.015516158 0.041509707 0.025194615 0.26412827 -0.95965272 0.096452124 0
0.0252332 0.043788299 0.02526 0.25274166 -0.95517093 0.15417601 0
0.031295467 0.047358315 0.024194993 0.919038 -0.38638142 0.077965178 0
-0.12189151 0.059257179 0.025394846 -0.24891195 -0.96732885 0.048143886 0
-0.11511501 0.05888683 0.025277479 -0.023998128 -0.99915433 0.033388972 0
-0.10481555 0.058028329 0.025312189 -0.2070411 -0.97057796 0.12293267 0
-0.094931848 0.056988228 0.025274612 0.054360036 -0.99336928 0.10130353 0
-0.084620953 0.056351218 0.025036447 -0.3578845 -0.93295383 0.038932681 0
-0.075256638 0.053622384 0.024805915 -0.095489711 -0.99016285 0.10227051 0
-0.067126408 0.052270159 0.025537994 -0.49137232 -0.80674773 0.32819405 0
0.0352269 0.055163667 0.025198352 0.74284601 -0.64281821 0.18698803 0
0.041080572 0.059239697 0.02253419 0.60475022 -0.7718159 0.19641115 0
-0.13330837 0.066698745 0.025546862 -0.74743283 -0.66112638 -0.065237626 0
-0.12694256 0.062072925 0.024937252 -0.54523486 -0.83818936 -0.012555401 0
0.039488737 0.060503263 0.029075487 0.61113197 -0.72165543 0.32516328 0
0.043653894 0.06464076 0.024972554 0.92830932 -0.3384915 0.15383559 0
-0.13657542 0.074832574 0.025000758 -0.9728955 -0.2249008 -0.053795826 0
0.044935886 0.074914232 0.025062837 0.99769342 -0.060189918 0.031385221 0
-0.13536446 0.085109003 0.0247979 -0.88997436 0.45440379 0.038247157 0
0.044676896 0.085441031 0.025323046 0.98510879 0.13784516 0.10275835 0
-0.13133523 0.091046751 0.024506344 -0.62510818 0.77890688 0.050436687 0
-0.12540804 0.094958313 0.025167052 -0.45665509 0.88948578 0.016765457 0
-0.11493566 0.097198315 0.024894722 -0.032035153 0.99947858 0.0040513515 0
-0.10485595 0.097852521 0.024802307 -0.12659171 0.98991418 -0.063596711 0
-0.095207967 0.098588683 0.024746254 -0.0043528429 0.98845881 -0.15142751 0
-0.085865483 0.098650701 0.024782656 -0.18305083 0.98308873 -0.005371497 0
-0.043543067 0.099573813 0.024547422 0.11009088 0.9939211 -0.00089154177 0
-0.035265107 0.099214844 0.024752108 -0.10523456 0.99443382 -0.0051997984 0
-0.013229162 0.099281617 0.027960973 0.23282449 0.94171745 0.24281882 0
-0.0047856108 0.099156335 0.02544149 0.010944244 0.98020267 0.19769387 0
0.0051334272 0.098961122 0.025236709 0.032687202 0.98223913 0.18476464 0
0.01451774 0.098709464 0.025093598 0.0016953293 0.98289007 0.18418504 0
0.024704032 0.098826014 0.025180178 -0.0043878239 0.97934109 0.20216759 0
0.035030521 0.097552054 0.024861518 0.3456957 0.91280699 0.21743491 0
0.04267269 0.092678182 0.024574442 0.8172943 0.55843276 0.14206642 0
-0.0812985 0.10044483 0.024456963 -0.26804721 0.95898688 0.092167668 0
-0.075092033 0.10137515 0.025050094 -0.12830046 0.98977101 0.062388372 0
-0.064855114 0.10222699 0.025011173 -0.076302052 0.99607438 -0.044876929 0
-0.054747298 0.10323782 0.024970151 0.02335705 0.99970245 -0.0070311842 0
-0.047469746 0.10131845 0.025577964 0.55849701 0.81117487 -0.1734259 0
-0.030791342 0.10081074 0.024572529 -0.6210658 0.77822471 0.092970997 0
-0.024986368 0.10155954 0.025155848 -0.0028382516 0.99388528 0.11038163 0
-0.016069844 0.10081425 0.023758346 0.1953451 0.97804552 0.072575428 0
-0.007192058 0.10004437 0.021242099 0.021350101 0.99942023 -0.026520465 0
-0.080603696 -0.080928341 0.033551853 -0.71189922 -0.68899512 0.1359605 0
-0.074956886 -0.082170896 0.035065569 -0.11685099 -0.99158585 0.055706657 0
-0.06491445 -0.082158111 0.034957133 0.029678673 -0.99936694 0.019617289 0
-0.055398166 -0.081888549 0.035014 0.026396232 -0.99932593 0.025511645 0
-0.044837367 -0.081530735 0.035078876 0.045893982 -0.99864256 0.024632556 0
-0.034854822 -0.081089407 0.034989361 0.035604984 -0.99934119 0.0070270249 0
-0.024671467 -0.080765314 0.034949578 0.030100277 -0.999542 0.0031475304 0
-0.014936502 -0.080501944 0.035144445 0.023396101 -0.9996891 0.0086221583 0
-0.0051932014 -0.08030317 0.035045445 0.018070219 -0.99968386 0.01748324 0
0.0046481169 -0.080224469 0.035079628 -0.0032449786 -0.99959773 0.02817414 0
0.011623329 -0.080248795 0.03448604 0.087806776 -0.9953528 0.039531376 0
-0.081439286 -0.075433917 0.034911577 -0.96509296 0.014509646 0.26150522 0
-0.079905719 -0.072511971 0.038707174 -0.96003181 0.064070247 0.27245897 0
0.016967675 -0.07742101 0.035121985 0.64190984 -0.76193225 0.086087927 0
0.020914806 -0.072199397 0.034660246 0.9372921 -0.3453486 0.047094751 0
-0.080562025 -0.068329573 0.032721207 -0.91873884 0.35044286 0.18195835 0
-0.078344315 -0.064055927 0.035570096 -0.91875607 0.34967929 0.18333514 0
0.021762047 -0.064702272 0.03511316 0.99989027 -0.0071522715 0.012976376 0
-0.074193656 -0.05466466 0.034785695 -0.74273908 0.63636965 0.20826013 0
-0.065075345 -0.051459167 0.034901138 -0.069682814 0.97300661 0.22000527 0
-0.056501161 -0.050691333 0.036868531 -0.20954736 0.92640263 0.31283864 0
0.0096261501 -0.05027201 0.039866481 0.24996655 0.77406234 0.58167374 0
0.016554242 -0.053992841 0.035374314 0.68356472 0.66658396 0.29733002 0
0.020949248 -0.058616061 0.034177635 0.86000383 0.49503073 0.12384655 0
-0.053404063 -0.049141489 0.03390386 -0.25279877 0.94815034 0.19262344 0
-0.045007799 -0.047764566 0.035112035 -0.10058659 0.95666623 0.27326199 0
-0.035010293 -0.047543634 0.034702033 0.0029883038 0.99355763 0.1132889 0
-0.024691043 -0.04656969 0.034794312 -0.17750338 0.9621641 0.20671929 0
-0.015793595 -0.043490957 0.036698051 -0.56341064 0.40301535 0.72121221 0
-0.0047813165 -0.043278407 0.039127238 0.033850737 0.16282508 0.98607409 0
0.0052961004 -0.044570126 0.03819475 0.23785324 0.22046146 0.94595063 0
0.012406334 -0.045696858 0.033993259 0.81693959 0.16136423 0.55368888 0
-0.021607053 -0.033965886 0.032353234 -0.74167651 -0.28178254 0.60869908 0
-0.015268516 -0.035262391 0.036739007 -0.43602994 -0.11815596 0.89214182 0
-0.0051111788 -0.035193119 0.038944747 -0.025412673 -0.015818816 0.99955189 0
0.00540148 -0.035418712 0.03741109 0.32194602 0.013558827 0.94666094 0
0.012310983 -0.035143241 0.033398297 0.77690125 -0.039968438 0.62835252 0
-0.023384249 -0.024713071 0.033307843 -0.75124317 -0.19363965 0.63098127 0
-0.015280669 -0.025105668 0.038381912 -0.33780566 -0.11291116 0.93441874 0
-0.0049261823 -0.02514589 0.039557971 0.048618034 -0.078316867 0.99574232 0
0.0049667894 -0.025020424 0.038047519 0.32782498 -0.04271416 0.94377232 0
0.012783235 -0.024988722 0.033286415 0.76397413 0.0028495518 0.6452406 0
-0.02421643 -0.014982825 0.034300368 -0.67771953 -0.1175167 0.72586918 0
-0.016141975 -0.015703807 0.038988218 -0.31468174 -0.07400734 0.94630778 0
-0.0021106869 -0.015716625 0.039876726 0.17512432 -0.025846455 0.98420703 0
0.0055223238 -0.015016018 0.038246468 0.35416391 -0.028178561 0.93475872 0
0.012589595 -0.015043613 0.033138424 0.77571929 -0.03433698 0.6301434 0
-0.025089173 -0.0048802127 0.034743175 -0.67224741 -0.096424066 0.73402029 0
-0.017128693 -0.0049837329 0.039384488 -0.28758422 -0.0084060794 0.95771843 0
-0.0014200774 -0.0041855718 0.039788689 0.16865388 0.048629854 0.98447508 0
0.0050807418 -0.00476823 0.038188335 0.32510808 0.073227301 0.94283754 0
0.011743783 -0.0045041949 0.033340968 0.86500961 0.10606956 0.49041572 0
-0.030978546 0.0065173204 0.030897317 -0.76804501 -0.1747748 0.61608481 0
-0.02528258 0.0051893387 0.035580546 -0.55578196 -0.043869156 0.8301698 0
-0.017250588 0.0049325819 0.039258931 -0.27552214 0.013484494 0.96120018 0
-0.0026060678 0.0055808607 0.039492611 0.1861801 0.050438497 0.98122013 0
0.0052100844 0.0048875883 0.037038065 0.452631 0.10833777 0.8850922 0
0.01116812 0.0039231018 0.03202359 0.84908456 0.19484711 0.49100915 0
-0.044215858 0.018149795 0.031386953 -0.38347661 -0.5172475 0.76511484 0
-0.034234777 0.015948875 0.032950871 -0.35513183 -0.54432601 0.75999373 0
-0.025077198 0.014476046 0.036610384 -0.39237025 -0.10570349 0.91371351 0
-0.015186132 0.014736325 0.039413758 -0.11852296 0.0335216 0.99238533 0
-0.0049777334 0.01514167 0.039324213 0.1436509 0.0671812 0.9873454 0
0.0057339482 0.014982629 0.034578729 0.68796104 0.21571214 0.6929487 0
0.010098024 0.01065056 0.030354504 0.88978618 0.22631682 0.39630964 0
-0.045167569 0.024955211 0.031591527 -0.34104085 0.0058129695 0.94003046 0
-0.03545877 0.025377145 0.034948371 -0.22775614 0.023150926 0.97344291 0
-0.025190182 0.02513667 0.037146661 -0.24705523 0.0024270359 0.96899843 0
-0.014701175 0.025250072 0.038807128 -0.038340289 0.078170925 0.99620247 0
-0.0046660136 0.024905952 0.038239464 0.2395643 0.1369144 0.96117812 0
0.0038774277 0.025324455 0.033739273 0.70126665 0.1691359 0.69254464 0
-0.052000169 0.036340695 0.030927021 -0.40071395 -0.29831049 0.86627895 0
-0.044593282 0.034956291 0.031651307 -0.23500361 -0.025481284 0.97166044 0
-0.03513312 0.035157613 0.034880336 -0.24426091 -0.0041630897 0.96970063 0
-0.025484892 0.034766056 0.036856599 -0.18780832 0.046151206 0.98112082 0
-0.014852643 0.03481013 0.038011204 0.00040827374 0.093071193 0.99565935 0
-0.0050231954 0.034814607 0.036883857 0.26900887 0.12254825 0.95530951 0
0.0036188902 0.034946807 0.032880876 0.67662889 -0.028634662 0.73576719 0
-0.062009193 0.046692081 0.032300316 -0.58528799 -0.10819121 0.80357498 0
-0.054947969 0.044735603 0.032902554 -0.093480103 -0.34729388 0.93308544 0
-0.045021374 0.044798382 0.033750631 -0.10980267 -0.2192115 0.96947908 0
-0.035258729 0.045992054 0.035948485 -0.17626178 -0.38883784 0.90428805 0
-0.024861827 0.045481101 0.037162416 -0.11709777 -0.24439628 0.96257919 0
-0.014885161 0.044809233 0.037028808 0.045209587 0.098737054 0.99408609 0
-0.0051597334 0.045162402 0.036364045 0.096606053 0.029134205 0.99489617 0
0.0050187735 0.044909362 0.034321714 0.25397372 -0.29728168 0.92039174 0
0.014989131 0.045631938 0.033212271 0.10678625 -0.54266298 0.83313483 0
0.024669958 0.046668507 0.032208588 0.29982868 -0.55785513 0.7738865 0
0.030346036 0.048732601 0.030415654 0.70865113 -0.44419032 0.54818666 0
-0.1207857 0.059813906 0.030870155 -0.21467 -0.93102002 0.29515845 0
-0.11443099 0.059609495 0.031304646 -0.023806801 -0.97377348 0.22627103 0
-0.10554516 0.059462391 0.031176886 -0.10086738 -0.92892009 0.35627684 0
-0.095059454 0.059214842 0.031756327 0.026878508 -0.89438838 0.44648284 0
-0.083747715 0.058115769 0.033444654 -0.42293265 -0.79045671 0.44306454 0
-0.074877635 0.056655977 0.035192832 -0.088202223 -0.85062128 0.51832801 0
-0.06484963 0.055250991 0.034799948 -0.18351713 -0.807096 0.56117499 0
-0.05505247 0.055186845 0.035738681 0.091518588 -0.59270138 0.80020583 0
-0.045381587 0.055362593 0.035519637 -0.073352218 -0.52342993 0.84890544 0
-0.035257231 0.054416023 0.036520783 -0.2057116 -0.17444736 0.96293867 0
-0.025383933 0.0540016 0.037027031 -0.018101322 -0.23277728 0.97236156 0
-0.015158571 0.055502106 0.036820643 0.19524349 -0.21861832 0.95607841 0
-0.0052799778 0.05557517 0.035948247 0.034371652 -0.10296463 0.99409097 0
0.0048456294 0.054933306 0.035693992 0.022175267 -0.098052986 0.99493414 0
0.014906234 0.05531653 0.035440411 0.026648227 -0.11724571 0.9927454 0
0.024944317 0.054770455 0.03411163 0.289453 -0.17794488 0.94050652 0
0.032702308 0.056466747 0.031854775 0.44251716 -0.5350191 0.71967566 0
-0.13251892 0.067969039 0.032466542 -0.69907689 -0.48533159 0.525114 0
-0.12470473 0.064881042 0.035707157 -0.42409873 -0.65926015 0.6208995 0
-0.11532153 0.06242305 0.036374807 -0.021561876 -0.78988039 0.61288166 0
-0.10509304 0.062159218 0.03616919 -0.059791122 -0.8413527 0.5371691 0
-0.095091298 0.061810195 0.036951702 0.032529935 -0.85596019 0.51601738 0
-0.086074233 0.061773751 0.036922202 -0.22682764 -0.81084555 0.5395171 0
-0.078289643 0.060256511 0.039819866 -0.077113412 -0.60897899 0.78942901 0
-0.013111266 0.060988672 0.038917724 0.21409693 -0.6681655 0.71254283 0
-0.0048675765 0.061805047 0.038463254 0.046456464 -0.6663121 0.74422443 0
0.0048308088 0.062272284 0.038412321 0.042036701 -0.60477322 0.79528749 0
0.014693794 0.062563226 0.038103901 0.026724007 -0.59729958 0.80157286 0
0.024850128 0.062318243 0.037563667 0.035839647 -0.62529135 0.77956796 0
0.035678554 0.063826479 0.036855172 0.33392072 -0.59353817 0.73226321 0
0.041869927 0.066437319 0.033617269 0.82496434 -0.37832892 0.41988224 0
-0.13338321 0.07514745 0.034974545 -0.77177846 -0.098433077 0.62822688 0
-0.12721112 0.073397689 0.039002787 -0.40535706 -0.24875896 0.87966162 0
0.038769599 0.074327692 0.038975418 0.64740264 -0.091984011 0.75657701 0
0.043135349 0.075178795 0.034749273 0.84690571 -0.09156511 0.52380019 0
-0.13313851 0.084302001 0.0338335 -0.77178222 0.32396564 0.54717308 0
-0.12710419 0.086507067 0.038266893 -0.53515416 0.49336872 0.68570936 0
-0.11801562 0.089699522 0.039745945 -0.068603545 0.6680755 0.74092424 0
0.017872311 0.088888481 0.039425023 0.23318264 0.37290806 0.89808989 0
0.024954908 0.087872103 0.039511435 -0.055508703 0.10240362 0.99319291 0
0.036957085 0.087140664 0.038704287 0.31962746 0.44112277 0.83859944 0
0.04249166 0.084868699 0.034731064 0.85747302 0.23865604 0.45583248 0
-0.13036786 0.090234369 0.031264726 -0.61560035 0.75948983 0.21026467 0
-0.12446336 0.092535429 0.033890139 -0.4003928 0.76004112 0.51188195 0
-0.11496751 0.093842812 0.034884095 -0.039149817 0.83584988 0.54756039 0
-0.10505482 0.094428241 0.035168912 -0.13795246 0.83185369 0.53757662 0
-0.095088042 0.095275372 0.034978777 0.071214572 0.83240193 0.54957747 0
-0.08441861 0.0960394 0.034806482 -0.38177943 0.80025381 0.46242648 0
-0.075257078 0.098004006 0.037462652 -0.076108687 0.78682476 0.61246574 0
-0.065433212 0.098791488 0.037969302 -0.064157479 0.80073172 0.59557754 0
-0.055269614 0.098810174 0.038399413 0.007249916 0.79287153 0.60934567 0
-0.044700399 0.098979697 0.035864469 0.12472775 0.98026782 0.1533556 0
-0.034610417 0.098673247 0.035240855 -0.048150476 0.99499381 0.087572038 0
-0.025091777 0.098878212 0.035508852 0.030705327 0.97678733 0.21199936 0
-0.014763728 0.096337944 0.035696797 0.24953994 0.83699429 0.48700145 0
-0.004698731 0.094904408 0.035389535 0.061076596 0.8240369 0.56323427 0
0.0050930516 0.094576426 0.035064649 0.046106048 0.8100962 0.58448136 0
0.015209479 0.093751244 0.035629876 0.014332512 0.78503853 0.61928111 0
0.024896244 0.09387359 0.035414331 0.024467766 0.77985084 0.62548709 0
0.034708537 0.093500219 0.03393339 0.25419319 0.75895262 0.59948039 0
0.041129697 0.092000403 0.031994648 0.77314115 0.48658559 0.40680137 0
-0.074475914 0.10057669 0.032427482 -0.10190453 0.9720726 0.21140075 0
-0.064946361 0.10104603 0.032972325 -0.047857583 0.94740784 0.31643 0
-0.055035982 0.10123485 0.033162255 0.037446462 0.93531197 0.35183695 0
-0.047868002 0.10069775 0.031871445 0.30646661 0.89274919 0.33026817 0
-0.024788935 0.10023196 0.030762186 -0.01726629 0.94605482 0.3235462 0
-0.019004535 0.1001182 0.030180654 0.20897712 0.92877489 0.30611393 0
-0.074330725 -0.081665911 0.045019183 -0.24568093 -0.95810539 0.14722407 0
-0.065200701 -0.081895135 0.045191091 0.032323617 -0.99317563 0.11205995 0
-0.055358473 -0.081529535 0.04522023 0.041027013 -0.99642932 0.073792651 0
-0.04488549 -0.081233934 0.045134198 0.01767792 -0.99813884 0.05836447 0
-0.035201367 -0.081058927 0.044577643 0.027400266 -0.9993602 0.022985352 0
-0.024957778 -0.080748998 0.044763956 0.02963355 -0.99889594 0.03645182 0
-0.014857061 -0.080456093 0.045032538 0.027295282 -0.9987691 0.041414917 0
-0.0050877696 -0.080216326 0.04489474 0.025098881 -0.9993704 0.025076831 0
0.0032712491 -0.080058999 0.043176521 0.017060606 -0.99974346 0.01489775 0
0.010810441 -0.08005055 0.041124109 -0.0041650012 -0.99940139 0.034344051 0
-0.080262996 -0.077808432 0.040754195 -0.95881224 0.11981599 0.25753292 0
-0.07837078 -0.075014494 0.045344412 -0.94641083 0.050397906 0.31900853 0
-0.0034011446 -0.079920463 0.049451724 0.028881233 -0.97670835 0.2126186 0
0.0063595194 -0.079822965 0.046687957 0.040747259 -0.98708951 0.15489966 0
0.015236817 -0.075480543 0.045683909 0.66004401 -0.53659415 0.52574587 0
0.020573212 -0.071208306 0.041556433 0.91399115 -0.32473928 0.24323806 0
-0.075157195 -0.064994164 0.045664217 -0.73253083 0.35576063 0.58037317 0
-0.065151423 -0.062476579 0.048625354 -0.080027916 0.45421758 0.88728905 0
-0.055508837 -0.061874397 0.048964806 -0.043718223 0.48827648 0.8715933 0
-0.045644008 -0.061600897 0.04923065 -0.034537982 0.51095515 0.8589133 0
-0.035954922 -0.061321549 0.049348686 -0.010758096 0.54600137 0.83771521 0
-0.025594888 -0.06093055 0.049177554 -0.0063058287 0.54969585 0.8353411 0
-0.015181353 -0.061085712 0.049348656 0.0013145242 0.54968208 0.83537287 0
-0.004922973 -0.061889134 0.049354482 0.042944185 0.38922784 0.92013991 0
0.0059406105 -0.063320547 0.049140614 0.16507182 0.28727907 0.94351584 0
0.015991719 -0.064888142 0.046288308 0.36359608 0.30283931 0.8809576 0
0.020996742 -0.065640546 0.043578606 0.94600844 0.093677767 0.3103101 0
-0.072644427 -0.056927502 0.042750284 -0.5910157 0.61627364 0.52048755 0
-0.064870827 -0.055637375 0.044189986 -0.086437196 0.72383314 0.6845395 0
-0.054461263 -0.055139009 0.044026207 -0.064447485 0.65961939 0.74883163 0
-0.045397751 -0.054125343 0.045494657 -0.14665192 0.60805428 0.78023273 0
-0.035077099 -0.054893062 0.04662817 -0.00088710379 0.40012461 0.91646028 0
-0.024550807 -0.054722015 0.046529014 0.012588243 0.30307531 0.95288348 0
-0.015003894 -0.054835841 0.046435095 -0.0008207541 0.3890717 0.92120707 0
-0.0048605436 -0.055012602 0.046734933 -0.0078552719 0.38734537 0.92190129 0
0.0052727987 -0.054244347 0.045365043 0.15139733 0.58170617 0.79918504 0
0.013551759 -0.056005906 0.043359727 0.54355139 0.58463204 0.60229331 0
-0.0430669 -0.04961285 0.040795755 -0.12715381 0.90670174 0.40214908 0
-0.034499802 -0.049137879 0.042277128 -0.079642005 0.92096215 0.38142627 0
-0.024860278 -0.048516702 0.042250711 -0.055101812 0.90200001 0.42820534 0
-0.015271354 -0.047891717 0.042403396 -0.07936836 0.79774356 0.59775066 0
-0.0052532805 -0.048000596 0.042244967 0.12346446 0.71777517 0.68524104 0
0.0030825157 -0.049101319 0.041114405 0.24196516 0.76971704 0.5907526 0
-0.0029780972 -0.021122638 0.040018491 0.027791712 -0.059931464 0.99781543 0
-0.01127908 -0.012750772 0.040153474 -0.056857243 -0.039257627 0.99761021 0
-0.0055271802 -0.014706681 0.040174913 0.01551204 -0.02780343 0.999493 0
-0.012394942 -0.0053955098 0.040293913 -0.11118875 -0.025032982 0.99348402 0
-0.0060482058 -0.0051813219 0.040349357 0.076608442 0.0022254554 0.99705881 0
-0.012174449 0.0046583689 0.040265601 -0.11359317 0.039761104 0.99273139 0
-0.0073979609 0.0045223436 0.040276963 0.10887807 0.039362572 0.99327546 0
-0.01030548 0.010575947 0.040022187 -0.05437015 0.074070297 0.9957698 0
-0.0080560697 0.010958338 0.040070519 0.030319661 0.056283239 0.99795437 0
-0.040282395 0.049529109 0.04050285 0.010849047 -0.68302751 0.73031211 0
-0.035282377 0.049677469 0.04078364 0.043634627 -0.93202823 0.35974896 0
-0.02710744 0.049417216 0.040554278 -0.076868981 -0.81399465 0.57576364 0
-0.070855029 0.059816614 0.040044509 -0.055141564 -0.67030776 0.74003166 0
-0.063599169 0.059561912 0.040412758 -0.088039927 -0.63782859 0.76512986 0
-0.055058856 0.059306893 0.040876221 0.028036742 -0.79066592 0.61160547 0
-0.044132691 0.058787622 0.043424923 -0.20212936 -0.93701392 0.28486577 0
-0.035005972 0.057539202 0.043602224 -0.040087581 -0.91627175 0.39854619 0
-0.025479319 0.056748848 0.042884018 0.074545085 -0.85259092 0.51723468 0
-0.018747929 0.058690436 0.042599596 0.67491901 -0.66917896 0.31094024 0
-0.12077109 0.067282729 0.040129889 -0.1944892 0.011614952 0.98083591 0
-0.11514363 0.067837328 0.040707491 -0.073476367 -0.28127217 0.95681095 0
-0.10487906 0.067412309 0.041788872 -0.15757753 -0.54198962 0.82547969 0
-0.094813555 0.066909038 0.041962497 0.042449776 -0.49313766 0.86891502 0
-0.084571749 0.066780932 0.042231116 -0.2914924 -0.48383278 0.82518971 0
-0.074773245 0.064929113 0.043604098 -0.081098065 -0.58289409 0.80849093 0
-0.06465178 0.064713828 0.044336319 -0.063512154 -0.55617541 0.8286345 0
-0.054643333 0.064625695 0.044885486 0.026444297 -0.51044178 0.85950553 0
-0.04514879 0.064920358 0.044935293 -0.044672377 0.13004957 0.99050063 0
-0.035181604 0.065264232 0.045228638 0.020425674 0.15039608 0.98841476 0
-0.024786752 0.064901248 0.045060962 0.035587598 0.10296845 0.99404776 0
-0.015558442 0.064983875 0.043644141 0.28813395 -0.40768579 0.86647052 0
-0.004929198 0.066743746 0.042674787 0.056905597 -0.61182791 0.78894132 0
0.0045574689 0.067359254 0.042029399 0.13880856 -0.53582305 0.83284205 0
0.01502885 0.067461863 0.040989514 0.087847188 -0.25547746 0.9628157 0
0.024689151 0.067484632 0.040552281 -0.036191557 -0.10075743 0.99425256 0
0.032811038 0.0682064 0.040753808 0.13426286 -0.26875883 0.95380408 0
-0.12383249 0.076065876 0.042192325 -0.40296224 -0.28687149 0.86909497 0
-0.11472006 0.074561879 0.043465629 -0.085862547 -0.2967324 0.95109278 0
-0.10528557 0.075107887 0.04437964 -0.096424855 -0.14570914 0.98461729 0
-0.095069483 0.074609481 0.044466864 0.04133958 -0.16589752 0.9852761 0
-0.084730305 0.074823104 0.045004088 -0.32231656 -0.087478675 0.9425813 0
-0.074878767 0.075215384 0.047706891 -0.049145561 -0.058439586 0.9970805 0
-0.064941749 0.075016521 0.048185304 -0.045251977 -0.065945201 0.99679655 0
-0.054332744 0.074940942 0.048385482 0.15905222 -0.12231679 0.97966373 0
-0.045249935 0.075312659 0.045431092 0.086264014 -0.12851192 0.98794895 0
-0.035100155 0.075035416 0.046446946 0.038041327 -0.092894197 0.99494898 0
-0.025440082 0.07488025 0.046085253 0.03456622 -0.097735316 0.99461198 0
-0.014578492 0.07496161 0.045728225 0.029348485 -0.095879667 0.99496013 0
-0.0053362246 0.074967206 0.045340896 0.10224001 -0.077296987 0.99175203 0
0.0052538342 0.075097851 0.043660007 0.10222582 0.026364874 0.99441171 0
0.01525395 0.074960828 0.042200569 0.13109876 -0.14012106 0.981417 0
0.024937764 0.07468427 0.041746799 -0.0016092635 -0.11195745 0.99371165 0
0.034001708 0.075257465 0.041478142 0.24698657 0.00027619195 0.96901888 0
-0.12384552 0.083533943 0.041925944 -0.31788886 0.30378696 0.89814258 0
-0.1147323 0.084833361 0.042375095 -0.060323235 0.34069443 0.93823689 0
-0.10531445 0.085135244 0.043225192 -0.10603306 0.34938851 0.93095905 0
-0.095032066 0.085203961 0.043734301 0.05726793 0.3231498 0.94461346 0
-0.08444047 0.084925532 0.044229262 -0.2961697 0.26374796 0.91799814 0
-0.074988812 0.084716573 0.047035981 -0.055582359 0.2328186 0.97093052 0
-0.065059714 0.08502958 0.047355294 -0.042075928 0.25450957 0.96615452 0
-0.054513533 0.085160226 0.047786232 0.022281505 0.27000925 0.96259987 0
-0.045306679 0.085080408 0.045465332 0.21522832 0.14908376 0.96511698 0
-0.034739472 0.085158139 0.045433369 0.033764012 0.29644141 0.95445406 0
-0.024964964 0.084945999 0.045168586 0.03071405 0.29592109 0.95471841 0
-0.015212297 0.085073039 0.04480011 0.033427276 0.30643794 0.95130354 0
-0.0052842745 0.085417524 0.044160638 0.098096028 0.36804587 0.92461854 0
0.0052949288 0.085344471 0.042210501 0.08726307 0.29441723 0.95168459 0
0.014231241 0.084900595 0.041739449 0.15127306 0.31051597 0.93845421 0
0.024969488 0.083052516 0.040919024 0.054762151 0.28450468 0.95710927 0
0.033106931 0.083644472 0.040505055 0.10191903 0.1633365 0.98129177 0
-0.10226777 0.090784438 0.041010663 -0.23532477 0.63848275 0.73277694 0
-0.095284782 0.0909907 0.041174088 0.01956914 0.5785051 0.81544399 0
-0.084038079 0.091436438 0.04133559 -0.3032445 0.67294014 0.67468089 0
-0.075150326 0.092824921 0.042810835 -0.093644984 0.65710819 0.74795681 0
-0.064916857 0.093137398 0.043308333 -0.048514877 0.59857464 0.79959661 0
-0.055020478 0.094242349 0.042664669 -0.010300091 0.62822294 0.77796519 0
-0.045089394 0.095474638 0.043657262 -0.22110768 0.39594576 0.89125663 0
-0.03495935 0.095591895 0.044130381 0.0028173351 0.40805492 0.91295308 0
-0.024814576 0.095157608 0.043989774 0.11764617 0.39882258 0.90945041 0
-0.016684322 0.093167908 0.042392701 0.48852727 0.53215075 0.6914888 0
-0.0062915278 0.090757109 0.040929351 0.10315627 0.77144998 0.62787235 0
0.0068948851 0.090289474 0.040182631 -0.012022734 0.68459547 0.72882402 0
0.011351692 0.090154089 0.040032025 0.097631343 0.40693107 0.90822649 0
-0.072822683 -0.080472417 0.050899763 -0.070366696 -0.86104381 0.50363886 0
-0.065087661 -0.080686189 0.050795455 -0.013480521 -0.84213698 0.53909504 0
-0.055156913 -0.08069241 0.050872818 0.0026191836 -0.85995692 0.51035982 0
-0.04521329 -0.080498181 0.050970495 0.017716013 -0.90514058 0.42474306 0
-0.035153959 -0.080369189 0.050805412 0.022769069 -0.92781466 0.37234601 0
-0.025143418 -0.080193922 0.050639868 0.023732483 -0.9535104 0.30042422 0
-0.017958526 -0.080081984 0.050421052 0.024168642 -0.96442795 0.26323879 0
-0.073908933 -0.075827569 0.051592186 -0.31042191 0.14585514 0.93934262 0
