# .PCD v0.7 - Point Cloud Data file format
VERSION 0.7
FIELDS x y z normal_x normal_y normal_z curvature
SIZE 4 4 4 4 4 4 4
TYPE F F F F F F F
COUNT 1 1 1 1 1 1 1
WIDTH 377
HEIGHT 1
VIEWPOINT 0 0 0 1 0 0 0
POINTS 377
DATA ascii
-0.0056346594 -0.011488994 -5.0331619e-05 -0.0053685955 -0.032038543 -0.9994722 0
0.0011340027 -0.010339788 -2.0047735e-05 0.015359113 -0.040748693 -0.99905133 0
-0.010282021 -0.0051842127 -1.9712319e-05 -0.048562005 -0.0025086764 -0.99881703 0
-0.0052461964 -0.0050628968 -0.00017173156 -0.020667961 -0.01195851 -0.99971491 0
0.0048646103 -0.0046328744 -0.00020250599 0.009521299 -0.031477433 -0.99945909 0
0.014439124 -0.0029122899 -0.00013628675 0.022038879 -0.043110322 -0.99882722 0
0.021468671 -0.00090886839 -5.167225e-05 0.02595634 -0.044959813 -0.9986515 0
-0.010118239 0.0046916343 -6.3560415e-06 -0.07229282 0.0036517119 -0.9973768 0
-0.0048758974 0.0049432996 -0.00020254271 -0.024747021 0.0020740796 -0.99969155 0
0.0048897299 0.0051622349 -0.00031132568 -0.0049203909 0.00067406235 -0.99998772 0
0.015121941 0.004958977 -0.00031026214 0.0023408311 -0.011484222 -0.99993128 0
0.025005167 0.0054700347 -0.00021460986 0.021030832 -0.025477802 -0.99945414 0
0.032161966 0.0070786551 -7.1023802e-05 0.030550424 -0.024203945 -0.99924016 0
-0.010050029 0.013524183 -7.7829209e-06 -0.072295353 -0.00065856514 -0.99738306 0
-0.0049738497 0.014634736 -0.0001649012 -0.027927129 0.0076339897 -0.99958086 0
0.0050507467 0.01488318 -0.00029629536 -0.0071087354 0.0052274731 -0.99996108 0
0.014982307 0.014853202 -0.0003401798 -0.00091771211 0.0041576694 -0.99999088 0
0.024931325 0.014812016 -0.00029069558 0.01531587 0.0034633451 -0.99987674 0
0.033187319 0.014105176 -0.00010218952 0.029656699 0.0056613279 -0.99954414 0
-0.059515867 0.029439019 -6.0165321e-06 0.028629428 -0.0030793166 -0.99958527 0
-0.003486698 0.024291387 -8.09302e-05 -0.023165774 0.01783541 -0.99957258 0
0.0052056503 0.025093399 -0.00017915734 -0.0073686279 0.015193002 -0.99985737 0
0.014879814 0.025184397 -0.00023062926 -0.0037594535 0.014368298 -0.99988967 0
0.024888529 0.0246714 -0.00019302462 0.017755551 0.016471697 -0.99970675 0
0.031447724 0.022751257 -5.3801068e-05 0.035688113 0.01591054 -0.99923635 0
-0.06076875 0.031490687 -3.3986511e-05 -0.0087903393 0.015236052 -0.99984533 0
-0.059551556 0.030338353 -3.5752446e-06 0.04661544 0.0090890042 -0.99887156 0
-0.00098762242 0.030653706 -9.8503015e-06 -0.016499361 0.019614043 -0.99967152 0
0.0059023965 0.032368172 -5.724013e-05 -0.010343412 0.023694299 -0.9996658 0
0.015339527 0.034098122 -8.4125648e-05 -0.0030084846 0.020910013 -0.99977684 0
0.022865206 0.032781407 -7.3033159e-05 0.017438814 0.023751885 -0.99956578 0
-0.030183451 -0.040423401 0.0091461148 -0.83217591 -0.48153234 -0.2749725 0
-0.024748825 -0.042339399 0.0052131116 -0.10825033 -0.9314546 -0.34738201 0
-0.018363189 -0.040752839 0.0057861498 0.44238743 -0.89011228 -0.10951432 0
-0.032468077 -0.034053884 0.0057286127 -0.79731923 -0.43661991 -0.41670752 0
-0.025356662 -0.035259835 0.0014021894 -0.20906632 -0.081315495 -0.97451478 0
-0.014606103 -0.03599494 0.0027824233 0.28639847 -0.5374254 -0.7931897 0
-0.0052158376 -0.033344962 0.004581627 0.42891487 -0.81175357 -0.39634359 0
0.0012404755 -0.030758243 0.0060974411 0.45794266 -0.87263417 -0.16970012 0
-0.040547252 -0.020948464 0.008250894 -0.83252501 -0.43829682 -0.33881846 0
-0.035397336 -0.024930269 0.0039887135 -0.56674564 -0.28781188 -0.77198684 0
-0.024963768 -0.024974512 0.0011562154 -0.10747252 0.02113707 -0.99398333 0
-0.015166519 -0.025106881 0.00048666116 -0.016668282 -0.023262862 -0.9995904 0
-0.0049283821 -0.024991849 0.00069710606 0.052819278 -0.080581345 -0.99534756 0
0.0052970964 -0.025836958 0.0033123235 0.32513788 -0.57244581 -0.7527225 0
0.014450867 -0.023141338 0.0051547969 0.45059329 -0.81984764 -0.35329244 0
0.020623269 -0.020462284 0.0068467031 0.4775593 -0.8750456 -0.078944504 0
-0.042855963 -0.014528185 0.0056628049 -0.80433661 -0.41700062 -0.42326483 0
-0.034930628 -0.01518492 0.0020265162 -0.0065390295 -0.0041279383 -0.99997014 0
-0.025120661 -0.014966443 0.0013915012 -0.13224049 0.024069302 -0.99092537 0
-0.014900803 -0.015289193 0.0003327117 -0.061843738 -0.0071866596 -0.99805999 0
-0.0047677648 -0.016221313 0.00013989721 0.012321183 -0.043507937 -0.99897712 0
0.0051826909 -0.015075198 0.00042795198 0.052799512 -0.08391723 -0.9950729 0
0.014947853 -0.014905849 0.00099543738 0.067284442 -0.13067871 -0.98913896 0
0.024767464 -0.015586175 0.0037143971 0.35443079 -0.62620217 -0.69444197 0
0.034045499 -0.012288535 0.0055857329 0.47205421 -0.82112849 -0.32080022 0
-0.050597187 -0.0011727947 0.0082072038 -0.84268212 -0.43132147 -0.32225558 0
-0.04573724 -0.0049300804 0.003772398 -0.58313721 -0.33392006 -0.74057299 0
-0.034728833 -0.0051918672 0.0019505627 0.042420767 -0.01844603 -0.99892956 0
-0.025041766 -0.0048295911 0.001508864 -0.12368792 -0.0012087596 -0.99232042 0
-0.01508052 -0.0048479531 0.00033212826 -0.087884411 0.0040236167 -0.9961226 0
0.0077126306 -0.0093198447 3.4491186e-05 0.022765324 -0.054106526 -0.99827564 0
0.015927875 -0.0075104865 0.00018075983 0.036469679 -0.083782576 -0.99581641 0
0.025042884 -0.0052291891 0.00037792977 0.0365748 -0.097967558 -0.99451727 0
0.035278562 -0.0053378819 0.0014005714 0.14806768 -0.27732942 -0.94929677 0
0.044665746 -0.0049919663 0.0041223117 0.41572896 -0.72319651 -0.55150366 0
0.052891575 -0.0015510223 0.0060778065 0.50428522 -0.83340871 -0.2261114 0
-0.0529163 0.005478675 0.0049656061 -0.80847037 -0.42435044 -0.40780202 0
-0.045056898 0.0049637519 0.0011006038 0.022196051 -0.039586727 -0.99896961 0
-0.034901559 0.0047376822 0.0017018848 0.032188367 -0.021968173 -0.99924034 0
-0.024850627 0.0051358594 0.0013958735 -0.093861304 -0.01403521 -0.99548644 0
-0.015259324 0.004760711 0.00038524804 -0.08679048 0.0012464743 -0.99622583 0
0.028951207 0.0006844516 3.9195173e-05 0.029892532 -0.056768082 -0.99793977 0
0.035916828 0.00390164 0.00014343334 0.03260234 -0.040088627 -0.99866414 0
0.044898234 0.0050180224 0.00043508204 0.047127206 -0.040721759 -0.99805844 0
0.055444818 0.0041606445 0.0024939363 0.30396259 -0.38920337 -0.86955583 0
0.063701369 0.006293776 0.0056834514 0.67388642 -0.53831464 -0.50605774 0
-0.060622912 0.018637942 0.007074669 -0.85618925 -0.4457278 -0.26127887 0
-0.05582672 0.014690261 0.0030947602 -0.6145283 -0.34890023 -0.70754761 0
-0.044800013 0.01519435 0.00092900172 0.076355673 -0.011453763 -0.99701488 0
-0.034857139 0.015056739 0.0015612025 0.03523631 -0.012091622 -0.9993059 0
-0.024785107 0.014971544 0.0012450006 -0.09135738 -0.016304735 -0.99568462 0
-0.014863132 0.014920291 0.00035766125 -0.074761368 0.0001702037 -0.99720144 0
-0.0093904817 0.018568808 1.9867111e-05 -0.03709675 0.013799464 -0.99921638 0
0.038004994 0.015791798 8.2795705e-05 0.038937811 0.011503749 -0.99917543 0
0.044892732 0.014967599 0.00045681981 0.073262542 0.035250071 -0.99668962 0
0.054826453 0.015133733 0.0017350283 0.19674817 0.12701096 -0.97219253 0
0.063433453 0.01457793 0.0059138765 0.73915583 0.39037359 -0.54886878 0
-0.063067332 0.025095008 0.0045198635 -0.82392806 -0.4127892 -0.38826224 0
-0.054836594 0.024865648 0.00024051417 0.026646037 -0.014010212 -0.99954677 0
-0.044932976 0.025129484 0.00083886686 0.068757147 -0.0068046809 -0.99761027 0
-0.035086267 0.025049699 0.001394979 0.025030514 -0.018519802 -0.99951512 0
-0.025288405 0.024798442 0.0010717099 -0.076354221 -0.024430642 -0.99678141 0
-0.014941671 0.024846982 0.00033541158 -0.051713899 -0.0011186516 -0.99866128 0
-0.0077124238 0.026302893 7.1164533e-05 -0.032659769 0.014384763 -0.99936301 0
0.029264066 0.029609706 1.948689e-05 0.042262431 0.038175561 -0.99837697 0
0.035768628 0.0254289 0.00022879863 0.062197216 0.043372616 -0.99712098 0
0.045192529 0.024868935 0.0011793528 0.14225496 0.090117224 -0.98571926 0
0.055663578 0.025339564 0.0044197193 0.53967208 0.28540537 -0.79202133 0
0.060828838 0.021613779 0.0070441193 0.85701567 0.4490118 -0.25280941 0
-0.063642412 0.033569753 0.00438151 -0.69802642 0.66482645 -0.2660169 0
-0.055606719 0.036137 0.0024156829 -0.27409917 0.56470656 -0.77844477 0
-0.045163747 0.035006534 0.00076238846 0.055636272 -9.4181007e-05 -0.99845111 0
-0.034763966 0.035032365 0.0011988597 0.0030000182 -0.019862549 -0.99979824 0
-0.025240207 0.035049569 0.00089195376 -0.048578031 -0.0045677316 -0.99880892 0
-0.014721583 0.034973826 0.00044940985 -0.034685794 0.022717692 -0.99914002 0
-0.0053358558 0.034768816 0.00018032076 -0.020163322 0.02888361 -0.99937946 0
0.0044861357 0.036971331 8.7652275e-05 -0.014409894 0.029631009 -0.999457 0
0.014075001 0.038757373 2.6663642e-05 -0.0051071928 0.024203137 -0.99969405 0
0.025995206 0.036374375 0.00012025095 0.040513877 0.031762622 -0.99867398 0
0.034778178 0.034943528 0.00066127587 0.095785007 0.054503296 -0.99390876 0
0.045237653 0.035093222 0.0021704615 0.19056028 0.094881244 -0.97707951 0
0.053135611 0.034415454 0.0056105177 0.74731684 0.38681319 -0.5402714 0
-0.051555268 0.040939417 0.0057045729 -0.47011042 0.87489945 -0.11639224 0
-0.044569723 0.043952979 0.0043398109 -0.42028266 0.82050502 -0.38747111 0
-0.035440151 0.045896161 0.0027502475 -0.21984412 0.4457925 -0.86771977 0
-0.025201779 0.044850681 0.0010221507 -0.022238947 0.026498221 -0.99940145 0
-0.015003093 0.045199722 0.00080266956 -0.019155717 0.042867392 -0.99889714 0
-0.0049588564 0.044940844 0.00059568603 -0.020398702 0.050838791 -0.9984985 0
0.005049583 0.044862412 0.00037034048 -0.021570349 0.045113213 -0.99874902 0
0.014781571 0.044909589 0.0002165606 -0.0062558083 0.036350235 -0.99931955 0
0.025119647 0.045035455 0.00039653704 0.049042858 0.041139904 -0.99794906 0
0.03497329 0.045108158 0.0013165594 0.13601944 0.070961475 -0.98816156 0
0.045802593 0.045186598 0.0045692041 0.58491933 0.29423687 -0.75583994 0
0.050620038 0.041376743 0.0076416233 0.86494786 0.46229798 -0.19530946 0
-0.032133862 0.051075052 0.0055601844 -0.43849596 0.89107347 -0.11708674 0
-0.024768252 0.053878404 0.0043976665 -0.39320999 0.80580902 -0.44278407 0
-0.01528795 0.055998612 0.0029198935 -0.21978684 0.47252712 -0.85347044 0
-0.0051771603 0.055045199 0.0012198676 -0.019594997 0.073717095 -0.99708664 0
0.0049061654 0.055129658 0.00093594781 -0.033212215 0.06685178 -0.99720997 0
0.015012804 0.054869305 0.00065302697 -0.013541132 0.052380074 -0.99853539 0
0.024988642 0.055134811 0.00086828502 0.066610329 0.051252365 -0.99646187 0
0.035287693 0.055249218 0.0021790795 0.17984959 0.086857095 -0.97985196 0
0.043059066 0.054575399 0.0058761821 0.801503 0.40421757 -0.44068256 0
-0.01223851 0.061010782 0.0056720381 -0.44044319 0.88673246 -0.14041188 0
-0.0046676337 0.06397745 0.0046726544 -0.38418186 0.7969476 -0.46613175 0
0.0045352867 0.065914355 0.0032516031 -0.22800888 0.47045028 -0.85246027 0
0.015081311 0.064862721 0.0013254879 -0.036817364 0.080339231 -0.99608743 0
0.024891179 0.064832538 0.0013929005 0.077194586 0.061210543 -0.99513525 0
0.035832699 0.06488169 0.0044846558 0.60030723 0.3036854 -0.73986924 0
0.040503312 0.061076269 0.0070097302 0.87760162 0.45540407 -0.14974149 0
0.007525316 0.070903607 0.0063475962 -0.43775642 0.89096475 -0.12062816 0
0.015222037 0.07385888 0.0049045812 -0.39021683 0.82068127 -0.41738826 0
0.0245669 0.076083869 0.0037671234 -0.13200752 0.56783128 -0.81249106 0
0.032640476 0.074500099 0.0057114684 0.80245131 0.42100418 -0.42287982 0
0.028406795 0.080920137 0.0064618276 -0.25142205 0.95021969 -0.18403672 0
0.03034802 0.080524452 0.0078785708 0.85015464 0.51327461 -0.11741457 0
-0.03081144 -0.041533537 0.015268005 -0.88154936 -0.47205591 0.005815939 0
-0.025007563 -0.043165658 0.014729496 0.10559122 -0.99440914 0.00098992535 0
-0.017882043 -0.040934112 0.015134123 0.44127929 -0.8970722 -0.023112511 0
-0.034251623 -0.034923654 0.014899917 -0.88919687 -0.45718169 -0.017718367 0
-0.01294912 -0.038439032 0.014889647 0.45206356 -0.8917014 -0.0225183 0
-0.0047292863 -0.034217697 0.015018044 0.46134934 -0.88701773 -0.018878188 0
0.0016494241 -0.030885452 0.015023111 0.46408075 -0.88566446 -0.015085644 0
-0.041039731 -0.021708796 0.015147191 -0.89150095 -0.45300889 0.0029974279 0
-0.038424425 -0.026833018 0.015145349 -0.8891663 -0.45758227 0.0013220704 0
0.0066226032 -0.028235646 0.014843175 0.47404331 -0.88044083 -0.010338268 0
0.015040593 -0.023685927 0.014899675 0.47691613 -0.87891233 -0.0080109797 0
0.020823525 -0.020530345 0.014691678 0.48097795 -0.87668502 -0.0091486638 0
-0.044489279 -0.014946094 0.014788122 -0.89136237 -0.4531658 -0.010671299 0
0.025949661 -0.017683459 0.015139455 0.4949021 -0.8689394 -0.0040199915 0
0.034946762 -0.012611364 0.015028885 0.48586535 -0.87385178 -0.017829204 0
-0.051125068 -0.0019108006 0.015016378 -0.88907462 -0.45738283 -0.018637799 0
-0.04860064 -0.0068451385 0.015181922 -0.89134586 -0.45327768 -0.0064770509 0
0.0397356 -0.0098920623 0.014114346 0.49467969 -0.8686555 -0.027013313 0
0.044976301 -0.0069209025 0.015100396 0.49700254 -0.86710423 -0.033447389 0
0.053498149 -0.0020327654 0.015129082 0.50001258 -0.8647089 -0.047602449 0
-0.054566201 0.0048357723 0.014939171 -0.88996637 -0.4557544 -0.0157435 0
0.058534086 0.00093208702 0.014815697 0.5050683 -0.8605203 -0.066414155 0
0.065300509 0.0054176887 0.015072543 0.71043688 -0.69976097 -0.074927099 0
-0.061217174 0.017752815 0.015000678 -0.88950652 -0.4566747 -0.015044688 0
-0.058610663 0.012687158 0.014930479 -0.88897282 -0.457683 -0.015924536 0
0.065729812 0.014792559 0.014613209 0.88372612 0.4592731 -0.089979641 0
-0.064937338 0.025184065 0.01504172 -0.91213185 -0.40875918 -0.030519146 0
0.058790836 0.027770963 0.014921347 0.87960261 0.47048399 -0.070314161 0
0.061478898 0.022814902 0.015080215 0.87879503 0.47070593 -0.078455545 0
-0.064037681 0.034020599 0.014822402 -0.68333745 0.72900355 -0.040046338 0
-0.057022221 0.038443595 0.015163801 -0.46944708 0.88226593 -0.035020031 0
0.055049434 0.034914304 0.01525823 0.88028401 0.46776778 -0.079330556 0
-0.052075207 0.041041236 0.015161927 -0.46357688 0.88543469 -0.033193063 0
-0.045140035 0.04467104 0.014811747 -0.46334544 0.88577801 -0.026612043 0
-0.037318081 0.048731592 0.015017489 -0.45768023 0.88882947 -0.022606285 0
0.048548345 0.047098882 0.014853985 0.8846702 0.46069461 -0.071548522 0
0.051123586 0.042329174 0.015385056 0.87881124 0.47346875 -0.059313897 0
-0.032428551 0.05123603 0.015124323 -0.44847426 0.89346749 -0.024222957 0
-0.024951642 0.054923113 0.01507214 -0.44245365 0.89641166 -0.026095428 0
-0.01727581 0.058738664 0.015097932 -0.4487617 0.89335555 -0.022995865 0
0.044422016 0.055017695 0.014915447 0.88440919 0.46358684 -0.05392288 0
-0.012355693 0.061228216 0.015567496 -0.44977453 0.89275491 -0.026298096 0
-0.0050226967 0.064912811 0.015030244 -0.44865289 0.89336407 -0.024725338 0
0.0025333206 0.068661645 0.014803514 -0.44188103 0.89679778 -0.022247929 0
0.038363371 0.066501588 0.014833627 0.88294148 0.46800822 -0.037184712 0
0.040878229 0.061777052 0.015168309 0.88636029 0.46159717 -0.035965785 0
0.0076623787 0.071189679 0.014684269 -0.44154865 0.89685386 -0.026228227 0
0.015113985 0.074739099 0.014813476 -0.41933966 0.9071998 -0.033804819 0
0.023509396 0.078516141 0.014831966 -0.4038119 0.91426915 -0.032368988 0
0.033719312 0.075205348 0.015153764 0.87975365 0.47432286 -0.032424908 0
0.028462201 0.080633841 0.014999655 -0.35765946 0.93343115 0.028037978 0
0.030621307 0.080805577 0.015392346 0.67607069 0.73604262 -0.034200244 0
-0.030517973 -0.040849481 0.02404123 -0.87293589 -0.4769778 0.10234803 0
-0.025168959 -0.043100916 0.025157323 -0.040573873 -0.99912477 -0.01017048 0
-0.017826695 -0.041059267 0.024636367 0.44410536 -0.89597416 -0.00085242029 0
-0.033660736 -0.034719765 0.025114782 -0.87807024 -0.46777552 0.10088914 0
-0.012740779 -0.038484067 0.025471404 0.45817915 -0.88885891 -0.001313181 0
-0.0051313131 -0.034526858 0.024743106 0.46404356 -0.88580692 0.0031047384 0
0.0018548688 -0.030851599 0.025103858 0.46821296 -0.88358516 0.007335755 0
-0.040708836 -0.021426156 0.024563806 -0.88595581 -0.45693365 0.079335071 0
-0.038124975 -0.026302574 0.025106551 -0.88183087 -0.46236056 0.092720151 0
0.0065232059 -0.028341116 0.02524155 0.47532246 -0.87979555 0.0053197718 0
0.014872575 -0.023838975 0.024732187 0.47509119 -0.87992781 -0.003911905 0
0.021023899 -0.020510063 0.025112154 0.48237145 -0.87592947 -0.0080875214 0
-0.044007272 -0.01498437 0.02511376 -0.88374603 -0.46051076 0.083203025 0
0.0261112 -0.017681897 0.025089549 0.48794356 -0.87277311 -0.013347902 0
0.035252243 -0.012657542 0.025140485 0.47967577 -0.87724024 -0.01899091 0
0.04008919 -0.010068581 0.027488209 0.47860512 -0.87764847 -0.025888769 0
-0.050957266 -0.0016829232 0.02465645 -0.88707399 -0.45582944 0.072933666 0
-0.048319899 -0.0066377404 0.025435742 -0.88446528 -0.45950902 0.081071652 0
0.039982565 -0.0099656302 0.022098826 0.49264711 -0.86996645 -0.021383079 0
0.045245443 -0.007132085 0.024914397 0.48484167 -0.87404251 -0.031277154 0
0.053933725 -0.0023170577 0.024961386 0.48442224 -0.87370825 -0.044373907 0
-0.05433901 0.0049522319 0.024927083 -0.88646615 -0.45679945 0.074242793 0
0.058961626 0.00054869661 0.023708455 0.47476009 -0.87802577 -0.060611326 0
0.065458708 0.0048950212 0.025006566 0.75792402 -0.65036058 -0.050816789 0
-0.0610562 0.017913474 0.024765054 -0.88609374 -0.45848072 0.068068832 0
-0.058486812 0.013030111 0.025330275 -0.88531291 -0.45834228 0.078380212 0
0.065624505 0.014913732 0.025159439 0.90043914 0.42987156 0.066481717 0
-0.064743392 0.025068315 0.025092391 -0.89439213 -0.44287294 0.062660441 0
0.058943022 0.027645664 0.025113583 0.87901098 0.47408417 0.050831921 0
0.06161261 0.022747777 0.024359884 0.88287258 0.4675203 0.044281535 0
-0.064545467 0.034136578 0.02516564 -0.73051912 0.68234718 -0.02727895 0
-0.057680819 0.038499027 0.025120081 -0.47499549 0.87917608 -0.037798326 0
0.055031545 0.034953397 0.025046011 0.88068032 0.47082025 0.05225452 0
-0.052434206 0.041289322 0.025062306 -0.46593413 0.88402569 -0.037468988 0
-0.04474337 0.045335762 0.024972679 -0.46279895 0.88568532 -0.037130229 0
-0.037796404 0.048929624 0.024969788 -0.45573327 0.88896769 -0.045206636 0
0.048458058 0.047143754 0.024814401 0.87558103 0.47986415 0.055572052 0
0.051185139 0.042207886 0.024504747 0.87990838 0.47304523 0.044602316 0
-0.032700472 0.051576301 0.025671329 -0.45380712 0.88954467 -0.05262601 0
-0.025033118 0.05541683 0.024873158 -0.45028746 0.89058989 -0.063958742 0
-0.017979568 0.05894478 0.024493271 -0.4480128 0.89106452 -0.072721504 0
0.044150572 0.055288088 0.024757778 0.87941962 0.47300377 0.053745344 0
-0.012889446 0.061559658 0.025184888 -0.44715142 0.89135486 -0.074444853 0
-0.004975731 0.065536596 0.025166694 -0.44851619 0.89064419 -0.074740618 0
0.0019168209 0.068970494 0.024911478 -0.44310558 0.89300478 -0.078738861 0
0.038055297 0.066617958 0.024900081 0.88061225 0.46991721 0.060826648 0
0.040766519 0.061433434 0.02496911 0.88068491 0.46919233 0.065212071 0
0.0070702261 0.071538232 0.02513559 -0.44081026 0.8941046 -0.079140455 0
0.015141046 0.075495921 0.025043041 -0.43267429 0.89699966 -0.090469249 0
0.022322649 0.078863554 0.025048442 -0.38822201 0.91479236 -0.11152851 0
0.033613216 0.074913681 0.025170876 0.88497657 0.46029946 0.070291556 0
0.027530987 0.080736041 0.02562153 -0.24813642 0.96350384 -0.10044232 0
0.030593332 0.080806166 0.024048351 0.71866989 0.69496334 0.023227697 0
-0.025199419 -0.042470545 0.032606207 -0.20556572 -0.76448745 0.61098421 0
-0.01801352 -0.040878989 0.032649718 0.42241159 -0.88099462 0.2131125 0
-0.03241862 -0.033844888 0.032555252 -0.750763 -0.39838096 0.52692264 0
-0.02492236 -0.03488991 0.034598634 -0.079128996 -0.068818673 0.99448615 0
-0.014856881 -0.035426021 0.034190878 0.14180768 -0.33150095 0.93273675 0
-0.0053516659 -0.03339193 0.033419363 0.3659912 -0.72035056 0.58919054 0
0.0014014324 -0.030869411 0.032058686 0.4413569 -0.88704747 0.13546565 0
-0.040445469 -0.020524088 0.031064354 -0.86135197 -0.47465125 0.18104959 0
-0.035037309 -0.024882339 0.033370927 -0.47792169 -0.23875175 0.8453334 0
-0.025086194 -0.024782838 0.035054673 -0.05777061 -0.037870653 0.99761134 0
-0.015135743 -0.02485062 0.035403576 -0.021666864 -0.044203352 0.99878758 0
-0.0049725357 -0.025136763 0.035512764 -0.0085473126 -0.053063184 0.99855453 0
0.0051372396 -0.025488231 0.034678955 0.18271536 -0.41471124 0.89142007 0
0.01456276 -0.023051748 0.033919148 0.38089299 -0.75941229 0.5274595 0
0.021018481 -0.020513428 0.032997563 0.47191659 -0.8763541 0.09642709 0
-0.042489655 -0.014428515 0.032458756 -0.69670135 -0.34461433 0.62916476 0
-0.035014752 -0.014889594 0.034571342 -0.12332696 -0.052776575 0.99096173 0
-0.024904734 -0.014836741 0.035423659 -0.057485253 -0.03244644 0.99781895 0
-0.014735195 -0.014893985 0.035833728 -0.029204531 -0.038022202 0.99885011 0
-0.0049915281 -0.015011438 0.036043026 -0.017411584 -0.048205473 0.99868566 0
0.0053444915 -0.015102942 0.03616656 -0.0075952173 -0.05614759 0.9983936 0
0.014797368 -0.014896862 0.036254179 -0.010480835 -0.058279842 0.99824524 0
0.025154561 -0.015508186 0.035029862 0.24243052 -0.50413191 0.82890195 0
0.034667052 -0.012560218 0.033966955 0.43782049 -0.83853114 0.32431269 0
0.040200837 -0.010116291 0.033210278 0.47901127 -0.8766492 0.045105297 0
-0.050465528 -0.0011966976 0.031193951 -0.86534911 -0.45379668 0.21269557 0
-0.044890981 -0.0049709314 0.033280533 -0.38959908 -0.1923846 0.90066683 0
-0.035013072 -0.0051909434 0.034958396 -0.09148901 -0.027702319 0.99542069 0
-0.024547031 -0.0050110612 0.035705198 -0.054167237 -0.020756243 0.99831617 0
-0.014809004 -0.0048023541 0.036157276 -0.037713032 -0.02812778 0.99889272 0
-0.0050592348 -0.0048547736 0.036451422 -0.025066556 -0.034442294 0.99909228 0
0.0047726291 -0.0049341316 0.036663286 -0.01712762 -0.042419419 0.99895304 0
0.015185723 -0.0049083116 0.036808264 -0.01291247 -0.049789999 0.9986763 0
0.02500248 -0.0048657428 0.036936678 -0.012829408 -0.051547021 0.99858814 0
0.034559637 -0.0050652158 0.037051573 -0.0067802654 -0.059455384 0.99820793 0
0.044940814 -0.0055854023 0.035079401 0.35017845 -0.69648653 0.62632388 0
0.054255795 -0.0021491989 0.034145668 0.45771426 -0.86785758 0.19318573 0
-0.05266447 0.0055702771 0.032480896 -0.62908065 -0.31534773 0.71050221 0
-0.044887818 0.0051770457 0.034249697 -0.11214439 -0.033060186 0.99314183 0
-0.035053041 0.0047441907 0.035133462 -0.079257399 -0.007604274 0.99682522 0
-0.02527176 0.0050883316 0.035806436 -0.060777042 -0.0038269653 0.99814403 0
-0.014643023 0.0047776126 0.036383942 -0.045002688 -0.014175678 0.99888635 0
-0.0052188816 0.0049940119 0.036743846 -0.032145947 -0.024703523 0.99917781 0
0.0049870624 0.0051124939 0.037029691 -0.024328243 -0.029550727 0.99926722 0
0.014968609 0.0048366757 0.037216902 -0.016104667 -0.034254029 0.99928343 0
0.025164953 0.0052884817 0.037388947 -0.014262665 -0.038235739 0.99916697 0
0.035152696 0.005333534 0.037529733 -0.013745125 -0.038249988 0.99917364 0
0.045000136 0.0048301122 0.037637733 -0.011137757 -0.039690852 0.99914998 0
0.055622458 0.004652895 0.037318923 0.039160162 -0.14421473 0.98877126 0
0.064889565 0.0052451994 0.035133924 0.70297039 -0.48953199 0.51593715 0
-0.060748599 0.018788148 0.03104626 -0.85657328 -0.43466294 0.27811942 0
-0.05543448 0.015351719 0.033011053 -0.37775877 -0.17498621 0.90921849 0
-0.044839025 0.015030209 0.034395099 -0.074101366 0.0042720139 0.99724156 0
-0.03501863 0.01485654 0.035090968 -0.068758644 0.015208683 0.99751741 0
-0.025017556 0.015193509 0.035778854 -0.069066532 0.0088741034 0.9975726 0
-0.014874954 0.014937072 0.036414612 -0.052826837 0.0047622873 0.99859238 0
-0.005070087 0.014922578 0.036876891 -0.042476095 -0.0022429384 0.99909496 0
0.0047487542 0.014856505 0.037203684 -0.026858175 -0.0091195256 0.99959773 0
0.015100376 0.014813797 0.037479874 -0.023720002 -0.017497497 0.99956554 0
0.024986781 0.015036413 0.037679907 -0.016463175 -0.022941004 0.99960124 0
0.034869641 0.014756877 0.0378181 -0.012625958 -0.021612765 0.99968672 0
0.044954665 0.014906101 0.037898868 -0.0011173069 -0.013609875 0.99990678 0
0.055221748 0.015047338 0.037871439 0.0088516949 0.0082097417 0.99992716 0
0.063886233 0.014922176 0.034769487 0.7757504 0.4186894 0.47213414 0
-0.062788509 0.025371771 0.032150064 -0.59614277 -0.27114922 0.75570619 0
-0.055098679 0.024838014 0.033562109 -0.070230357 0.015853846 0.99740481 0
-0.045047935 0.02490776 0.034219578 -0.063808791 0.02761293 0.99758005 0
-0.034961298 0.025141696 0.034873974 -0.06965176 0.028047057 0.997177 0
-0.025229963 0.024988029 0.035595555 -0.07358221 0.025564918 0.99696136 0
-0.01504568 0.025222583 0.036278613 -0.06177561 0.020126035 0.99788713 0
-0.004840435 0.025117112 0.036854628 -0.048813306 0.0090138009 0.99876714 0
0.0050596474 0.025032019 0.03727559 -0.036053296 -0.0005432812 0.99934971 0
0.014878829 0.025047209 0.037581287 -0.027885096 -0.005487367 0.99959612 0
0.025193553 0.02501642 0.03782716 -0.019376542 -0.0048384555 0.99980056 0
0.034869745 0.024945289 0.037954055 -0.0061892779 -0.0040877103 0.99997252 0
0.045337241 0.02506366 0.037934955 0.012461611 0.0083066383 0.99988782 0
0.055799142 0.025497232 0.036336385 0.46659499 0.2560758 0.84658974 0
0.061099585 0.021951184 0.033282924 0.86722809 0.45634237 0.1991657 0
-0.063310973 0.03335258 0.032122113 -0.44198108 0.33995667 0.83010978 0
-0.055004876 0.035267867 0.032966595 -0.12569994 0.18330134 0.97498721 0
-0.044803929 0.034741234 0.033791691 -0.062641382 0.056833453 0.99641657 0
-0.035092443 0.034845997 0.034436461 -0.074726269 0.056361359 0.99561 0
-0.025155403 0.035043322 0.035247941 -0.083637655 0.049328268 0.99527454 0
-0.014865523 0.035121623 0.036043525 -0.069370858 0.030232634 0.99713278 0
-0.0049997601 0.035350211 0.036675777 -0.061351351 0.022220967 0.9978689 0
0.0046947123 0.034840751 0.037206434 -0.045674998 0.011605058 0.99888885 0
0.014923641 0.034934465 0.037582077 -0.029034322 0.0062464788 0.99955893 0
0.024998557 0.034775451 0.037825081 -0.018120859 0.0026703323 0.99983227 0
0.034749966 0.035030276 0.037907939 0.0019267133 0.010505117 0.9999429 0
0.045074642 0.03495159 0.037754111 0.030829495 0.027205946 0.99915439 0
0.053487659 0.034494944 0.034572285 0.77698606 0.42355973 0.46571431 0
-0.052564748 0.041083436 0.03164991 -0.43881285 0.82409489 0.35820511 0
-0.044305149 0.043690477 0.03269612 -0.26895437 0.46912879 0.84117883 0
-0.035203848 0.045159224 0.033606369 -0.14191851 0.19031018 0.97141194 0
-0.025160737 0.044952057 0.034693021 -0.091104761 0.057581838 0.99417514 0
-0.014982055 0.045132406 0.035616782 -0.087632433 0.049113281 0.99494147 0
-0.004949559 0.045193776 0.036411498 -0.070341624 0.03486396 0.99691355 0
0.005167366 0.044976085 0.03704302 -0.051269513 0.025575241 0.9983573 0
0.014981464 0.044792082 0.037472591 -0.037410915 0.015979063 0.99917227 0
0.025166063 0.045061059 0.037693668 -0.0069573293 0.02210173 0.99973148 0
0.035007499 0.045168199 0.037719164 0.008543768 0.027352888 0.99958938 0
0.045740638 0.044996347 0.035849836 0.51060086 0.28305623 0.81189036 0
0.050865654 0.041359149 0.032503232 0.87344944 0.463395 0.14950305 0
-0.032664064 0.051439811 0.032021157 -0.44323388 0.83600479 0.32348067 0
-0.024203938 0.054346725 0.033171397 -0.34528252 0.57862127 0.73890281 0
-0.015306156 0.055337097 0.034703758 -0.15804264 0.19549003 0.9678874 0
-0.0052755587 0.054841291 0.035918999 -0.081501581 0.060881637 0.99481201 0
0.0047923648 0.055120841 0.0366522 -0.066622704 0.05051038 0.996499 0
0.015080494 0.055110287 0.037229143 -0.043575078 0.03244454 0.99852318 0
0.025026951 0.055287492 0.037506729 -0.0085674152 0.020222997 0.99975878 0
0.035086613 0.054895345 0.037412629 0.037256703 0.038953986 0.99854618 0
0.042896941 0.054740846 0.034222815 0.78731674 0.43606293 0.43586874 0
-0.013009328 0.061561093 0.032797862 -0.44454977 0.84166867 0.30654424 0
-0.0049055913 0.064315721 0.03389081 -0.36218315 0.63402623 0.68325251 0
0.0048236819 0.06559699 0.03560026 -0.15819018 0.22393607 0.96168 0
0.015400533 0.065298796 0.036792491 -0.057755783 0.052119743 0.99696928 0
0.025138199 0.065211445 0.037204131 -0.018429626 0.038519636 0.99908787 0
0.035723031 0.065138087 0.035179142 0.61867082 0.34443924 0.7061218 0
0.040480871 0.060815938 0.031909738 0.87065196 0.47578081 0.12489086 0
0.0066461801 0.071671195 0.033272132 -0.44998214 0.85190243 0.26791471 0
0.015440891 0.074728034 0.03463231 -0.36402136 0.67161918 0.64530313 0
0.024824435 0.075728774 0.036114685 -0.07345856 0.25709826 0.96358931 0
0.032468077 0.074452363 0.033812866 0.81569201 0.43464243 0.3817493 0
0.026722226 0.081095748 0.033474274 -0.049394686 0.97897196 0.19792472 0
0.030194467 0.08048781 0.030972769 0.87305158 0.47097823 0.12633456 0
