# .PCD v0.7 - Point Cloud Data file format
VERSION 0.7
FIELDS x y z normal_x normal_y normal_z curvature
SIZE 4 4 4 4 4 4 4
TYPE F F F F F F F
COUNT 1 1 1 1 1 1 1
WIDTH 237
HEIGHT 1
VIEWPOINT 0 0 0 1 0 0 0
POINTS 237
DATA ascii
-0.030009672 -0.030354599 -0.00014282095 -0.26774749 -0.15886971 -0.95030087 0
-0.025367435 -0.031143086 -0.0001417399 0.004436716 -0.11343717 -0.99353528 0
-0.018666241 -0.030499542 -5.9212634e-05 0.033434045 -0.15927553 -0.98666787 0
-0.030963002 -0.025208447 -6.7256587e-05 -0.070437454 -0.00085156626 -0.99751586 0
-0.024845453 -0.024867967 -0.00017792948 -0.0053040371 0.011291917 -0.99992222 0
-0.015265467 -0.02460471 -0.00015061488 0.016482962 -0.02005101 -0.99966311 0
-0.0061637 -0.022686554 -9.4447591e-05 0.028711064 -0.03533832 -0.99896294 0
-0.03414556 -0.013848237 -6.3420463e-05 -0.010259889 -0.00038574752 -0.99994725 0
-0.026570264 -0.015326882 -7.7733464e-05 0.021584969 0.011943655 -0.99969566 0
-0.013206861 -0.016122703 -8.5003056e-05 -0.012160582 0.021941185 -0.99968535 0
-0.0060178372 -0.015766418 -7.3608862e-05 0.010509544 0.0070369807 -0.99992001 0
-0.033665095 -0.0091041187 -1.7091765e-05 -0.0062942482 0.019099854 -0.99979776 0
-0.023805728 -0.0072750822 -4.0692812e-05 -0.0071897949 0.013701306 -0.99988031 0
-0.015547929 -0.0047247568 -3.1907111e-05 0.0045940257 -0.0023488216 -0.99998665 0
-0.0090210382 -0.0098228324 -1.9517105e-05 0.041555267 0.08023034 -0.99590981 0
-0.012860196 0.0014441991 -1.504083e-05 -0.0022672073 0.0073251813 -0.99997061 0
-0.0091446983 0.0032644598 -9.0050244e-06 0.0102732 -0.0027566929 -0.99994344 0
-0.011575642 0.019612912 -2.5131108e-05 -0.016030261 -0.047515791 -0.99874181 0
-0.0065693832 0.019119265 -2.3798975e-05 0.003629277 -0.02120831 -0.9997685 0
-0.012763565 0.024832394 -9.2802969e-05 -0.019264733 0.0041151829 -0.99980599 0
-0.0060263965 0.025037048 -7.9451231e-05 0.011503615 0.0008934107 -0.99993342 0
-0.011184878 0.030584434 -2.0476715e-05 -0.0070497957 0.030481793 -0.99951047 0
-0.0075374106 0.030630967 -2.9645822e-05 -0.0019732674 0.045334682 -0.99896985 0
-0.031546418 -0.033102825 0.0049728281 -0.86207974 -0.48011732 -0.16219109 0
-0.025251044 -0.035273105 0.0043140729 0.20844229 -0.92370713 -0.3214294 0
-0.016573071 -0.031733252 0.0049792789 0.44029248 -0.88748169 -0.13608356 0
-0.035351921 -0.024708031 0.004054965 -0.851282 -0.40732437 -0.33076569 0
-0.011770289 -0.02916245 0.0039790832 0.42327645 -0.86634904 -0.26509687 0
-0.0047221747 -0.025921818 0.0045918985 0.41153616 -0.88761288 -0.20683646 0
0.0040965299 -0.021916179 0.0052012927 0.41759583 -0.89580292 -0.15215419 0
-0.041585241 -0.012814785 0.0053085629 -0.89223582 -0.4344753 -0.12307063 0
-0.038204242 -0.017668664 0.0032732501 -0.77473652 -0.38386312 -0.50242651 0
-0.023563629 -0.014332352 0.00093083549 0.18142921 0.0016469741 -0.98340267 0
-0.017328033 -0.013500467 0.0005222421 -0.22131638 0.035216007 -0.97456598 0
-0.0018032183 -0.013207294 9.7006327e-05 0.054929923 0.041656695 -0.99762094 0
0.0056366562 -0.01557245 0.00090723921 0.088853762 -0.15717459 -0.98356557 0
0.014916987 -0.01546255 0.0036610516 0.415885 -0.72941953 -0.54312688 0
0.020536819 -0.012598629 0.0057593351 0.99453974 -0.015798474 -0.10315593 0
-0.044613641 -0.0047009578 0.003696328 -0.80640936 -0.38163787 -0.45172608 0
-0.035477027 -0.0044195168 0.0001192679 -0.0045942799 0.027140867 -0.99962103 0
-0.025810461 -0.0033438373 0.00010682717 -0.017059725 0.019356584 -0.99966711 0
-0.012894373 -0.0065176524 4.6322468e-05 0.013320998 -0.096641555 -0.99523002 0
-0.0046587782 -0.0051121796 0.00069262023 0.0053895386 -0.0076408936 -0.99995631 0
0.0049553006 -0.0050090128 0.00026507565 -0.0043037748 -0.0051127458 -0.99997765 0
0.015779801 -0.0051431074 0.0033279196 0.729101 0.34609532 -0.5904488 0
-0.051394071 0.0071363114 0.0054055257 -0.89537346 -0.4242858 -0.13523287 0
-0.046105746 0.0044935625 0.0019222549 -0.38427168 -0.16621152 -0.90813494 0
-0.034908358 0.0050778864 0.00053455652 0.091314428 0.028929757 -0.9954018 0
-0.025274334 0.0050242343 0.00053280889 -0.11653788 -0.01986802 -0.99298751 0
-0.015335032 0.005997445 0.00032893117 0.046316717 0.12404858 -0.99119461 0
-0.0047254716 0.0053508845 0.00014112254 -0.027091032 0.022207865 -0.99938619 0
0.005007701 0.0051486478 0.00020236131 0.034405131 0.00032542011 -0.99940795 0
0.012463745 0.0044725025 0.0045117144 0.86986172 0.409964 -0.27435419 0
-0.052175563 0.012969051 0.004980816 -0.81392252 0.53892016 -0.21701398 0
-0.044541754 0.015987894 0.003682852 -0.36122778 0.72969067 -0.58057392 0
-0.03479068 0.014879132 0.00042357281 -0.026469769 0.026367148 -0.99930179 0
-0.025099127 0.015085354 0.00022702105 -0.013867171 0.010815043 -0.99984533 0
-0.014838424 0.014453643 0.00075627759 0.056809191 -0.073124811 -0.99570352 0
-0.004824745 0.014317672 0.00027611348 -0.060203616 -0.026273802 -0.99784029 0
0.0060288715 0.014890119 0.0031979461 0.73515612 0.36458263 -0.57151115 0
0.010165505 0.01041476 0.0058204159 0.90464997 0.426135 0.0041754171 0
-0.034609679 0.022181157 0.0047401413 -0.42040589 0.8775661 -0.23051362 0
-0.024866352 0.025528029 0.0035952404 -0.30418676 0.77159166 -0.5586741 0
-0.017877985 0.026723709 0.0016565043 -0.30045992 0.43785468 -0.84735292 0
-0.0013291376 0.026471961 0.00016226074 0.095529087 0.069360115 -0.9930073 0
0.0025247897 0.024701258 0.004291039 0.86443239 0.42528448 -0.26812252 0
-0.013843157 0.031930942 0.0052508791 -0.44425723 0.88505024 -0.13900191 0
-0.0045241565 0.03420284 0.0043581859 0.255393 0.88262039 -0.39465892 0
0.00024397677 0.030516664 0.0063813627 0.9030816 0.42862311 -0.026942536 0
-0.03173174 -0.033084545 0.01543904 -0.88599235 -0.46336827 0.017535267 0
-0.025126142 -0.036076441 0.015014996 0.21345745 -0.97622597 -0.037666917 0
-0.016605876 -0.032048784 0.01495443 0.51680028 -0.85608995 -0.0052404967 0
-0.035676911 -0.024624322 0.015015154 -0.91007048 -0.40325713 0.095684499 0
-0.011899399 -0.029081842 0.015483406 0.35681534 -0.92694867 0.1159694 0
-0.0050302702 -0.026491748 0.014956752 0.41827664 -0.90822631 -0.013017072 0
0.0036062258 -0.02195322 0.014689466 0.50764251 -0.85612941 0.09665136 0
-0.041506052 -0.01331488 0.014774908 -0.89894056 -0.43804649 0.0046053305 0
-0.038703837 -0.018441163 0.015469934 -0.84962499 -0.52666062 0.027676111 0
0.0079066809 -0.019553341 0.016630547 0.29852706 -0.95221543 0.064555265 0
0.015276163 -0.016781244 0.01502467 0.43390027 -0.89894396 0.060253359 0
0.020750979 -0.012254691 0.014832593 0.99785787 -0.065118946 -0.0062631755 0
-0.04533403 -0.0047593303 0.015333569 -0.90026152 -0.42653149 0.087178811 0
0.017558036 -0.0047211642 0.014950649 0.88809103 0.45947692 -0.013240117 0
0.020133091 -0.00970258 0.015778119 0.89612913 0.44273046 -0.030698009 0
-0.05152997 0.0070102061 0.015085037 -0.89511514 -0.44539064 -0.019899894 0
-0.04885231 0.0017962424 0.015263769 -0.87603718 -0.48215047 0.0094789108 0
0.0124929 0.0046831276 0.015233774 0.88940692 0.44848806 0.088396505 0
-0.052325059 0.012835985 0.015113443 -0.85332179 0.51923138 0.047336183 0
-0.045324873 0.017143318 0.015050688 -0.41257808 0.90520334 0.10191352 0
-0.038328718 0.019303298 0.017748402 -0.29513618 0.92813081 0.22686516 0
0.0074130972 0.015355458 0.015276221 0.85845655 0.51117527 0.041859601 0
0.010131109 0.010327339 0.014471746 0.90332508 0.42881027 0.011200227 0
-0.034421679 0.02232495 0.014785025 -0.47993699 0.87354034 0.081165083 0
-0.0251096 0.026843831 0.015030521 -0.37666947 0.9248274 0.053050552 0
-0.018996751 0.029028082 0.016321853 -0.60537833 0.79230452 0.075964712 0
0.0025875976 0.02521923 0.014894345 0.91805631 0.39127588 0.063841455 0
-0.01412004 0.032087538 0.015044308 -0.45078638 0.89241433 -0.019705407 0
-0.004217294 0.034756042 0.015032602 0.33244634 0.94288474 0.021162556 0
0.0002451223 0.030415207 0.014215868 0.90157372 0.43204984 0.022311917 0
-0.031594783 -0.032929819 0.024779215 -0.89442861 -0.44684747 0.018022316 0
-0.025324095 -0.036653642 0.025106406 0.12121231 -0.99221623 -0.028538221 0
-0.015931258 -0.032315552 0.025307084 0.50156116 -0.86287326 -0.062339023 0
-0.035529524 -0.024810228 0.024780411 -0.8922444 -0.4477368 -0.058579996 0
-0.011358784 -0.029423911 0.02371458 0.30441925 -0.93636966 -0.17475909 0
-0.0048761605 -0.026711268 0.025091691 0.44879201 -0.89327002 -0.025579153 0
0.0036547096 -0.022098374 0.025008611 0.50356394 -0.85703021 -0.10919058 0
-0.041650586 -0.013174213 0.024914151 -0.88928068 -0.45726994 -0.0091726733 0
-0.038984135 -0.018233698 0.024655936 -0.87603736 -0.48177907 -0.021154866 0
0.0084489202 -0.019547928 0.023781896 0.32981619 -0.94257116 -0.052733202 0
0.01530596 -0.016279088 0.02504864 0.46865714 -0.88326633 0.014181965 0
0.020923041 -0.011953337 0.024735264 0.99104565 -0.13237964 -0.017441129 0
-0.045553897 -0.0050776848 0.024462022 -0.88530123 -0.44866246 -0.12224471 0
0.017619874 -0.0041850815 0.024714341 0.88686627 0.46091574 -0.032013059 0
0.02030527 -0.0093261292 0.025518222 0.88885993 0.45696419 -0.033341955 0
-0.0518873 0.0066271168 0.025381483 -0.8898257 -0.45528015 -0.030499144 0
-0.049184885 0.0014248709 0.024843063 -0.88213539 -0.47000414 -0.030548852 0
0.012814062 0.0048072194 0.024989324 0.88583249 0.45190129 -0.10529058 0
-0.052424524 0.012452221 0.024919946 -0.77054745 0.63722843 0.014020612 0
-0.045147367 0.016660431 0.025026713 -0.4422642 0.89655238 -0.024415502 0
-0.03881076 0.019477367 0.023954568 -0.39321277 0.89337796 -0.21739247 0
0.0074387179 0.015485509 0.024591707 0.87212378 0.48713434 -0.04582696 0
0.010215986 0.01029826 0.025465205 0.89365989 0.44838399 -0.017995652 0
-0.03412151 0.022369647 0.025016181 -0.49379846 0.86877418 -0.037344102 0
-0.024760902 0.027012154 0.025016554 -0.41075027 0.91029531 -0.051446471 0
-0.019350771 0.029308546 0.02298254 -0.64330822 0.73462766 -0.21558429 0
0.0026581597 0.024839489 0.024930766 0.90245438 0.42844188 -0.044873752 0
-0.014454893 0.032345083 0.025134142 -0.46033552 0.88703787 -0.035426211 0
-0.0041324235 0.034703173 0.025040049 0.43145061 0.90191323 -0.020073058 0
5.6675042e-05 0.030120451 0.024567993 0.88877004 0.45835307 -0.00051888969 0
-0.031406347 -0.032911409 0.034545835 -0.88043457 -0.47287613 0.034973282 0
-0.025252545 -0.036638476 0.034837034 0.088264845 -0.99586189 -0.021644073 0
-0.015800634 -0.032341193 0.034831543 0.51973283 -0.85432875 -0.00046704279 0
-0.035205305 -0.02474249 0.035182137 -0.90114743 -0.43111205 0.045559738 0
-0.011647838 -0.02869126 0.036475789 0.38155517 -0.92337722 0.04231244 0
-0.0047690156 -0.02659025 0.034890182 0.42485541 -0.90516102 0.013472013 0
0.0032849775 -0.022080993 0.034454871 0.5470404 -0.83085209 0.10213538 0
-0.041641172 -0.013227923 0.035097055 -0.88601041 -0.46366331 0.0013717426 0
-0.038745534 -0.018331552 0.035149459 -0.83092511 -0.55636907 0.0041202181 0
0.0075993068 -0.019382535 0.036247164 0.32791618 -0.94386679 0.039830972 0
0.014952024 -0.016245719 0.035384398 0.46808842 -0.88260216 0.04366409 0
0.02098042 -0.011994621 0.035160631 0.95040798 -0.31037101 0.019861927 0
-0.045581836 -0.0048454059 0.035304975 -0.88877952 -0.45756182 0.026612574 0
0.017737007 -0.0041140472 0.034913167 0.87448311 0.48499271 -0.0078291055 0
0.020409996 -0.0090672551 0.035270441 0.88532442 0.4647038 -0.015844516 0
-0.051834475 0.0063665174 0.034750372 -0.88874692 -0.45832658 -0.0081039695 0
-0.04924348 0.0014573765 0.034867827 -0.87801278 -0.47860092 -0.0058878222 0
0.012646531 0.0046842648 0.035360839 0.89228755 0.45001984 0.036124237 0
-0.052263267 0.01217446 0.034911651 -0.72784573 0.68517715 0.027800517 0
-0.045035988 0.016515294 0.035172235 -0.46470883 0.88475186 0.035494857 0
-0.038580317 0.019386152 0.036073647 -0.37023342 0.92322063 0.10291222 0
0.0072028465 0.015689222 0.035333898 0.85364366 0.52075118 0.010518843 0
0.010160256 0.010440299 0.034880731 0.88708854 0.46154192 0.0072841682 0
-0.034083426 0.022106351 0.034848891 -0.5027706 0.86324441 0.045064408 0
-0.024874752 0.02668245 0.03522978 -0.34718344 0.93604547 0.057293829 0
-0.018935179 0.028952852 0.035723019 -0.6756264 0.73277205 0.081081875 0
-8.6143547e-05 0.029896045 0.038562205 0.88534999 0.46471646 0.01393146 0
0.0023991354 0.024581369 0.0351297 0.91839927 0.39201561 0.053541601 0
-0.014199466 0.032608889 0.034875281 -0.50629902 0.86230475 -0.0095785763 0
-0.0043306127 0.034822959 0.034989972 0.42686477 0.90428722 0.0071493341 0
6.6275526e-05 0.030074621 0.030481791 0.89111334 0.45288661 0.028471582 0
-0.031370845 -0.032497756 0.044621304 -0.88784933 -0.46012717 -0.002544147 0
-0.025346318 -0.036964539 0.044972468 0.025823014 -0.99940854 -0.022710243 0
-0.015261006 -0.032570515 0.045143418 0.48577216 -0.87288141 -0.045862429 0
-0.035326548 -0.024918297 0.045036647 -0.87997222 -0.47387749 -0.033000518 0
-0.010465206 -0.029573331 0.0438192 0.54546851 -0.81806612 -0.18229648 0
-0.0050360686 -0.026844855 0.044869158 0.464362 -0.88555336 -0.012773966 0
0.0035716614 -0.022045119 0.045078617 0.5091874 -0.85786366 -0.06926816 0
-0.041739035 -0.01321223 0.044990595 -0.8851195 -0.46521443 -0.011791118 0
-0.038941108 -0.018404558 0.045017451 -0.87343615 -0.48652184 -0.020143094 0
0.0083352113 -0.019377505 0.044691246 0.41449231 -0.90805471 -0.06027215 0
0.01515688 -0.015830476 0.044918444 0.47385654 -0.88059765 -0.0028026239 0
0.020955289 -0.011727932 0.044936571 0.963588 -0.26738387 -0.0020101175 0
-0.045960702 -0.0050319834 0.045190793 -0.88809115 -0.4573698 -0.045901533 0
0.017855478 -0.0039244909 0.044736475 0.88327783 0.46853188 -0.017267304 0
0.020500544 -0.0090563409 0.045199379 0.89574462 0.4445644 -0.0020113757 0
-0.051920041 0.0062529757 0.045005038 -0.89925665 -0.43723685 -0.012705742 0
-0.049310148 0.0012653444 0.044627234 -0.88393247 -0.46739218 -0.014415636 0
0.013015888 0.004902144 0.044828434 0.87979668 0.47193465 -0.056880228 0
-0.05226136 0.012060543 0.045097377 -0.68970776 0.72393197 0.015021025 0
-0.045008969 0.016171377 0.045098398 -0.46343702 0.88583696 0.02277885 0
-0.038781788 0.019358519 0.045469791 -0.4428784 0.89652365 -0.010201871 0
0.0073686256 0.015670702 0.04481725 0.87244439 0.48849386 -0.014646382 0
0.010187441 0.010395987 0.044992279 0.88365722 0.46811992 -0.003691629 0
-0.033848792 0.022235874 0.044996828 -0.50465405 0.86314809 -0.017314335 0
-0.024922874 0.026733883 0.045113962 -0.4190878 0.90626085 -0.055287164 0
-0.019294342 0.029506262 0.044463683 -0.61118662 0.78341508 -0.11274655 0
-0.00012954877 0.029806234 0.046399083 0.88690615 0.46192873 0.0044044307 0
0.0024576192 0.024725271 0.044958513 0.89033252 0.45358354 -0.039624136 0
-0.014713292 0.032632392 0.045051105 -0.51046181 0.85904509 -0.038343392 0
-0.0042056595 0.034720741 0.045144279 0.49020225 0.87160671 -0.0018606352 0
-0.031246338 -0.032354586 0.053288054 -0.86424875 -0.45749727 0.20921348 0
-0.025272233 -0.035133664 0.054537695 -0.000166112 -0.67548686 0.73737192 0
-0.016145289 -0.032454249 0.053730618 0.46917519 -0.79579073 0.38287288 0
-0.034235336 -0.024788216 0.054507688 -0.73480588 -0.40925211 0.54090011 0
-0.024937538 -0.024995323 0.056795288 -0.004041391 -0.014921102 0.99988043 0
-0.014622575 -0.025470356 0.056459721 0.045215458 -0.14595933 0.98825675 0
-0.0051372135 -0.025096267 0.054947369 0.35519654 -0.66706085 0.6548782 0
0.0034700653 -0.021857003 0.053645447 0.46667638 -0.84909356 0.24749389 0
-0.041536029 -0.013038679 0.0536438 -0.85515779 -0.45727 0.24414998 0
-0.035694961 -0.015613939 0.056041259 -0.2768254 -0.15399921 0.9484998 0
-0.024566432 -0.014805249 0.056451187 0.14302644 -0.010878454 0.98965907 0
-0.015753023 -0.014873371 0.056313276 -0.18226285 -0.021312775 0.98301882 0
-0.0050721965 -0.015028422 0.057086345 0.0017222249 -0.011633647 0.9999308 0
0.0056266659 -0.015731944 0.056402851 0.11797898 -0.2323837 0.96544224 0
0.01447039 -0.014707684 0.054743148 0.42580459 -0.71411657 0.55563295 0
0.020745937 -0.011541517 0.0530014 0.93908244 -0.29298189 0.17968214 0
-0.04472008 -0.0048501608 0.054841667 -0.70143986 -0.38617575 0.59904128 0
-0.035016201 -0.0048818234 0.057077635 -0.0015878236 -0.017283028 0.99984932 0
-0.025030466 -0.0050679706 0.057023104 -0.0013546876 -0.020523619 0.99978852 0
-0.014869484 -0.0050954693 0.05709555 -0.0057982379 -0.036260597 0.99932557 0
-0.0043418258 -0.0048784651 0.056190729 0.014484667 -0.003095479 0.99989033 0
0.0051258146 -0.0048557362 0.057190012 -0.018228864 0.0028348344 0.99982983 0
0.015592951 -0.0048192744 0.055520743 0.55457109 0.27429873 0.78562784 0
0.020501753 -0.0091855079 0.052989483 0.90934622 0.38956335 0.14604752 0
-0.051778372 0.0064785476 0.053876236 -0.88182253 -0.41247463 0.22859082 0
-0.045706253 0.0045158579 0.056613017 -0.2254169 -0.1310489 0.96540844 0
-0.03476553 0.0049363463 0.057018422 0.10596529 0.0040235212 0.9943617 0
-0.025422981 0.0047487211 0.056411475 -0.14084819 -0.036129441 0.98937172 0
-0.015004768 0.0050569749 0.057132054 0.013707682 0.017531661 0.99975234 0
-0.0048042089 0.0048181089 0.057092663 -0.011845309 0.008238879 0.99989593 0
0.0050744582 0.0052172327 0.057130214 0.018058179 0.020260883 0.99963164 0
0.012758867 0.0045258533 0.054171987 0.81988811 0.44906381 0.35514104 0
-0.0519403 0.011721549 0.053497676 -0.63737893 0.73884487 0.218761 0
-0.044566195 0.014654863 0.055016559 -0.38070905 0.70834327 0.59439927 0
-0.035487346 0.015498405 0.056491826 -0.10607504 0.24120155 0.96466047 0
-0.024871606 0.014906653 0.057186186 0.0024580101 -0.005595631 0.99998134 0
-0.014588182 0.014540911 0.0561748 0.066058263 -0.01070575 0.99775833 0
-0.0050140927 0.014826217 0.056829296 -0.074447595 0.028697444 0.99681193 0
0.0053689801 0.014766355 0.05523099 0.58292347 0.32653797 0.74402499 0
0.010184918 0.010388569 0.052273948 0.87476933 0.48262456 0.043036316 0
-0.03346223 0.021926574 0.053711396 -0.49054518 0.82436943 0.28245458 0
-0.024604227 0.025355069 0.054908678 -0.35301507 0.68334776 0.6390745 0
-0.015078937 0.024842894 0.056767762 -0.013768674 0.051398117 0.99858332 0
-0.0048162835 0.025229136 0.05664926 0.066634789 0.052136321 0.99641424 0
0.0023950264 0.024027921 0.053696729 0.83797121 0.44100791 0.3214286 0
-0.014560875 0.032323688 0.053878106 -0.43616301 0.82782662 0.35279584 0
-0.0048839701 0.034058433 0.054137073 0.42595777 0.69819117 0.57540339 0
