# .PCD v0.7 - Point Cloud Data file format
VERSION 0.7
FIELDS x y z normal_x normal_y normal_z curvature
SIZE 4 4 4 4 4 4 4
TYPE F F F F F F F
COUNT 1 1 1 1 1 1 1
WIDTH 184
HEIGHT 1
VIEWPOINT 0 0 0 1 0 0 0
POINTS 184
DATA ascii
0.017735677 -0.060429972 -7.4403048e-05 0.099093795 0.027795658 -0.99468982 0
0.014095693 -0.055230238 -0.00014309834 -0.0097259618 -0.016094944 -0.99982321 0
0.0099045914 -0.048668761 -2.0997328e-05 -0.19454938 0.0035968849 -0.98088616 0
0.011133707 -0.049067393 -5.7541412e-05 -0.00053944119 0.053242538 -0.99858147 0
-0.020402737 0.0035703229 -8.5788079e-06 -0.10232659 0.10342037 -0.98936015 0
-0.017422646 0.005575615 -1.4056581e-05 -0.060321424 0.095762715 -0.99357474 0
0.016967315 -0.061843924 0.0052636652 -0.50829196 -0.84452862 -0.16855463 0
0.024897087 -0.063127019 0.0046446337 0.1209389 -0.93083298 -0.3448534 0
0.032316651 -0.061338048 0.0060487431 0.48691881 -0.85920507 -0.15708815 0
0.0089155026 -0.052447561 0.0051457617 -0.92209935 -0.38207597 -0.061243124 0
0.01514803 -0.055391248 0.0043719048 0.45007992 0.0084626405 -0.89294821 0
0.024695087 -0.058003772 0.0049697254 0.054151382 0.97103179 -0.23273329 0
0.035136487 -0.055287655 0.0050412789 0.039875872 0.034665782 -0.99860311 0
0.041017447 -0.051814012 0.0066817612 0.84520382 -0.51056892 -0.15795541 0
-0.030948078 -0.040846389 0.0071514151 -0.6730271 -0.73238164 -0.10320729 0
-0.024937544 -0.042935621 0.0051319455 -0.24993189 -0.87426686 -0.41616288 0
-0.015191876 -0.042943034 0.0058028614 0.28439909 -0.87226552 -0.39783168 0
-0.0086231269 -0.040893205 0.0074628848 0.49933124 -0.84333545 -0.19862951 0
0.0073495493 -0.044889484 0.0045284336 -0.98132485 -0.13003451 -0.1417485 0
0.015102163 -0.044948246 0.004225811 0.83848542 -0.022300016 -0.54446751 0
0.038092196 -0.046050489 0.0059449407 -0.88091761 0.4439238 -0.16406044 0
0.043171585 -0.044337213 0.0050414656 0.75902581 -0.30846578 -0.5733487 0
-0.03404519 -0.034542244 0.0046895649 -0.78306603 -0.42640617 -0.45275316 0
-0.025303606 -0.034945648 0.0047916858 0.3954013 0.7093339 -0.58352637 0
-0.014972141 -0.035107967 0.0053657121 -0.23784576 0.80579448 -0.54233259 0
-0.0051683523 -0.034744721 0.0052853269 0.53605872 -0.4358066 -0.7229895 0
0.0066368449 -0.034650795 0.0043041981 -0.96549702 -0.012870761 -0.26009563 0
0.015708951 -0.035278074 0.0037831727 0.67740613 -0.12845044 -0.72430754 0
0.020417305 -0.031382028 0.0084735444 0.9662112 -0.25578448 -0.031783994 0
0.044536054 -0.035084862 0.0053756773 0.052765183 0.036930118 -0.99792379 0
-0.034403689 -0.024874959 0.004840367 -0.13901387 0.14215761 -0.98003381 0
-0.029197698 -0.028840551 0.007759776 0.83724749 0.54492694 0.045512419 0
-0.0042192475 -0.02557506 0.0057172701 -0.77845979 0.45552996 -0.43184799 0
0.0056067561 -0.024787506 0.0052373218 -0.49179259 -0.45438477 -0.7427479 0
0.01529053 -0.02483419 0.002168827 0.37476522 -0.052426204 -0.92563629 0
0.021457214 -0.02451241 0.0072737965 0.92353469 -0.17123638 -0.34316435 0
0.045464914 -0.025142612 0.0053473841 0.00094007945 0.007225276 -0.99997342 0
-0.034341391 -0.015263761 0.0044017686 -0.61049503 0.10292072 -0.78530449 0
-0.028790783 -0.012626747 0.006790862 0.88725376 -0.44756496 -0.11165353 0
-0.0017161034 -0.0151984 0.0067207641 -0.97699213 0.057081558 -0.20549478 0
0.0063118879 -0.015052435 0.0046495898 -0.076345555 0.17921624 -0.98084295 0
0.014434228 -0.014788474 0.0030363796 0.12656033 0.045174487 -0.99092972 0
0.02249101 -0.014776707 0.0065551186 0.88197625 -0.12807763 -0.45355719 0
0.044342317 -0.0150731 0.0056196549 -0.0074127074 0.00020724877 -0.99997252 0
-0.03245651 -0.0060108388 0.0047938689 -0.84283286 0.48313424 -0.23709503 0
-0.025379121 -0.0045337509 0.0041657165 0.47471723 -0.57751209 -0.66417128 0
-0.015698599 -0.0020599104 0.0068047196 0.21175656 -0.92963231 -0.30156744 0
-0.0042601973 -0.0042635351 0.0057665398 -0.62611789 -0.55358845 -0.54910481 0
0.005408763 -0.0049203401 0.0041151214 0.66608346 -0.19842184 -0.71900046 0
0.013887211 -0.0051987497 0.0037774057 -0.77730453 0.090081386 -0.62264204 0
0.024522994 -0.004336284 0.005463073 0.70061553 -0.46552831 -0.5407598 0
0.036796968 -0.0036174513 0.0057572927 -0.68287057 -0.65952498 -0.31418875 0
0.042882934 -0.0057419934 0.0053245937 0.84257042 0.35370755 -0.40616018 0
-0.024109643 0.0035840359 0.0043740119 -0.63059962 0.71058691 -0.31210631 0
-0.015690977 0.0055435868 0.002513994 -0.14982086 0.040761638 -0.9878726 0
-0.0049359775 0.0047134818 0.0012340005 -0.080846891 -0.23833378 -0.96781242 0
0.0057505993 0.0041936929 0.00224947 0.29485169 -0.11005284 -0.94918436 0
0.014422091 0.0045872494 0.0025872726 -0.24797764 -0.14379978 -0.9580338 0
0.025061041 0.004888902 0.0011483569 0.072878569 -0.14547873 -0.98667353 0
0.035686672 0.0049292613 0.0036465656 0.58693022 0.11763043 -0.80104679 0
0.040648162 0.0014221616 0.0068381196 0.89880407 0.42869112 -0.091515668 0
-0.013059243 0.01164986 0.0051437719 -0.48511079 0.85975742 -0.15963915 0
-0.0046955217 0.014982311 0.0040016822 -0.37624514 0.75974923 -0.53030241 0
0.0045903409 0.015352915 0.0022960154 -0.0084487358 0.17732269 -0.98411649 0
0.014869417 0.015079522 0.0017100931 -0.13224123 0.026963428 -0.99085075 0
0.02510765 0.014866849 0.0010617435 0.085437238 -0.0088915378 -0.99630386 0
0.034588359 0.01473839 0.0045744618 0.79485011 0.17160638 -0.58203495 0
0.0061376817 0.022636112 0.0054158247 -0.54761702 0.78746694 -0.28286296 0
0.014339854 0.02565724 0.0032454534 -0.38045084 0.29752594 -0.87563437 0
0.025032878 0.024947446 0.00075214758 0.0296732 -0.010580178 -0.99950367 0
0.034067973 0.025211088 0.0049870368 0.84011853 -0.10344887 -0.53244644 0
0.017135179 0.034429315 0.0055204397 -0.85589129 0.43991402 -0.27189296 0
0.024877945 0.034972053 0.00098863326 -0.11128471 0.052092083 -0.99242234 0
0.035315897 0.03516696 0.0039112116 0.74860871 -0.16970497 -0.64092523 0
0.01957725 0.041399311 0.006633935 -0.96250236 0.26835659 -0.039673042 0
0.023898045 0.045285515 0.003185122 -0.59410477 0.22245595 -0.77301544 0
0.036260452 0.04505568 0.003733021 0.75458872 -0.012308082 -0.65608251 0
0.026689323 0.054315571 0.0062675434 -0.73877448 0.60719436 -0.29245067 0
0.035363059 0.054617949 0.0055930587 0.40506014 0.24609283 -0.88054794 0
0.040714901 0.056983352 0.0070220879 0.96901214 -0.2404359 -0.056622725 0
0.028767264 0.063813955 0.0081781987 -0.95084465 0.2923066 -0.10223141 0
0.034566801 0.064901158 0.0061450815 -0.12002019 0.041436605 -0.99190634 0
0.042188626 0.065627635 0.0071796332 0.97659886 -0.21476918 -0.011355611 0
0.029877672 0.070672087 0.0088157915 -0.95142013 0.27273604 -0.14288029 0
0.034315754 0.074643672 0.0070717381 -0.52986902 0.19430724 -0.8255201 0
0.043700375 0.075303532 0.0068079964 0.81383151 -0.18149701 -0.55202997 0
0.036295719 0.084620543 0.0076475143 -0.72143531 0.24304634 -0.64842862 0
0.045271259 0.085054651 0.0068830936 0.77478445 -0.17851758 -0.60649854 0
0.050032552 0.089712061 0.0066857231 0.95743597 -0.24728663 0.14888167 0
0.038214862 0.094421655 0.0084326696 -0.9023518 0.26395983 -0.34071457 0
0.045816746 0.095000662 0.0069623189 0.32775873 -0.04459475 -0.94370842 0
0.050873935 0.096014969 0.0067079114 0.97265577 -0.21987468 0.07480596 0
0.039458413 0.10189203 0.0091646845 -0.94603646 0.28352877 0.15692848 0
0.045241512 0.10491128 0.0075317277 -0.4314481 0.17197078 -0.88559502 0
0.051950019 0.10540289 0.0067324941 0.97970104 -0.18219441 -0.083613008 0
0.046388324 0.11491948 0.0082269069 -0.87747651 0.37103778 -0.30391783 0
0.052847922 0.11544564 0.0071492214 0.98626095 -0.15186216 0.065017089 0
0.048078518 0.1242421 0.0089127999 -0.91545528 0.40168521 -0.024303276 0
0.053488739 0.12510058 0.0075969878 0.97873306 -0.061466537 0.19571257 0
0.049615748 0.13040037 0.008831311 -0.81415868 0.50872546 -0.27990001 0
0.054038569 0.13245414 0.0081567541 0.12756531 0.98514199 0.11498852 0
0.017261518 -0.061604302 0.011997025 -0.42925864 -0.72118497 0.5437181 0
0.024889344 -0.062346503 0.012301967 0.074121073 -0.50754935 0.8584286 0
0.032228708 -0.06133344 0.011644114 0.48195043 -0.78622234 0.38675347 0
0.0094719082 -0.051909622 0.011543771 -0.91513646 -0.24992897 0.31632358 0
0.014517929 -0.055354647 0.012471122 0.016827015 -0.039410487 0.99908137 0
0.025016332 -0.058787815 0.011554005 0.0013991181 0.75255436 0.65852857 0
0.035575423 -0.055649057 0.011873513 -0.010506375 0.10795134 0.99410069 0
0.040945642 -0.051692456 0.011429449 0.78738177 -0.43100902 0.44075069 0
-0.030726112 -0.040702462 0.010754334 -0.62127793 -0.55885482 0.54926771 0
-0.024235034 -0.042352412 0.011120878 -0.055828948 -0.32559422 0.94385988 0
-0.015798397 -0.04222646 0.010827533 0.14068516 -0.30855289 0.94074589 0
-0.0088306181 -0.040849414 0.01032274 -0.092957266 -0.44926408 0.8885498 0
0.0088852309 -0.044874653 0.011784815 -0.84399182 -0.025719984 0.53573906 0
0.014114758 -0.044795632 0.012824516 0.42373815 -0.094488248 0.90084291 0
0.038733851 -0.047372639 0.011034383 -0.64378738 0.31204724 0.69868755 0
0.042923432 -0.044347446 0.011769481 0.21110046 -0.13258025 0.96843123 0
-0.033078253 -0.034346815 0.011441419 -0.26795036 -0.16494335 0.94920826 0
-0.025663082 -0.036669143 0.010768844 0.17199631 0.23692714 0.95618141 0
-0.014010353 -0.03748757 0.010686339 -0.072091416 0.18520279 0.98005241 0
-0.0051414412 -0.034673609 0.011196055 0.029006984 -0.09736184 0.99482626 0
0.0072861114 -0.034372471 0.011254761 -0.67376786 -0.036630318 0.73803467 0
0.014966886 -0.034817565 0.013142724 0.22313786 -0.10111646 0.9695282 0
0.020310985 -0.030951025 0.010695452 0.92608672 -0.28031072 0.25256544 0
0.045016337 -0.035205301 0.011845103 -0.047015667 -0.0058441842 0.99887705 0
-0.034918331 -0.025129046 0.011554449 -0.008897162 0.0021779484 0.9999581 0
-0.0023061 -0.026065899 0.010975556 -0.35881463 0.16386013 0.91891342 0
0.0033966808 -0.024920881 0.011288553 0.21077619 -0.119082 0.970254 0
0.014705409 -0.024865665 0.013390488 -0.23251291 0.035810012 0.97193384 0
0.02132225 -0.0243841 0.011808486 0.83233446 -0.17661634 0.52538174 0
0.046077769 -0.02490605 0.011929574 0.03736661 -0.021489138 0.99907053 0
-0.033980168 -0.015190333 0.01162333 -0.16326378 -0.0025301364 0.98657924 0
-0.029333515 -0.011795064 0.010750584 0.67763048 -0.39225867 0.62205315 0
-0.00080347009 -0.01485534 0.010612175 -0.65654117 -0.014545395 0.75414997 0
0.0039363685 -0.014843825 0.011736609 0.18293533 -0.10746082 0.9772343 0
0.015373071 -0.015103945 0.013116905 -0.44724837 0.086232439 0.89024323 0
0.022217436 -0.014681339 0.012565964 0.75353557 -0.14659627 0.64085376 0
0.044511385 -0.014691606 0.012109683 -0.0099757425 -0.043560535 0.99900103 0
-0.032078993 -0.0066272537 0.011743812 -0.67691535 0.3647117 0.63935202 0
-0.025824862 -0.0040636053 0.01199303 0.20437759 -0.29165795 0.93443328 0
-0.015191117 -0.001222012 0.011107129 0.11706658 -0.68475682 0.7193076 0
-0.0037892358 -0.0035479707 0.011542321 -0.30809471 -0.33278736 0.89125204 0
0.0047067455 -0.0047636456 0.012284652 0.25814763 -0.13285847 0.95692652 0
0.016310433 -0.0051513645 0.013112676 -0.5872069 0.0064559337 0.80941105 0
0.024102429 -0.0043862476 0.013209039 0.58044493 -0.29008016 0.76087928 0
0.036419906 -0.0026882321 0.012125748 -0.47750062 -0.64496315 0.59667051 0
0.042398587 -0.0057694144 0.012308422 0.52185351 0.23620798 0.81967968 0
-0.023426374 0.0032936146 0.012476213 -0.47052646 0.47616509 0.74288064 0
-0.015332118 0.005332727 0.012908789 -0.067185476 0.0035347366 0.99773419 0
-0.0051007331 0.0051395274 0.013253135 -0.033530761 -0.12309457 0.99182826 0
0.0052340524 0.0047500823 0.01298722 0.1304317 -0.042698778 0.99053741 0
0.014738059 0.0049864636 0.013091684 -0.23209976 -0.064606257 0.9705441 0
0.024914546 0.0049129394 0.014655366 0.039342191 -0.059931267 0.99742693 0
0.035058469 0.0049092537 0.013435477 0.34972954 0.060514737 0.93489426 0
0.040626269 0.0012719509 0.011344495 0.89978802 0.39969024 0.17501205 0
-0.012688829 0.011519385 0.011784001 -0.46228242 0.8231504 0.32972461 0
-0.0046421359 0.014028133 0.012573575 -0.21134274 0.48585725 0.84810203 0
0.0048045237 0.014997589 0.012800491 0.0056425873 0.11513758 0.99333352 0
0.015224327 0.015166858 0.013022639 -0.17552249 0.033156138 0.98391694 0
0.024813108 0.015091066 0.014592673 -0.010666449 0.014872375 0.99983251 0
0.033662584 0.014642509 0.012976623 0.55069774 0.12451912 0.82536471 0
0.006793607 0.022400573 0.011766537 -0.42271349 0.59633338 0.68242204 0
0.015182571 0.024772871 0.012446705 -0.23245446 0.15659709 0.9599179 0
0.024973784 0.025066445 0.014471071 -0.072882846 0.017683662 0.99718368 0
0.033255588 0.024958489 0.012750342 0.62013531 -0.031091681 0.78387851 0
0.017938847 0.03388764 0.011553144 -0.65728003 0.27138662 0.70308769 0
0.025094848 0.035050802 0.013962251 -0.1110526 0.11343592 0.98731941 0
0.034298141 0.035213497 0.012993705 0.47091943 -0.063824207 0.87986439 0
0.019636329 0.040956724 0.010916172 -0.92615622 0.29076841 0.24018399 0
0.024583019 0.045186535 0.012800439 -0.35471869 0.086898133 0.93092602 0
0.034912251 0.045214146 0.01294011 0.36417207 0.001866258 0.93132985 0
0.027034843 0.051704474 0.012339595 -0.33028671 0.74936169 0.57390571 0
0.034310058 0.054388098 0.011048026 0.13395701 0.30139986 0.94404113 0
0.035700891 0.065053985 0.010084981 -0.0082462551 -0.00018208609 0.99996603 0
0.04032575 0.067937754 0.010119292 0.10458359 -0.026326409 0.99416757 0
0.036766246 0.074640445 0.010088824 -0.018610291 0.0027186521 0.99982309 0
0.04130058 0.075781949 0.010121881 0.065619588 -0.011442197 0.99777907 0
0.038198903 0.084297188 0.010078754 -0.021630019 0.0079917824 0.9997341 0
0.041864011 0.085368171 0.010121161 0.032523219 0.00049569999 0.99947083 0
0.038985278 0.092913747 0.01002158 -0.018447561 0.0087933913 0.9997912 0
0.042751022 0.095235407 0.010077624 0.013869141 0.00034826258 0.99990374 0
0.044374023 0.10477933 0.010051797 0.001416664 0.0033818444 0.99999326 0
0.045580275 0.11304065 0.010032993 -0.011311984 0.017246909 0.99978733 0
0.047533244 0.12188827 0.010005633 0.081658937 -0.016538147 0.99652308 0
