# .PCD v0.7 - Point Cloud Data file format
VERSION 0.7
FIELDS x y z normal_x normal_y normal_z curvature
SIZE 4 4 4 4 4 4 4
TYPE F F F F F F F
COUNT 1 1 1 1 1 1 1
WIDTH 584
HEIGHT 1
VIEWPOINT 0 0 0 1 0 0 0
POINTS 584
DATA ascii
-0.014672213 -0.10083859 -0.002279069 -0.1873 -0.9493553 -0.252276 0
-0.0085953632 -0.10131351 -0.0021209412 0.78710967 -0.49711683 -0.36514831 0
0.028280329 -0.10046821 -0.00024658607 0.05545684 -0.93184924 -0.35858271 0
0.032222692 -0.10023093 -0.00031038615 0.043054856 -0.93764454 -0.34491885 0
-0.043517824 -0.091412701 -0.0020906131 -0.35928121 -0.76901519 -0.5287084 0
-0.034611747 -0.094229378 -0.001665288 0.021664508 0.13616259 -0.99044961 0
-0.024909789 -0.096923746 -0.0021083856 -0.1718308 0.033000421 -0.9845736 0
-0.01504966 -0.096958078 -0.0026069011 0.21008833 0.61914617 -0.7566511 0
-0.0092214867 -0.099222414 -0.0018125034 0.64250606 0.65865839 -0.39160588 0
0.029138694 -0.099304907 -0.00021965418 -0.41426039 0.68375719 -0.60071987 0
0.036089271 -0.097446233 -0.0016218342 -0.35343617 0.12771621 -0.92669922 0
0.044736799 -0.095153369 -0.0024564331 -0.080110565 -0.046939574 -0.99568015 0
0.054980185 -0.093485393 -0.0030266775 0.26117599 -0.54345459 -0.79777455 0
0.06178236 -0.091098018 -0.0025688012 0.4552882 -0.84570247 -0.27838826 0
-0.05309961 -0.086596295 -0.0018059114 -0.66409981 -0.52683169 -0.53049016 0
-0.046508253 -0.088535063 -0.00154695 0.12949002 0.6239444 -0.77066565 0
-0.039412033 -0.089512929 -0.00025072219 0.32903576 0.80839103 -0.4880977 0
0.048224423 -0.089628957 -0.00051932363 -0.25933358 0.76595575 -0.58826685 0
0.055532873 -0.08837796 -0.0016982754 -0.22985843 0.77819544 -0.58444589 0
0.065427728 -0.086393803 -0.0026356736 -0.24906987 0.35783982 -0.89995271 0
0.074435256 -0.083128653 -0.0030744632 0.25384706 -0.4697355 -0.8455236 0
0.081198864 -0.080861107 -0.0012770685 0.53000247 -0.78916597 -0.31034568 0
0.076381259 -0.078135706 -0.0025287387 -0.38279119 0.7737245 -0.50479835 0
0.083289996 -0.076911129 -0.0025530271 0.53448373 0.35509032 -0.76696676 0
-0.09024518 -0.063014165 -0.00048147308 -0.8261013 0.14204744 -0.54532486 0
-0.087876014 -0.063647546 -0.0012037485 0.31647423 0.094613045 -0.94387102 0
-0.091332257 -0.052520726 -0.0017521686 -0.30725998 -0.64864987 -0.69630784 0
-0.089569159 -0.056685545 -0.00066329533 0.8878172 0.22399448 -0.40200385 0
0.1094082 -0.050280314 -0.0011518935 0.2311438 -0.68800122 0.68791479 0
0.11155955 -0.050898302 -0.003022034 0.40071988 -0.8965103 0.18892555 0
-0.10085052 -0.041621696 -0.00079596671 -0.43293473 -0.38312083 -0.81595713 0
-0.095390916 -0.045167767 -0.0015872894 0.087023087 0.074876755 -0.99338841 0
0.10955162 -0.048956297 -0.00067977555 -0.99527138 0.080490157 -0.05436914 0
0.1142498 -0.044827025 -0.0022870465 0.056627657 -0.41619697 -0.90750951 0
-0.10299727 -0.034522269 -0.0014781916 -0.20241548 -0.10132907 -0.97404337 0
-0.098871097 -0.038044743 -0.0012773583 0.7803188 0.49676922 -0.37989852 0
0.11755504 -0.035971615 -0.0022379314 -0.70067275 0.38623181 -0.59990221 0
0.12179968 -0.034187764 -0.002446532 0.90573835 -0.36813256 -0.21003909 0
-0.11007576 -0.020661213 -4.7563401e-05 -0.41937742 -0.018187858 -0.90762973 0
-0.10632703 -0.025780471 -0.00097950513 -0.015031877 0.11523864 -0.99322414 0
0.1195597 -0.028783826 -0.0010385539 -0.91281438 0.40768129 -0.023788717 0
0.12430751 -0.024693931 -0.0022437971 0.13282067 -0.099259391 -0.98615724 0
-0.11175565 -0.013059688 -0.00053135375 -0.36868754 -0.1985798 -0.90809453 0
-0.108892 -0.016040038 -0.00061008701 0.26731786 0.067452945 -0.96124464 0
0.12698722 -0.015897756 -0.0023714793 -0.4317719 0.10450877 -0.89590788 0
0.13111363 -0.01321415 -0.0020521029 0.92024368 -0.30931386 -0.23974232 0
-0.11306272 -0.0046704765 -0.0011015029 -0.031322502 -0.053721879 -0.99806452 0
-0.10960706 -0.0078513594 -0.00043113055 0.78054047 0.11843215 -0.61378366 0
0.12842266 -0.0061195758 -0.0016527922 -0.7227037 0.29075247 -0.62702656 0
0.13229531 -0.0050063636 -0.0023127052 0.66063124 -0.038331453 -0.74973136 0
-0.11481711 0.0047236132 -0.0012330794 0.003309998 0.036533087 -0.999327 0
0.13394856 0.002660414 -0.0014664469 0.38977304 0.80526531 -0.44679374 0
-0.11622566 0.010827641 -0.00093637814 0.44599152 0.50625098 -0.73810673 0
-0.11478584 0.039304607 -0.00097925519 0.076485373 -0.73474032 -0.67402279 0
0.13516003 0.039743505 -0.00054726796 -0.23095082 -0.85050052 -0.47255743 0
-0.11553351 0.045012426 -0.0016625157 -0.097270586 -0.067870311 -0.9929412 0
0.12880234 0.046749227 -0.00067780708 -0.70209426 -0.15945065 -0.69400227 0
0.13352156 0.04499533 -0.001845401 0.2633318 -0.17739874 -0.94825417 0
-0.11331765 0.05489935 -0.0014615253 0.097045735 0.028498512 -0.99487191 0
-0.10982197 0.058700699 -0.0001460261 0.73598766 -0.1543256 -0.65917051 0
0.12800553 0.056009676 -0.001521537 -0.58169717 -0.17809843 -0.79366833 0
0.13222598 0.054558709 -0.0024116952 0.67589486 0.1909778 -0.71182418 0
-0.11163381 0.063603275 -0.0018804583 -0.38549271 0.23470446 -0.89236158 0
-0.10863587 0.066358037 -0.0011942415 0.5752039 -0.17976888 -0.79801232 0
0.12656951 0.065264747 -0.0022968873 -0.21002343 -0.03371264 -0.97711492 0
0.13065001 0.061784547 -0.0015900623 0.92364818 0.33933365 -0.17811988 0
-0.10635095 0.075322688 -0.0011739953 0.07924284 -0.05955134 -0.99507493 0
0.11901877 0.078085698 -0.001455917 -0.81607413 -0.43528652 -0.38019556 0
0.12356996 0.07473319 -0.0021474881 0.30544665 0.035097659 -0.95156205 0
-0.1033688 0.082159266 -0.00075622328 -0.11463248 0.31870225 -0.94089752 0
-0.099433936 0.083928913 -0.00034193386 0.2102499 0.29701936 -0.93143672 0
0.11671246 0.085497551 -0.0021619843 -0.42645189 -0.1979553 -0.88258284 0
0.12185293 0.083729178 -0.0020909226 0.68276048 0.3640112 -0.63350922 0
0.10954713 0.098157525 -0.00046427103 -0.90781301 -0.09693443 -0.40801862 0
0.11403455 0.09414009 -0.0018885578 0.22995082 0.2764338 -0.93311679 0
0.10965105 0.10132951 -0.00076963066 -0.84326154 0.42860514 -0.32435727 0
0.11083093 0.10126475 -0.0020021319 -0.10171448 0.64871019 -0.75420767 0
-0.082695849 0.11026057 -0.00021251716 -0.22915192 0.0070459489 -0.97336519 0
-0.071760267 0.12301841 -0.0011708953 -0.40473425 0.034913644 -0.91376764 0
-0.065270886 0.1259692 -0.0011399389 0.042764463 -0.14704961 -0.9882043 0
-0.057947516 0.12869863 -0.00088845222 0.35063896 -0.51783991 -0.78031671 0
0.075102404 0.12915194 -0.00092616654 -0.14080259 -0.60964221 -0.78007114 0
0.082221709 0.12846427 -0.0011186253 0.37942591 -0.086562648 -0.92116386 0
-0.061665896 0.13131012 -0.00087952171 -0.50557345 0.69393742 -0.51268542 0
-0.054625422 0.13339873 -0.0011262408 -0.046706147 0.15056303 -0.9874965 0
-0.045860097 0.13676783 -0.00085169059 0.12134025 -0.17930534 -0.97628176 0
-0.036274824 0.13936247 -0.00071594171 0.14070792 -0.59190202 -0.79363292 0
0.049295314 0.13965294 -0.00013654437 -0.21077356 -0.76686358 -0.60621345 0
0.056240126 0.13801514 -0.0014473181 -0.2818833 -0.53375149 -0.79727739 0
0.065514818 0.13501808 -0.0015914005 -0.06132289 -0.17764577 -0.98218197 0
0.07405398 0.13255811 -0.0014965762 0.18983072 0.23797144 -0.95254076 0
0.080468498 0.13035583 -0.0011602294 0.46429697 0.75412768 -0.46445629 0
-0.042176642 0.14073318 -0.00083884434 -0.21777526 0.58254933 -0.7830773 0
-0.034435809 0.14228557 -0.0010246694 -0.10081659 0.20626052 -0.97328955 0
-0.025140636 0.14449957 -0.0010853639 -0.033933524 0.051408742 -0.998101 0
-0.015558194 0.14689115 -0.0011158163 0.068420261 -0.10521685 -0.99209285 0
-0.0058101946 0.14895186 -0.0007915686 0.17773727 -0.73636883 -0.65281731 0
0.0056424877 0.14885777 -0.00054906192 0.08412946 -0.48338991 -0.87135315 0
0.010069913 0.1496723 -9.0917129e-06 0.33240134 -0.24201798 -0.91155732 0
0.026389707 0.14778188 -0.0011468604 -0.23830575 -0.45958531 -0.85556513 0
0.035616465 0.14690715 -0.0018451111 -0.06881731 -0.12121221 -0.99023819 0
0.044900943 0.14483626 -0.0017136232 0.029937137 0.078953706 -0.99642867 0
0.054626118 0.14271049 -0.0018104034 0.20043586 0.41962218 -0.88529247 0
0.061969575 0.14079654 -0.00096740283 0.40264109 0.78496301 -0.47086442 0
-0.012075831 0.15057418 -0.00044513275 -0.15418336 0.62083411 -0.76863021 0
-0.0043854979 0.15090071 -0.0011054814 -0.087199576 0.77503932 -0.62586761 0
0.0054155458 0.15186344 -0.001312413 0.063754067 0.44813564 -0.8916893 0
0.010996394 0.15253393 -0.00035355057 0.33601275 -0.061541982 -0.93984461 0
0.024766009 0.15116173 -0.0013475543 -0.038814623 0.8467862 -0.53051543 0
0.031850249 0.15020713 -0.0013214494 0.16422555 0.96020007 -0.22593285 0
0.0032671585 -0.11020771 0.0080892527 -0.033535376 -0.91483372 -0.40243587 0
-0.032004889 -0.10120188 0.0082057072 -0.37003025 -0.88602376 -0.27935556 0
-0.024311656 -0.10215645 0.0070037898 -0.18207546 -0.85546339 -0.48479986 0
-0.014958733 -0.102755 0.0050079711 -0.19757967 -0.91218472 -0.35900038 0
-0.0048370291 -0.10454522 0.0059955195 0.10650121 -0.67754722 -0.72772747 0
0.0049360455 -0.1051769 0.007334162 0.16357787 -0.043609906 -0.98556596 0
0.014550068 -0.10511709 0.0068670516 -0.076386973 -0.32888755 -0.94127464 0
0.02511779 -0.10429026 0.0056294259 0.015827348 -0.71279091 -0.70119798 0
0.035076004 -0.10318926 0.005699818 0.16699331 -0.87058616 -0.46280983 0
0.044505138 -0.10232864 0.007684181 0.20238076 -0.8898645 -0.40888041 0
0.052907355 -0.10103551 0.0081654442 0.29353061 -0.94907534 0.11443657 0
-0.054184522 -0.092073396 0.0083282087 -0.44290218 -0.8505159 -0.2836552 0
-0.044173218 -0.093648583 0.0054442203 -0.33582941 -0.77133942 -0.54060537 0
-0.0345072 -0.094424784 0.0047835191 -0.35485238 -0.45907781 -0.81444913 0
-0.02557894 -0.095033094 0.0042337379 0.057803564 0.9926064 -0.10672963 0
-0.014927143 -0.095389321 0.005103894 0.30508024 0.9409675 0.14665036 0
-0.0060397331 -0.098542057 0.0057614031 0.37767449 0.92590433 0.0079405857 0
0.017667618 -0.099341668 0.0072593149 -0.31556457 0.94342893 -0.10178813 0
0.025305094 -0.097282924 0.0058535468 -0.44263998 0.84934837 -0.28753638 0
0.034968086 -0.093922235 0.0048050699 -0.35747278 0.93185818 -0.062076777 0
0.044339351 -0.094447389 0.0045661228 -0.14416564 0.91136765 0.38551959 0
0.055433664 -0.096327558 0.0049835024 0.33622503 -0.83995646 -0.42594114 0
0.064407319 -0.094009101 0.0064817779 0.44159967 -0.79757673 -0.41092712 0
0.071472943 -0.091694646 0.0085210856 0.5414682 -0.63907558 -0.54625499 0
-0.071712546 -0.081355795 0.0085592102 -0.54852372 -0.6269809 -0.55318761 0
-0.064227156 -0.084398292 0.0070992317 -0.42827991 -0.60016614 -0.67555678 0
-0.054548573 -0.084762216 0.0053147124 0.011785185 0.27957514 -0.96005148 0
-0.045447398 -0.087484665 0.0043900451 0.32274362 0.94368827 -0.072724827 0
-0.037841592 -0.089284033 0.0053277411 0.29670843 0.9539519 -0.044044398 0
0.047645479 -0.089295395 0.0035181155 -0.31404135 0.94437271 0.097663589 0
0.055000395 -0.087222129 0.0050136209 -0.31467006 0.9425478 0.11218887 0
0.065449871 -0.084577091 0.0044518765 -0.45838875 0.88641518 -0.064404376 0
0.075046837 -0.085703604 0.0054486785 0.44359553 -0.78706533 -0.42866206 0
0.084256597 -0.082570836 0.0063789082 0.46175209 -0.80483478 -0.37286186 0
0.090594687 -0.080825515 0.0079783723 0.68584037 -0.6925332 -0.22365347 0
-0.081920266 -0.071849115 0.0082836356 -0.58606857 -0.60687768 -0.5368641 0
-0.07429491 -0.074000366 0.0065018595 -0.20885131 -0.20516181 -0.95618492 0
-0.065679722 -0.076424994 0.0066801701 0.48100629 0.71225321 -0.51120281 0
-0.058728307 -0.079429954 0.0075742798 0.43468004 0.90057111 -0.0049897581 0
0.069789208 -0.079885349 0.005078502 -0.48833573 0.86711019 0.098224707 0
0.07567621 -0.077213451 0.0048501324 -0.48454052 0.87044418 0.086875349 0
0.085772507 -0.074896857 0.0046969014 0.15891562 0.71764094 -0.67803931 0
0.094419628 -0.074492909 0.0071579227 0.54271054 -0.53714597 -0.64570856 0
0.1017294 -0.071336411 0.0084984256 0.63717127 -0.69025546 0.34287047 0
-0.091914758 -0.062224094 0.0062130936 -0.8523736 -0.48485118 -0.19590442 0
-0.086223245 -0.064658247 0.0057780193 0.35555577 0.0062314933 -0.93463427 0
-0.076710522 -0.067252949 0.0076876488 0.52351266 0.70209241 -0.48270151 0
0.096430317 -0.066587046 0.0070638531 -0.57645947 0.73668092 -0.35354725 0
0.10452691 -0.064197943 0.0067598103 0.54602563 -0.48852965 -0.68058407 0
0.11097002 -0.061346587 0.0079952842 0.62915826 -0.54424983 -0.5549342 0
-0.10060251 -0.050757423 0.009374463 -0.82977182 -0.46038428 -0.31547579 0
-0.093291044 -0.054861404 0.0055952258 -0.55781525 -0.68811101 -0.4640533 0
-0.08901529 -0.056927655 0.0053302515 0.9269436 0.37505943 -0.010297023 0
0.10639644 -0.05564614 0.0059344978 -0.66174328 0.31379595 -0.6809023 0
0.11407027 -0.0545673 0.0075433468 0.647955 -0.56382221 -0.5121122 0
0.12009187 -0.050599944 0.0082526943 0.31800249 -0.20402321 -0.92587739 0
-0.10251819 -0.043648131 0.0065363292 -0.78490728 -0.33995947 -0.51802325 0
-0.094852641 -0.045445692 0.0045851576 0.89733076 0.41567171 0.14837304 0
0.10914647 -0.048348196 0.0069449595 -0.838045 0.54345417 -0.048354957 0
0.11548648 -0.044920199 0.0046556401 -0.15385057 0.20583607 -0.96641684 0
0.12207773 -0.043886546 0.0079982951 0.80803567 -0.471872 -0.35272524 0
-0.1109992 -0.032110471 0.0087883268 -0.90200454 -0.38501254 -0.19532876 0
-0.10366203 -0.034513406 0.0049501397 -0.3603282 -0.48911765 -0.79430944 0
-0.098385222 -0.037922569 0.0048622484 0.75874645 0.65123361 0.014095592 0
0.11779008 -0.035862308 0.0049759336 -0.92393792 0.37681633 0.065939963 0
0.1239157 -0.034513932 0.0057791052 0.81206876 -0.41240302 -0.41287783 0
0.13015206 -0.030396916 0.008120981 0.52713507 -0.2176708 0.82143044 0
-0.11229556 -0.024258047 0.006511989 -0.7927022 -0.31516907 -0.52181578 0
-0.10524114 -0.025527617 0.0044716164 0.96482313 0.25832844 0.048813805 0
0.11984481 -0.029583784 0.002885507 -0.8722325 0.40570974 0.27314883 0
0.12433427 -0.025038328 0.0047570043 -0.70784545 0.12415895 -0.6953699 0
0.13171706 -0.023841977 0.0081975069 0.91016072 -0.39103636 -0.13674097 0
-0.11458603 -0.015058049 0.0050736913 -0.81732541 -0.28465047 -0.50095248 0
-0.1067123 -0.015332893 0.0046968758 0.97353745 0.22376512 -0.046410326 0
0.12599541 -0.015552553 0.0051556341 -0.95388538 0.20300114 0.22111782 0
0.13373396 -0.014366484 0.0067203832 0.85046566 -0.29954925 -0.43240991 0
-0.12069895 -0.0040086354 0.0088061504 -0.80220181 -0.15225928 -0.57731217 0
-0.11631642 -0.0047413944 0.0049559437 -0.84113091 -0.21363792 -0.4968476 0
-0.10872481 -0.0052322806 0.0047992063 0.98541063 0.17010334 -0.0055472022 0
0.12809525 -0.0055557932 0.004757822 -0.91868603 0.3347978 0.20958646 0
0.1348439 -0.0046909205 0.0060016662 0.95830166 -0.15580499 -0.23954695 0
-0.12171 0.0053233812 0.0088873636 -0.46717888 -0.077716462 -0.88074064 0
-0.11652381 0.0052342024 0.0056334501 -0.99900502 0.041963503 -0.015106154 0
-0.10814276 0.0050650337 0.0059462176 0.97465473 -0.037222415 -0.22059637 0
0.12992756 0.0003343462 0.0012804838 -0.8661837 0.47957599 0.14047301 0
0.13498913 0.0039335694 0.0059995884 -0.40840796 0.60428506 -0.68413633 0
0.14074412 0.0058201579 0.008040973 0.96714193 -0.068071544 -0.2449546 0
-0.12231938 0.015394622 0.0081939949 -0.69062835 -0.070024058 -0.71981192 0
-0.11514971 0.014342858 0.005700388 0.27656379 0.77650332 -0.56617576 0
-0.10901568 0.010716917 0.0063969293 0.71465975 0.69803447 -0.044826031 0
0.13594028 0.015235255 0.0075653908 -0.46116942 0.0085691493 -0.88727069 0
0.14137344 0.015087601 0.0087604914 0.99120682 -0.069154121 -0.11281318 0
-0.12230632 0.025076969 0.0086183986 -0.39359987 0.057384349 -0.91748905 0
-0.11704097 0.024582606 0.0083199851 0.66112798 0.54886913 -0.51151985 0
0.13628484 0.025358232 0.0068629035 -0.53367352 -0.053407226 -0.84400249 0
0.14135078 0.025516581 0.00758198 0.91325396 0.0025776655 -0.40738261 0
-0.12231023 0.034239687 0.0082275607 -0.59359968 -0.12267537 -0.79535532 0
-0.116504 0.037065931 0.0054914835 0.40373951 -0.90685767 -0.12084532 0
0.13579175 0.03508161 0.006436313 -0.54932404 -0.71523988 -0.43205905 0
0.14121269 0.034257118 0.00798814 0.9685604 0.077297017 -0.23646574 0
-0.12146376 0.044371985 0.0086497245 -0.64398575 0.094108954 -0.7592271 0
-0.11464987 0.044668037 0.0045381589 0.19585559 -0.6273284 -0.75372392 0
-0.10982797 0.049412001 0.0057847742 0.97293967 -0.23065996 0.013574629 0
0.12896362 0.046116095 0.0037996613 -0.94197452 -0.2854619 0.1766223 0
0.13513859 0.044795953 0.0055641546 0.98391944 -0.062634759 -0.16727036 0
0.14075655 0.043486834 0.008972289 0.98224437 0.18522336 0.02980387 0
-0.12058742 0.053179454 0.0089268498 -0.8640039 0.15650283 -0.47854379 0
-0.11645249 0.055240761 0.0047297738 -0.87669927 0.24347945 -0.41486883 0
-0.1086174 0.055253755 0.0049399468 0.96408778 -0.23011336 -0.13259898 0
0.12673503 0.055357989 0.0050553489 -0.94659054 -0.27196959 0.17320172 0
0.13546249 0.054833546 0.0059009623 0.9312498 0.21665373 -0.29297593 0
-0.11425223 0.064889558 0.0055014547 -0.841003 0.29383361 -0.45428595 0
-0.10597656 0.064953156 0.0050153029 0.94362003 -0.30583367 -0.12667681 0
0.12500459 0.065653048 0.0048871869 -0.90093029 -0.29846582 0.31502828 0
0.13350634 0.064405374 0.0067086075 0.84673321 0.28242147 -0.45086688 0
-0.11224937 0.073544554 0.0073006125 -0.73849255 0.32317549 -0.59176546 0
-0.10461365 0.075745493 0.0043507284 0.88658398 -0.33336237 -0.32068428 0
-0.099952012 0.079272956 0.0059450008 0.92510033 -0.37797284 -0.036414329 0
0.11884738 0.077028885 0.0044578533 -0.93223858 -0.35217857 0.083075538 0
0.12505439 0.074697405 0.0053634332 0.80880594 0.36080906 -0.46438113 0
0.13174123 0.073941529 0.0083314963 0.88978678 0.42876476 -0.15633339 0
-0.11010978 0.081426904 0.009538468 -0.79242551 0.36391515 -0.48951766 0
-0.10476109 0.084859736 0.0046923691 -0.75964719 0.41318586 -0.50220859 0
-0.096638151 0.086218543 0.0054470897 0.73848617 -0.66605157 -0.10494499 0
-0.08602529 0.08905194 0.0076127374 0.20853578 -0.94088346 -0.26692906 0
0.11627317 0.085676521 0.0048798686 -0.86988181 -0.42751878 0.24603511 0
0.12382659 0.0846017 0.0055969423 0.83135676 0.4193067 -0.36472976 0
-0.10226473 0.093934573 0.0073183607 -0.68453884 0.47285864 -0.55480742 0
-0.096044026 0.095265694 0.005711298 -0.43001792 0.42918313 -0.79428357 0
-0.084534489 0.094347186 0.0043178019 0.38574073 -0.2800656 -0.87907189 0
-0.0790703 0.097146749 0.0074205711 0.91257024 -0.31920338 -0.25558698 0
0.10899121 0.097694062 0.0040978962 -0.93071783 -0.36470917 0.027414957 0
0.1145906 0.094801828 0.0048737293 0.47436163 0.68390447 -0.55430651 0
0.12194026 0.093036406 0.0081391633 0.78947502 0.46011388 -0.40623194 0
-0.093936116 0.10334726 0.0076292129 -0.63320392 0.54897314 -0.54560173 0
-0.084633633 0.1059136 0.0046370435 0.10632039 0.22546723 -0.96843195 0
-0.078571014 0.10329539 0.0072849514 0.87020558 0.25100726 -0.42395467 0
0.10592499 0.10491919 0.006212757 -0.72848248 -0.29402176 -0.61876053 0
0.11314685 0.10402076 0.0073815342 0.55975652 0.49793881 -0.66236663 0
-0.09075328 0.11147376 0.0093785916 -0.47619978 0.32835019 -0.81573278 0
-0.083794951 0.11311477 0.0062362701 -0.31272456 0.53512478 -0.78475779 0
-0.075350031 0.11663488 0.0068605496 0.44871145 -0.75717974 -0.47469661 0
-0.068902515 0.11955114 0.0055797026 0.40166897 -0.90958893 0.10634843 0
0.089065403 0.11919829 0.0077874828 -0.54683632 -0.82558024 -0.13923854 0
0.096353315 0.11613523 0.0075694858 -0.38298449 -0.68977815 -0.61443388 0
0.10324619 0.11414223 0.0084106456 0.58211631 0.64621931 -0.49349898 0
0.11070359 0.11050432 0.0094996132 0.46844956 0.39656118 -0.78948987 0
-0.080350719 0.12032292 0.0095511908 -0.54884344 0.52148408 -0.65331858 0
-0.073595047 0.12368811 0.0058770021 -0.66186017 0.49082512 -0.56659669 0
-0.065330431 0.12451374 0.0047748885 0.15740873 -0.87120402 -0.46500108 0
-0.056022406 0.12709564 0.0047819759 0.54697937 -0.83493173 -0.060848773 0
0.069029994 0.12961955 0.0034110039 -0.33265176 -0.94290572 0.016480504 0
0.075186349 0.12743227 0.005066243 -0.40369457 -0.91406548 0.038921826 0
0.085133642 0.12540993 0.0052252663 0.23280346 -0.38102058 -0.894777 0
0.093746737 0.12300487 0.0075648041 0.43105471 0.53388941 -0.72742963 0
0.1012356 0.12064365 0.0096294945 0.52609712 0.60097736 -0.60170436 0
-0.070443772 0.13005918 0.0097323684 -0.44653273 0.54062307 -0.7129764 0
-0.063235782 0.13274489 0.0064391643 -0.4851248 0.68339908 -0.54554528 0
-0.054950982 0.13559149 0.0048632007 -0.41639253 0.81086028 -0.41124561 0
-0.045351207 0.13461162 0.004632303 0.43801808 -0.88955021 -0.12977071 0
-0.035113953 0.13779956 0.0046139332 0.31275573 -0.9445467 -0.10007694 0
-0.027761919 0.13950101 0.0044817962 0.23910207 -0.97072703 -0.022785285 0
0.046322569 0.13893878 0.0048971241 -0.28169209 -0.95933408 0.018101646 0
0.055157673 0.13556086 0.0050418628 -0.405819 -0.91392654 0.0070200884 0
0.064946711 0.13350157 0.0046893456 -0.35477948 -0.93344402 -0.053044289 0
0.075391792 0.13556038 0.0052109291 0.48938194 0.77412397 -0.40154374 0
0.082617745 0.13195945 0.0070052734 0.54297036 0.6737293 -0.50127029 0
-0.052703999 0.1412164 0.0092074685 -0.26281297 0.57437569 -0.7752561 0
-0.044171207 0.14280051 0.0062734862 -0.33976361 0.75812185 -0.55660754 0
-0.035058208 0.14579518 0.0053745466 -0.31388968 0.83291632 -0.4557671 0
-0.024753995 0.14503387 0.0044044964 -0.22361648 0.36024177 -0.90566081 0
-0.015562096 0.14354272 0.0047914712 0.27509567 -0.95885354 -0.070158526 0
-0.0049034948 0.14635602 0.0048412052 0.22332871 -0.95380688 -0.20093977 0
0.0047093765 0.14709559 0.0048275664 0.070923783 -0.99492854 -0.071322829 0
0.013382836 0.14870563 0.0063345432 0.37666601 -0.90998626 -0.17334311 0
0.02502913 0.14627825 0.0050781881 -0.5332067 -0.83675164 0.12464891 0
0.035594493 0.14389208 0.0047427299 -0.34497285 -0.9359172 0.071083017 0
0.044681232 0.14586109 0.0048613828 0.30130479 0.88281184 -0.36035901 0
0.05525393 0.14526179 0.0055671874 0.31872571 0.84003699 -0.43903515 0
0.063926965 0.14208736 0.0060232459 0.33056989 0.82756478 -0.45371816 0
0.070600078 0.14060879 0.0090977866 0.3588652 0.83585835 -0.41539934 0
-0.031559665 0.15056218 0.0094496841 -0.21962236 0.74706888 -0.6274187 0
-0.024581647 0.15174167 0.0087612458 -0.20123789 0.6577934 -0.72581762 0
-0.01458475 0.15204956 0.0059294421 -0.12554821 0.89404672 -0.43002096 0
-0.004847358 0.15280758 0.0052777021 -0.069869816 0.90869528 -0.41157135 0
0.005152883 0.15382479 0.0058322833 -0.036913488 0.86125475 -0.50683099 0
0.014515536 0.15364976 0.0058210874 0.20507427 0.60056484 -0.77283019 0
0.024384497 0.15359089 0.005884802 -0.017671615 0.86739576 -0.49730498 0
0.033980221 0.15172918 0.0063250135 0.18529877 0.81920588 -0.54273945 0
0.044220459 0.1514442 0.0089686932 0.092776209 0.59226489 -0.80038422 0
0.051474672 0.15049472 0.0096351448 0.24249168 0.53997767 -0.80599135 0
-0.032008167 -0.10062521 0.010293445 -0.22652833 -0.62062156 0.7506755 0
-0.02418465 -0.10168543 0.010856517 -0.09623529 -0.35066849 0.93154198 0
-0.014897745 -0.10289861 0.01098705 -0.036079425 -0.33822313 0.94037408 0
-0.0051982529 -0.103244 0.010729901 0.058859915 -0.13213396 0.98948276 0
0.0043993955 -0.10365963 0.010409779 0.033781283 0.014460869 0.99932462 0
0.015235551 -0.1041187 0.010994117 -0.11955381 -0.067316979 0.99054289 0
0.024863685 -0.1036739 0.011489611 0.0007472618 -0.15934698 0.98722231 0
0.034286566 -0.10257027 0.011297271 0.14453495 -0.34928524 0.92580211 0
0.04521187 -0.10085003 0.010365988 0.12775387 -0.46837565 0.87424433 0
-0.052786287 -0.091390938 0.010694831 -0.1956865 -0.44311514 0.8748461 0
-0.044221722 -0.093195833 0.011404813 -0.10580252 -0.2977865 0.94875133 0
-0.035332516 -0.095053919 0.011335535 0.014811181 0.011585305 0.99982321 0
-0.025373464 -0.096674576 0.011428436 0.051164851 0.24363086 0.96851748 0
-0.015563521 -0.097837314 0.011309344 0.13947621 0.48702779 0.86217761 0
-0.0074038664 -0.099422149 0.010970156 0.23834804 0.70227313 0.67082244 0
0.018843748 -0.099669851 0.010188796 -0.14032169 0.51703608 0.8443836 0
0.025779199 -0.098772682 0.010745429 -0.12709317 0.49953339 0.85692108 0
0.035296533 -0.097697318 0.011323868 -0.085517004 0.34729722 0.93384767 0
0.045485795 -0.09630838 0.011143529 -0.03894886 0.10931517 0.99324375 0
0.054633923 -0.094479553 0.011170003 0.023779977 -0.064587183 0.99762875 0
0.063868783 -0.09264569 0.011081012 0.1528244 -0.33855459 0.92845333 0
0.071701899 -0.091048196 0.010485743 0.15862265 -0.48715433 0.85878956 0
-0.071548395 -0.081018053 0.010975988 -0.30583635 -0.56647366 0.7652266 0
-0.06415201 -0.082834505 0.011613106 -0.11650374 -0.27034947 0.95568717 0
-0.05525903 -0.086283393 0.011584783 0.023660181 0.077505201 0.99671119 0
-0.046648849 -0.088382065 0.01143806 0.27112326 0.60213631 0.75094873 0
0.057750575 -0.088935785 0.010662617 -0.19521703 0.41175365 0.89014 0
0.066197716 -0.086807236 0.011168468 -0.15650845 0.24112915 0.95779002 0
0.074876353 -0.085116819 0.01182275 -0.049986735 -0.088122912 0.99485457 0
0.083293334 -0.083169922 0.011833937 0.351183 -0.48774144 0.79923636 0
-0.082201339 -0.072212912 0.011736446 -0.58218408 -0.70343649 0.40772381 0
-0.075014271 -0.074923113 0.012339877 -0.090494797 -0.21747704 0.9718613 0
-0.067068584 -0.077039719 0.011468387 0.43222031 0.44266304 0.7856431 0
0.077651218 -0.078446098 0.011092062 -0.34413061 0.59503573 0.72629648 0
0.085552149 -0.076250367 0.011783723 -0.079613373 0.28983396 0.95375997 0
0.093045615 -0.073713809 0.01093094 0.27971458 -0.085774593 0.95624393 0
-0.090878978 -0.063874975 0.010472069 -0.4850769 -0.075945087 0.87116742 0
-0.085479833 -0.066277176 0.012043288 -0.25094599 0.19280688 0.94860512 0
-0.077081829 -0.067841522 0.011533194 0.42587796 0.5229733 0.73832721 0
0.096225917 -0.06678585 0.010410327 -0.19758847 0.28869459 0.93681067 0
0.10258484 -0.062185667 0.010401995 0.046199508 -0.039840776 0.99813741 0
-0.10040554 -0.050542939 0.010196242 -0.44131166 -0.36205441 0.82107288 0
-0.095501155 -0.053547136 0.010782894 -0.063147031 -0.22972685 0.97120446 0
0.10700694 -0.056197528 0.01084472 -0.16448699 -0.026925696 0.98601168 0
0.11316074 -0.052327611 0.011209314 0.26771501 -0.41442096 0.86981833 0
-0.10244982 -0.0437527 0.010723712 -0.2321866 -0.063624412 0.97058815 0
-0.096928909 -0.045954771 0.011395834 0.27627125 0.17794491 0.94446266 0
0.10936274 -0.049664438 0.010382804 -0.71846694 0.46677619 0.51567936 0
0.1152591 -0.04573486 0.011432257 -0.092201576 0.13268435 0.98686051 0
0.12102235 -0.042274397 0.010439452 0.49391538 -0.25513485 0.83123636 0
-0.11064083 -0.031090958 0.010498576 -0.46688968 -0.28155327 0.83829695 0
-0.10488223 -0.03472643 0.010905704 -0.022416074 -0.071342073 0.99720001 0
-0.0991484 -0.038444806 0.010633691 0.44985202 0.30806693 0.83828866 0
0.11838669 -0.037189916 0.010794216 -0.42704692 0.22211848 0.87652391 0
0.12258 -0.034733258 0.010962305 0.17573145 -0.041632608 0.98355746 0
-0.1124352 -0.024027649 0.011174703 -0.36346757 -0.19176307 0.91165692 0
-0.10682543 -0.025857026 0.011404376 0.33326495 0.10779016 0.93665129 0
0.12634003 -0.02533143 0.010937756 -0.066534825 -0.03420471 0.99719763 0
0.13088356 -0.021879403 0.010752201 0.58617169 -0.30469504 0.75070882 0
-0.11405616 -0.014808577 0.011961757 -0.2073689 -0.13116038 0.96943027 0
-0.10878789 -0.015804911 0.011215613 0.70834696 0.16132057 0.6871829 0
0.12821804 -0.016433563 0.010860149 -0.48494571 0.19302544 0.85297656 0
0.13238706 -0.014342711 0.011447127 0.21844302 -0.056104664 0.97423553 0
-0.12060438 -0.0033418762 0.010618324 -0.73959881 -0.1263919 0.6610738 0
-0.11516109 -0.0049848426 0.011791297 0.039783087 0.10654287 0.99351197 0
-0.10964283 -0.0085571976 0.01038973 0.79960376 0.17017174 0.57591265 0
0.12967357 -0.0094825113 0.010136493 -0.55639726 0.17174798 0.81297284 0
0.13413253 -0.0048880917 0.010985691 0.057076212 0.047699571 0.99722975 0
-0.12121257 0.0057372279 0.010789218 -0.18473767 -0.060547255 0.98092097 0
-0.1144093 0.0045348825 0.010371284 0.039384298 0.11560187 0.99251449 0
-0.10859409 0.0058929673 0.010521341 0.27774253 0.051212385 0.95928955 0
0.13630153 0.0048834751 0.010786448 0.024371209 0.013306179 0.99961442 0
-0.12236013 0.01512947 0.010963432 -0.34966213 -0.044062808 0.93583918 0
-0.11754677 0.014573389 0.010470082 0.2260409 0.013841637 0.97401947 0
0.13726698 0.015471927 0.010679208 -0.059961606 0.013850129 0.99810457 0
0.14035133 0.017690407 0.010123687 0.33471787 -0.049732726 0.94100511 0
-0.12237313 0.024964403 0.010919824 -0.16008313 0.02980645 0.98665339 0
-0.1189102 0.023961792 0.010365241 0.26287943 0.047997564 0.96363407 0
0.13765764 0.024000278 0.010383876 -0.1434236 0.098146074 0.98478276 0
0.14047468 0.024321578 0.010076858 0.27248478 0.019993808 0.96195233 0
-0.12232445 0.034344256 0.010689194 -0.21668531 0.030640205 0.97576052 0
-0.11818925 0.037175842 0.010905344 0.17121562 -0.22206177 0.95988226 0
0.13532577 0.037719809 0.010343923 -0.071926169 -0.18080424 0.98088557 0
-0.12156393 0.045025617 0.010670045 -0.37586564 -0.011038817 0.92660844 0
-0.1158153 0.045298919 0.011619444 0.13774668 -0.17369774 0.97511792 0
0.13433383 0.045310132 0.010729412 -0.0046390384 -0.032191634 0.99947095 0
-0.12073001 0.052327335 0.010969762 -0.81171489 0.13907996 0.5672527 0
-0.11505303 0.054786194 0.012491395 0.0061926488 -0.049620669 0.9987489 0
-0.1091473 0.056874495 0.010685716 0.5835582 -0.16374822 0.79539073 0
0.12897147 0.056437131 0.010392239 -0.38601011 -0.061275207 0.92045718 0
0.13319184 0.055199239 0.010754536 0.11024588 0.021841398 0.99366432 0
-0.11451855 0.064898357 0.012466933 -0.32042789 0.12973656 0.93834662 0
-0.10798346 0.065548271 0.011514815 0.59097648 -0.1499884 0.79262245 0
0.12824614 0.065543182 0.010499423 -0.24615522 -0.073880419 0.96641052 0
0.13199513 0.064512148 0.010658521 0.18871921 0.065428138 0.9798491 0
-0.11276188 0.074217729 0.011610146 -0.54321134 0.27548981 0.7931121 0
-0.10634074 0.075302094 0.012163473 0.35844177 -0.13840561 0.92323518 0
0.12601525 0.075194754 0.01072856 -0.071840972 -0.045801308 0.996364 0
0.13080527 0.072095223 0.010356949 0.32425514 0.12164582 0.9381156 0
-0.11068325 0.081545025 0.01089533 -0.87957931 0.46183503 -0.11423044 0
-0.10459948 0.08473061 0.011779218 0.017563704 0.08461339 0.99625909 0
-0.096238762 0.087190479 0.010387618 0.29484126 -0.25969207 0.91958064 0
-0.086495891 0.088868849 0.011210174 0.11521442 -0.83115304 0.54397631 0
0.11820824 0.086442068 0.010617462 -0.30386761 -0.16895199 0.93761384 0
0.12324346 0.084177554 0.010761407 0.1685244 0.071964838 0.98306686 0
-0.10275261 0.09343452 0.011053903 -0.13734496 0.32305548 0.93636078 0
-0.093097001 0.095182404 0.011014981 -0.24553025 0.011785274 0.96931732 0
-0.085030034 0.094683021 0.012036306 0.053288523 -0.039437927 0.99780005 0
-0.078901142 0.097386807 0.011239004 0.76110268 -0.2505607 0.59828258 0
0.11591065 0.095513426 0.010785228 -0.02789771 -0.0031860834 0.99960566 0
0.12100366 0.092811406 0.010447413 0.39910069 0.198667 0.89512575 0
-0.092304543 0.1053547 0.010972489 -0.29866645 -0.020824742 0.95413029 0
-0.08491718 0.10505722 0.011041386 0.034673706 0.0085510453 0.99936211 0
-0.078066632 0.10273671 0.011019569 0.39967495 0.20377253 0.89372069 0
0.10716629 0.10681272 0.010470287 -0.14098017 -0.0055113095 0.98999709 0
0.11292288 0.10392624 0.010621225 0.19557971 0.13162179 0.97181499 0
-0.091076329 0.11134128 0.011017017 -0.72886193 0.39286506 0.56072932 0
-0.084946632 0.11499231 0.011818484 -0.077097215 0.13530017 0.98780054 0
-0.077268295 0.1167556 0.010701757 0.3036966 -0.21560098 0.92805421 0
0.089513719 0.11979822 0.010422083 -0.59155041 -0.70207036 0.39644089 0
0.09431579 0.11848508 0.010301582 0.031777568 -0.14730993 0.98857975 0
0.10739307 0.11261669 0.010140995 -0.037081406 0.075156495 0.99648196 0
0.11088794 0.11148668 0.010226822 0.67476225 0.67889667 -0.28947422 0
-0.081647515 0.12192241 0.012282452 -0.60405767 0.75528437 -0.25428313 0
-0.075182498 0.12494325 0.011355424 -0.097953081 0.073709086 0.99245757 0
-0.065365449 0.12590693 0.01165124 0.11455139 -0.29253876 0.9493677 0
-0.057842564 0.12841356 0.011244358 0.32395354 -0.53696126 0.77892661 0
0.077046894 0.12841365 0.011250079 -0.29812741 -0.6033361 0.73966587 0
0.085504785 0.12601516 0.011466018 -0.038592428 -0.20318121 0.97838026 0
0.094123662 0.12322129 0.010559355 0.20110476 0.068782926 0.97715187 0
0.10031715 0.12151198 0.010054218 0.060164455 -0.07761012 0.99516678 0
-0.07100407 0.13082077 0.011269917 -0.58093262 0.72659892 0.36683959 0
-0.064173847 0.13396651 0.011638895 -0.29038027 0.38708422 0.87512577 0
-0.055280972 0.1355264 0.01215428 -0.023325851 0.023155397 0.99945974 0
-0.045533661 0.13642821 0.011898411 0.22457224 -0.46674788 0.85540271 0
-0.036908943 0.13867688 0.011018808 0.22719207 -0.63431418 0.73893791 0
0.048768416 0.13980368 0.010020725 -0.14326948 -0.41967258 0.89629728 0
0.056783065 0.13775945 0.010971814 -0.23837313 -0.46789873 0.8510282 0
0.065249763 0.13596281 0.011808803 -0.13155665 -0.299321 0.94503957 0
0.074658044 0.13467975 0.011765962 0.072229005 0.0719648 0.99478841 0
0.08308728 0.13225019 0.011150664 0.31470132 0.43322757 0.84455729 0
-0.054163437 0.14158818 0.010876883 -0.37567276 0.76520455 0.52281159 0
-0.044797905 0.14412592 0.011745661 -0.20246446 0.44106132 0.87434149 0
-0.035070706 0.14483368 0.01237032 -0.03513011 0.020388033 0.99917477 0
-0.025384378 0.14573647 0.012460697 0.052248329 -0.18959059 0.98047215 0
-0.014753458 0.14647827 0.012147686 0.11151341 -0.48987758 0.86462981 0
-0.0055534611 0.1478525 0.011992695 0.13011064 -0.64231592 0.75531554 0
0.0045310049 0.14873698 0.011356972 0.10845449 -0.68822926 0.71734101 0
0.013905108 0.14953767 0.010640826 0.12867558 -0.77115244 0.62351149 0
0.027064113 0.14853464 0.010784905 -0.17309488 -0.46691003 0.86719847 0
0.035355512 0.14726633 0.011407538 -0.12371556 -0.34277138 0.93123698 0
0.045553822 0.1455857 0.011786148 -0.069329925 -0.16867661 0.98323017 0
0.055016816 0.14478357 0.011835515 0.043198384 0.12739058 0.99091148 0
0.064465962 0.14302169 0.011424745 0.21176143 0.42747304 0.87887657 0
0.071319208 0.14093658 0.010828704 0.39370146 0.72205353 0.56889164 0
-0.032444321 0.15080455 0.010730644 -0.26434037 0.96056223 0.086280316 0
-0.024324486 0.15223271 0.011505795 -0.19051507 0.6843549 0.70381993 0
-0.014952503 0.15312138 0.012134268 -0.10019527 0.49997178 0.86022621 0
-0.005513581 0.15376171 0.012324048 0.034121763 0.45290878 0.89090365 0
0.0049555991 0.15404996 0.012079614 -0.065652482 0.26112047 0.96307105 0
0.014745923 0.15390356 0.011597672 0.1070697 0.11499134 0.98757941 0
0.025099555 0.15408698 0.0113222 -0.016808936 0.20433986 0.97875565 0
0.034878917 0.15282536 0.011603966 0.085357614 0.41972467 0.90362883 0
0.044943858 0.15159288 0.010880488 0.15870978 0.52082407 0.83878094 0
0.051433161 0.15051371 0.01043707 0.12623388 0.47069576 0.87321848 0
0.064980768 -0.0020930506 0.027960021 -0.21968712 -0.89679128 -0.38406119 0
0.070715904 -0.0010058604 0.028724203 0.82856619 -0.53008449 0.18024555 0
0.05932986 0.0039164419 0.02895553 -0.89013124 0.048340805 -0.45313305 0
0.065026537 0.0047690016 0.026663739 -0.058301076 0.4268122 -0.90245903 0
0.071424551 0.0036267531 0.028016355 0.96815383 0.24582602 -0.047411431 0
-0.051805802 0.039235324 0.027238475 -0.070795827 -0.99678427 0.037537236 0
-0.04896063 0.039361563 0.025972767 0.33976337 -0.93417591 0.10897837 0
-0.054503318 0.045385934 0.026939269 -0.80047131 -0.025724459 -0.59881878 0
-0.046502158 0.044403408 0.027085101 0.88894826 0.10205968 -0.44649175 0
-0.05385004 0.050796818 0.028511697 -0.093422741 0.96221483 -0.25576344 0
-0.049385197 0.050208829 0.028855657 0.39401615 0.89682519 0.2011366 0
0.058289301 -0.00038262852 0.031917304 -0.35089031 -0.75648677 -0.55190915 0
0.063359439 -0.00078908261 0.031083502 0.094004221 -0.48424968 0.86986518 0
0.049958911 0.0011172142 0.039718792 -0.80254102 0.37681121 -0.46253785 0
0.055578791 0.004650448 0.035067014 -0.29786903 -0.88225651 -0.36455113 0
0.065281108 0.0040505333 0.031519316 0.25175998 0.0075348704 0.96776032 0
0.070343338 0.0034315425 0.030233549 0.29761252 0.03227102 0.95414114 0
0.056526937 0.011804877 0.03592908 0.064103328 0.98604774 -0.15362509 0
0.061102796 0.010496726 0.031399764 0.46871802 0.8801623 0.074952058 0
-0.052240435 0.039211359 0.030952178 -0.3072249 -0.59473079 0.74290508 0
-0.043414429 0.03719113 0.034604378 -0.5777334 -0.8150413 0.043951169 0
-0.039413232 0.039175451 0.038270872 0.87926602 -0.38997823 -0.27351078 0
-0.052382559 0.044260755 0.031652521 -0.43973723 0.1004544 0.89249092 0
-0.044549435 0.044263158 0.032534517 0.026971573 0.54115534 0.84048998 0
-0.038737867 0.044182468 0.037054099 0.90461719 0.015909746 -0.42592794 0
-0.051338617 0.050050303 0.03008859 0.079826079 0.73871309 0.66927624 0
0.047996227 -0.00034393909 0.048574395 -0.16851379 -0.97809094 -0.12223436 0
0.05308089 -0.00090896984 0.04864724 0.22941123 -0.84660906 -0.48023278 0
0.047481231 0.0035684705 0.046169952 -0.75310767 0.048067577 -0.65613896 0
0.053093195 0.0053136623 0.044960983 0.84521592 -0.14124538 -0.51542193 0
0.048939187 0.012045485 0.048504714 -0.65006584 0.39075196 -0.65171117 0
0.053546414 0.012892232 0.045600191 0.28535357 0.51926124 -0.80556881 0
-0.0378609 0.029762931 0.048807181 0.01694308 -0.93939108 -0.34242848 0
-0.041556213 0.036030058 0.045442834 -0.92440349 -0.083050869 -0.37226442 0
-0.03621212 0.036221568 0.046679039 0.46768269 -0.43535298 -0.76924688 0
-0.041341525 0.043507695 0.047919232 -0.74837053 0.27320647 -0.6044004 0
-0.035731837 0.044345967 0.045803856 0.27310267 0.44480166 -0.85297501 0
-0.02992399 0.046636842 0.049855281 0.89818054 -0.063332327 -0.43504116 0
0.04677562 -0.00058224832 0.055272676 -0.14961216 -0.98834425 -0.028140018 0
0.051767211 -0.0010497672 0.053499542 0.27469277 -0.94392109 0.18318553 0
0.027731117 0.0080360817 0.05940957 -0.22896634 -0.20019765 -0.95262539 0
0.035476435 0.0056446809 0.05842562 -0.19621947 -0.23455583 -0.95209324 0
0.042705271 0.0043976898 0.054286905 -0.86148667 -0.17050199 -0.4782989 0
0.054495905 0.0050835107 0.05470778 0.83348405 -0.33202249 0.44166201 0
0.017428745 0.015653703 0.059816658 -0.070737109 -0.022278694 -0.99724615 0
0.025116041 0.015027724 0.059216667 -0.10701261 -0.025376005 -0.99393386 0
0.034937166 0.014898343 0.058164168 -0.094358742 0.037456471 -0.99483341 0
0.045049489 0.015372128 0.055040285 -0.45063004 0.53074497 -0.7178039 0
0.054920353 0.014434114 0.055113815 0.79792851 0.58978629 0.1243469 0
-0.034349915 0.028741671 0.055885248 -0.056645967 -0.9528051 -0.29825118 0
-0.025129136 0.027040053 0.058877133 0.012100571 -0.40129498 -0.91586894 0
-0.015252911 0.027407208 0.059344895 0.059311435 -0.19728602 -0.97855014 0
-0.0049487492 0.026629556 0.059806447 0.021086898 -0.032892808 -0.99923635 0
0.002076528 0.027573768 0.059945039 0.025612952 -0.010230341 -0.9996196 0
0.018919753 0.022287924 0.059945118 -0.080572948 0.040939517 -0.9959076 0
0.024929548 0.022383465 0.059444793 -0.054004814 0.15720767 -0.98608786 0
0.035114858 0.02167942 0.059149317 -0.0024930427 0.36327976 -0.93167675 0
0.042894002 0.021119934 0.058962259 0.22569422 0.84910482 -0.47758058 0
-0.041923281 0.035048503 0.054446857 -0.9415561 -0.11044589 0.31823543 0
-0.03468103 0.033019096 0.05437554 0.34529281 -0.83779955 -0.42292395 0
-0.025634822 0.035322767 0.056310337 0.36685961 -0.16140074 -0.91616797 0
-0.014951345 0.035104617 0.058856741 0.20508577 0.054752 -0.97721136 0
-0.0059480015 0.032600228 0.059783261 0.037001889 0.038193252 -0.99858499 0
0.0018675649 0.030852562 0.059959475 0.032264903 0.026292946 -0.99913347 0
-0.040966343 0.04265254 0.052501358 -0.86275095 0.30188259 0.40562025 0
-0.035687204 0.046923518 0.054961313 -0.32659811 0.91744071 0.22723609 0
-0.026605548 0.043997955 0.055689137 0.70727485 0.31644008 -0.63216138 0
-0.017902924 0.041940894 0.059183951 0.26844111 0.2888481 -0.91897011 0
0.04596794 -0.00052320556 0.061990887 -0.1464891 -0.98279774 0.11247007 0
0.0171239 0.0087865181 0.064980842 -0.33042517 -0.94244999 -0.051061541 0
0.024886372 0.0067268889 0.065472953 -0.26317248 -0.92828137 0.26274309 0
0.034987327 0.0043954575 0.065539576 -0.091868334 -0.73006296 0.67717665 0
0.044717513 0.0043488452 0.064594664 0.2814227 -0.29357943 0.91357118 0
0.051222801 0.0070383283 0.06189619 0.8205108 -0.3091439 0.48082426 0
-0.011813059 0.019445788 0.065234475 -0.35073733 -0.93317586 -0.078524262 0
-0.0053476323 0.01728078 0.064706758 -0.33421969 -0.91358089 -0.23166196 0
0.0049450798 0.014722566 0.06366384 -0.28326792 -0.77009511 -0.57158804 0
0.01307466 0.012952432 0.062617533 -0.26693165 -0.59589547 -0.75740081 0
0.025267083 0.014316451 0.069172196 0.12060162 -0.061940555 0.9907667 0
0.035099231 0.014812044 0.068090774 0.16409537 -0.073680922 0.98368889 0
0.045583989 0.015980205 0.065371349 0.30569458 0.17612149 0.93569875 0
0.0522977 0.014777681 0.062933497 0.74013001 0.17493296 0.64931208 0
-0.033299673 0.028198697 0.063847855 -0.46346328 -0.85868061 0.21879108 0
-0.024801444 0.025486374 0.065555759 -0.39253864 -0.75395691 0.52674699 0
-0.015856665 0.023658233 0.066030897 -0.40016416 -0.782125 0.47764951 0
-0.0053718365 0.021595379 0.060265016 -0.030418748 -0.15562654 -0.98734748 0
0.005969096 0.02419338 0.060194243 0.024269057 -0.043057837 -0.99877781 0
0.014432435 0.025367169 0.060393095 0.007543907 0.10047742 -0.99491072 0
0.025800876 0.026746163 0.065531425 0.37887186 0.92491627 0.031402249 0
0.034663524 0.023910338 0.065296002 0.40199536 0.85733944 0.3215102 0
0.042492781 0.02127956 0.064298637 0.41722792 0.89371669 0.16489819 0
-0.04036703 0.032706287 0.060974695 -0.93144816 0.05521518 0.35966033 0
-0.035607241 0.034705561 0.06451036 -0.52334678 0.050655443 0.85061276 0
-0.024719348 0.034960687 0.067734271 -0.18887058 0.064821258 0.97986019 0
-0.015169748 0.035167422 0.068907455 -0.13192196 0.052084055 0.98989081 0
-0.0044859624 0.038054235 0.063954286 0.31617758 0.86786866 -0.38319156 0
0.004916037 0.034733754 0.063831456 0.31331018 0.82246667 -0.4747476 0
0.014793835 0.031945366 0.065121949 0.32956031 0.91915572 -0.21573758 0
0.020501435 0.030145584 0.065167241 0.3465133 0.93650758 -0.053684507 0
-0.033369821 0.044734482 0.063423917 -0.51383907 0.51458406 0.68642014 0
-0.025003755 0.044566192 0.065284126 0.059882615 0.72454047 0.68662596 0
-0.015139157 0.042486548 0.065105513 0.28613842 0.9375155 0.19796334 0
-0.0083185378 0.040482245 0.065167822 0.32602531 0.94522214 0.016208958 0
0.015220464 0.0098290043 0.070140809 -0.18337141 -0.66071373 0.7278958 0
-0.010277182 0.019692319 0.070193604 -0.31904924 -0.7010743 0.63773221 0
-0.0036643695 0.018099569 0.070592724 -0.11708809 -0.20750193 0.97120202 0
0.0055939299 0.016524456 0.070666924 -0.01786419 -0.11551071 0.99314559 0
0.014825456 0.015130799 0.070373222 0.036990404 -0.065553889 0.99716318 0
0.021329751 0.017975885 0.070067875 0.061965093 -0.038816541 0.99732322 0
-0.011471287 0.024339281 0.070086345 -0.082870871 -0.0068722349 0.99653661 0
-0.0050134654 0.025337705 0.070529439 -0.063117594 0.015703678 0.99788254 0
0.0049377033 0.025041196 0.070841685 0.001984057 -0.016770871 0.99985743 0
0.015282899 0.025129968 0.070657656 0.032108016 -0.03495159 0.99887311 0
0.022307932 0.025172768 0.070268624 0.081423134 -0.014894336 0.99656832 0
-0.010534125 0.030848797 0.070035204 -0.11045656 0.03563853 0.99324179 0
-0.0046635866 0.033584099 0.070408165 -0.068498746 0.02606762 0.99731058 0
0.0046661147 0.033115923 0.070826538 0.015543967 0.13152942 0.99119037 0
0.013856313 0.031573541 0.070764869 0.194088 0.46099016 0.86592025 0
