# .PCD v0.7 - Point Cloud Data file format
VERSION 0.7
FIELDS x y z normal_x normal_y normal_z curvature
SIZE 4 4 4 4 4 4 4
TYPE F F F F F F F
COUNT 1 1 1 1 1 1 1
WIDTH 412
HEIGHT 1
VIEWPOINT 0 0 0 1 0 0 0
POINTS 412
DATA ascii
-0.024791684 0.0084507 -9.1533824e-05 -0.0014918856 -0.055011146 -0.99848467 0
-0.018132579 0.009321359 -2.7771568e-05 0.0021368624 -0.044313826 -0.99901539 0
-0.022405505 0.011903206 -0.00010496428 -0.030995309 0.042865202 -0.99859995 0
-0.017344207 0.012820074 -0.00010621132 0.014267378 0.0099202078 -0.99984902 0
-0.040121403 -0.010529191 0.0098494664 -0.39454401 -0.46637756 -0.79172415 0
-0.033834852 -0.01261625 0.008326157 -0.29512814 -0.49540818 -0.81698841 0
-0.024842631 -0.014482345 0.0071736197 -0.12432335 -0.53317159 -0.83682245 0
-0.01469753 -0.014781042 0.0072155222 0.085058108 -0.50908178 -0.8565051 0
-0.0056071621 -0.013111384 0.0078893974 0.25442535 -0.5071044 -0.82347602 0
0.0010206704 -0.011077167 0.0095405811 0.45868537 -0.50549769 -0.73080766 0
-0.042692445 -0.0038566797 0.0081468439 -0.48111808 -0.32093379 -0.81579834 0
-0.035347283 -0.0052259718 0.0054107648 -0.31951091 -0.33320081 -0.88706821 0
-0.024876729 -0.0052185301 0.0028262541 -0.12063374 -0.34248897 -0.93174499 0
-0.015030413 -0.0049718656 0.0024618979 0.046188127 -0.33157599 -0.94229722 0
-0.0052341479 -0.0048276954 0.00415385 0.29444882 -0.31986731 -0.90054691 0
0.0035894816 -0.0042555458 0.0078210291 0.47096878 -0.29459015 -0.83150774 0
-0.044366844 0.0050795157 0.0071777287 -0.52039242 -0.094787061 -0.84865016 0
-0.034994338 0.0049886727 0.0026688576 -0.33678687 -0.12568709 -0.93315452 0
-0.025085879 0.0040213312 0.00042809549 -0.096036308 -0.12643875 -0.9873147 0
-0.014732636 0.0048531611 0.00036299389 0.050772645 -0.089594953 -0.99468338 0
-0.004896509 0.0047355513 0.0021044326 0.29681015 -0.10591892 -0.94904423 0
0.0050314679 0.0051653683 0.0063228109 0.50276309 -0.1348424 -0.85384238 0
0.010332264 0.0068315668 0.0096003097 0.70298451 -0.0548255 -0.70908892 0
-0.044741455 0.015128755 0.0071101724 -0.50987327 0.056551952 -0.85838866 0
-0.035119303 0.014681752 0.0026187631 -0.32075134 0.089132681 -0.9429602 0
-0.026019741 0.015639318 0.00060199061 -0.1188034 0.12508185 -0.98500776 0
-0.01395513 0.01610201 0.00033190227 0.096792608 0.085858732 -0.99159443 0
-0.0050668772 0.014689386 0.0019481762 0.26776999 0.071417011 -0.96083236 0
0.005176805 0.014942897 0.0060378248 0.50089705 0.069480963 -0.86271346 0
0.010376607 0.012800419 0.0094974013 0.7190848 0.010214497 -0.69484729 0
-0.043622512 0.024178805 0.0081124008 -0.47082567 0.26342255 -0.84198081 0
-0.035172943 0.025104318 0.004683183 -0.31717843 0.29504341 -0.90130311 0
-0.025009064 0.025155358 0.0021478746 -0.12686405 0.27462929 -0.95314437 0
-0.014894903 0.024895702 0.0018289059 0.085523784 0.27701271 -0.95705259 0
-0.0046491669 0.025295997 0.0040140529 0.26840454 0.29459357 -0.91715521 0
0.0038503401 0.024769295 0.0074008657 0.48699528 0.30393574 -0.81881547 0
-0.040898141 0.031314448 0.0093856631 -0.41496027 0.39006481 -0.82198375 0
-0.034166843 0.033331353 0.0078470418 -0.29535386 0.45186216 -0.84177589 0
-0.024764141 0.035002109 0.0066179931 -0.10684641 0.52538145 -0.84413171 0
-0.015219791 0.035100043 0.0063763652 0.052107606 0.52306473 -0.85069865 0
-0.0053824079 0.034408435 0.0076453234 0.24148491 0.47024873 -0.84885287 0
0.0013982732 0.031830072 0.0089250663 0.50367659 0.39105651 -0.77031463 0
-0.020923024 0.040246282 0.0097497748 -0.07345739 0.60793829 -0.79057896 0
-0.017783221 0.040366679 0.0098126112 0.039628386 0.60277385 -0.79692739 0
-0.041380148 -0.020898407 0.018866768 -0.47002727 -0.65930396 -0.58684987 0
-0.034261752 -0.022539152 0.016747518 -0.27327153 -0.70710486 -0.65216982 0
-0.024447333 -0.024064204 0.015492964 -0.1159258 -0.73431045 -0.66884178 0
-0.015312643 -0.02430186 0.015426449 0.086297974 -0.74237984 -0.66439807 0
-0.0054245037 -0.022981085 0.016676487 0.25380856 -0.7268759 -0.63814771 0
0.0022813403 -0.021171059 0.018566918 0.40518969 -0.65723366 -0.63550383 0
-0.051222499 -0.011560971 0.018952804 -0.64073837 -0.45384648 -0.61925572 0
-0.044503044 -0.014445864 0.015516461 -0.51045835 -0.5313952 -0.67605579 0
-0.036028758 -0.016983848 0.01228783 -0.33598951 -0.58633935 -0.73710048 0
-0.025842179 -0.019148758 0.010741791 -0.13969171 -0.65171075 -0.74549264 0
-0.015084875 -0.019496718 0.010406006 0.034737732 -0.71239644 -0.70091695 0
-0.0042263591 -0.017918292 0.0120475 0.32989052 -0.62218744 -0.70996833 0
0.0048873108 -0.015045909 0.015060446 0.48469841 -0.55206847 -0.67844522 0
0.011583083 -0.012005561 0.017998667 0.63373226 -0.52481461 -0.56828964 0
-0.05338902 -0.0045154309 0.01686991 -0.65496868 -0.33322212 -0.67821741 0
-0.047240406 -0.0059719249 0.012218176 -0.57652247 -0.3417795 -0.74216479 0
0.0078914361 -0.006714161 0.011570216 0.58686703 -0.35289401 -0.72873372 0
0.013358067 -0.0045410655 0.015922815 0.72341919 -0.28151044 -0.6304099 0
-0.05469146 0.0050829705 0.01519364 -0.68940389 -0.13451843 -0.71177739 0
-0.049185775 0.0035733315 0.010599062 -0.59886283 -0.14505112 -0.78760612 0
0.0095905578 0.0010453719 0.01025212 0.60015821 -0.16611181 -0.78244293 0
0.014934666 0.0049343249 0.014881201 0.75977957 -0.11511318 -0.63990927 0
-0.055035859 0.014849193 0.014834395 -0.73432487 0.071736954 -0.67499697 0
-0.049594138 0.017479412 0.010323417 -0.59195888 0.12922578 -0.79554087 0
0.015150608 0.014765723 0.01490877 0.76028037 0.084426984 -0.64408523 0
-0.053654026 0.024383465 0.015925249 -0.71002483 0.28599888 -0.64348227 0
-0.0479226 0.026034253 0.011396239 -0.55714971 0.28442296 -0.78018445 0
0.0083328998 0.026720013 0.011414475 0.62003493 0.33220932 -0.71076971 0
0.013572995 0.024598219 0.015809724 0.71868068 0.28324622 -0.63503522 0
-0.051559951 0.032368269 0.017953843 -0.6848225 0.42308235 -0.59331226 0
-0.045159459 0.034877118 0.014346772 -0.49787486 0.49672863 -0.71090174 0
-0.036129087 0.038005933 0.011622937 -0.31915489 0.57144988 -0.75603259 0
-0.028540945 0.039716169 0.010408349 -0.15105873 0.63185877 -0.76022089 0
-0.011106548 0.039943159 0.010125464 0.079618834 0.61853272 -0.78171492 0
-0.0032366724 0.038483862 0.010991761 0.29515097 0.59229523 -0.74971479 0
0.0056261029 0.035081632 0.014273815 0.57477844 0.48462942 -0.65936643 0
0.011683602 0.032032553 0.018063357 0.65695077 0.44186404 -0.61087793 0
-0.042607993 0.041850932 0.018092239 -0.41483206 0.63864124 -0.64811403 0
-0.034615558 0.043851912 0.016041683 -0.28923911 0.66463274 -0.68891513 0
-0.024830544 0.045248702 0.014687656 -0.073821746 0.69437879 -0.7158131 0
-0.014843317 0.045300443 0.014881049 0.052655146 0.72202533 -0.68986005 0
-0.0054831635 0.044257514 0.01527286 0.21028262 0.70651448 -0.67573553 0
0.0024761714 0.042256285 0.017633876 0.56708127 0.60252655 -0.56158745 0
-0.023617871 0.050245248 0.019661954 -0.065607406 0.80605525 -0.58819276 0
-0.017646281 0.050115388 0.019878091 0.087436423 0.79555678 -0.5995366 0
-0.032932531 -0.030949511 0.027859127 -0.24101561 -0.86486459 -0.44036442 0
-0.024712896 -0.031808689 0.026604341 -0.10191031 -0.87811828 -0.46746403 0
-0.015210659 -0.031932421 0.02636495 0.06495674 -0.87859577 -0.47312796 0
-0.0063459231 -0.031198166 0.027842745 0.25111923 -0.86427158 -0.43585968 0
-0.050839897 -0.021001261 0.02865606 -0.69361037 -0.60347593 -0.39334652 0
-0.044701662 -0.023847284 0.025788845 -0.48513535 -0.70932436 -0.51137334 0
-0.035825171 -0.027459608 0.023803245 -0.32104436 -0.78854197 -0.52453053 0
-0.025832796 -0.028880483 0.021760389 -0.14771233 -0.82477117 -0.54583299 0
-0.014066973 -0.028875733 0.021373285 0.15135418 -0.81211692 -0.56352293 0
-0.0040084622 -0.027720813 0.023383478 0.26483655 -0.80451524 -0.53161711 0
0.0049282745 -0.024274748 0.02507519 0.531865 -0.72156489 -0.44324234 0
0.010947043 -0.021076322 0.028309427 0.69154662 -0.63711125 -0.34037122 0
-0.054306902 -0.014278009 0.025299437 -0.68058461 -0.54353845 -0.49129492 0
-0.047997598 -0.017947512 0.021546973 -0.58356488 -0.58243734 -0.56587881 0
0.0087892581 -0.018438948 0.021644326 0.62206751 -0.60325098 -0.49911946 0
0.014111264 -0.014803374 0.025240887 0.75080281 -0.52420902 -0.40187061 0
-0.06137564 -0.0036182876 0.027489224 -0.87142903 -0.29289493 -0.39347684 0
-0.057963576 -0.0061862329 0.023233069 -0.78107458 -0.35460132 -0.5139848 0
0.018115588 -0.0061826543 0.023741566 0.8130542 -0.34872216 -0.46619275 0
0.02130058 -0.00341609 0.027411649 0.87138039 -0.29836237 -0.38945612 0
-0.062205199 0.0051670247 0.025716696 -0.90433824 -0.084572136 -0.41835377 0
-0.059529055 0.0037569709 0.020920301 -0.87540936 -0.13009596 -0.46554652 0
0.019342309 0.0040102447 0.021184415 0.84209418 -0.15493783 -0.51659632 0
0.022273311 0.00521348 0.025866579 0.86973482 -0.10803983 -0.48154816 0
-0.06208406 0.014686855 0.025648909 -0.89503568 0.11207023 -0.43168429 0
-0.059460651 0.016437754 0.021043876 -0.85709941 0.11861756 -0.5013088 0
0.01941967 0.016830888 0.020740239 0.80478895 0.12460943 -0.58033365 0
0.022384593 0.015016517 0.025827726 0.90140027 0.077032238 -0.42607933 0
-0.061205488 0.023400303 0.027527895 -0.87849784 0.24818613 -0.40822211 0
-0.058348186 0.025814241 0.023291824 -0.83815736 0.30053911 -0.45515764 0
0.018403042 0.026208991 0.022575144 0.7895304 0.29907426 -0.53590703 0
0.021480963 0.024095071 0.026980739 0.87943679 0.23167714 -0.41583246 0
-0.054677706 0.034979213 0.025074158 -0.75854212 0.49005297 -0.42949036 0
-0.049186952 0.038965948 0.020943627 -0.61322212 0.5435915 -0.57312036 0
0.0087587209 0.039324544 0.021032486 0.58539641 0.59496289 -0.55075413 0
0.015157134 0.035022661 0.025188534 0.73395038 0.51899433 -0.43813455 0
0.020326389 0.030716803 0.029451415 0.83266979 0.41754079 -0.36375907 0
-0.051357158 0.041487753 0.027743263 -0.70946801 0.62126577 -0.33269197 0
-0.045283314 0.045148496 0.024757534 -0.53938931 0.71197218 -0.44961631 0
-0.03668398 0.048527479 0.022381051 -0.31525785 0.80021667 -0.51016241 0
-0.028858973 0.049738858 0.020479217 -0.17257337 0.86204684 -0.47654343 0
-0.012270922 0.049702369 0.020225838 0.10019213 0.80841321 -0.58002555 0
-0.0035180114 0.048747126 0.022160273 0.30974874 0.80342561 -0.50849086 0
0.0048606838 0.045414068 0.024990117 0.56045204 0.70784247 -0.42994493 0
0.011355381 0.041439768 0.027500341 0.6590243 0.65427077 -0.37096712 0
-0.040883061 0.050493162 0.028812079 -0.43456784 0.82090628 -0.37049127 0
-0.03419653 0.051828925 0.026857063 -0.24708419 0.86806816 -0.4305892 0
-0.024893556 0.052778535 0.024779432 -0.11525855 0.89367616 -0.4336569 0
-0.015162867 0.052753221 0.024960937 0.095376112 0.89115667 -0.44355741 0
-0.0053458093 0.051872045 0.026539532 0.25358167 0.87526125 -0.4118422 0
0.0010743049 0.0504274 0.028975796 0.45260584 0.80532908 -0.38287473 0
-0.041597422 -0.030775879 0.037006125 -0.44032216 -0.86967689 -0.22311112 0
-0.035240784 -0.033072442 0.035190359 -0.33533019 -0.90882087 -0.24818984 0
-0.025083527 -0.035203829 0.035032559 -0.11100174 -0.96034718 -0.25575748 0
-0.015199293 -0.03543302 0.034919061 0.073290065 -0.96710426 -0.24359369 0
-0.00505157 -0.033283971 0.035142977 0.34571046 -0.91531491 -0.20659861 0
0.0016644769 -0.030668011 0.036911275 0.45607814 -0.86377901 -0.21419248 0
-0.052384455 -0.022396117 0.035473451 -0.69405824 -0.68950444 -0.20704274 0
-0.046052575 -0.027375108 0.03442568 -0.55010694 -0.80027014 -0.2386419 0
-0.039410125 -0.029946003 0.030453179 -0.47384289 -0.84375048 -0.25210732 0
-0.00010850915 -0.029857747 0.030400604 0.43542933 -0.87239081 -0.2221162 0
0.0059279003 -0.027398126 0.034521747 0.5500825 -0.80895197 -0.20737857 0
0.012362228 -0.022359187 0.035779659 0.69943672 -0.68107331 -0.2166274 0
-0.060766831 -0.011425554 0.036370095 -0.88195914 -0.44064286 -0.16727763 0
-0.057068318 -0.01628408 0.034159251 -0.78752625 -0.57643187 -0.2180109 0
0.016875776 -0.016369961 0.034406882 0.78043485 -0.56850559 -0.26023605 0
0.020918179 -0.011425724 0.037211165 0.87460643 -0.44019943 -0.20319486 0
-0.063196726 -0.0051287366 0.035067506 -0.92070228 -0.33395198 -0.20194896 0
0.019796753 -0.009724413 0.03071407 0.80962408 -0.47626019 -0.34305269 0
0.023153033 -0.0050470047 0.034989417 0.90448177 -0.35154468 -0.24151425 0
-0.065515526 0.0050937282 0.034831673 -0.96434051 -0.10446212 -0.24317703 0
0.025811289 0.0051594167 0.03463858 0.96379614 -0.11272011 -0.2416428 0
-0.065527365 0.015106049 0.034895062 -0.96460021 0.099109016 -0.24438474 0
0.025832327 0.014767637 0.034990925 0.96110499 0.096592255 -0.25874138 0
-0.063353576 0.025204375 0.034889154 -0.91643369 0.30476683 -0.25935775 0
0.023991944 0.024941871 0.034839772 0.93915766 0.25691521 -0.22798567 0
-0.060945287 0.031890415 0.035901275 -0.87780744 0.42876554 -0.21357481 0
-0.057702921 0.036688413 0.034685552 -0.80083519 0.54189253 -0.25498116 0
0.017857322 0.036985926 0.03418386 0.77708495 0.55986875 -0.28755158 0
0.02143296 0.032397978 0.0358776 0.85618252 0.47178864 -0.21063484 0
-0.052841522 0.043045711 0.035430279 -0.70362538 0.67094117 -0.23398575 0
-0.047576789 0.047677658 0.033952918 -0.65070534 0.72188753 -0.23550139 0
0.0074847331 0.047909759 0.034257852 0.58956957 0.75984865 -0.27393013 0
0.013164978 0.043304656 0.035436977 0.69479918 0.66967124 -0.26228726 0
-0.042692155 0.051759776 0.035368372 -0.48234481 0.8473208 -0.22224092 0
-0.035094414 0.054667335 0.035074912 -0.26017272 0.93287611 -0.24910323 0
-0.025076795 0.056360587 0.034734357 -0.081953235 0.96590555 -0.24558096 0
-0.015115292 0.056287598 0.035081055 0.083063908 0.96425277 -0.25162849 0
-0.004861264 0.054685358 0.03504584 0.27378318 0.92883778 -0.24960601 0
0.0026788141 0.051758479 0.035711158 0.47945499 0.84744859 -0.22793405 0
-0.042203944 -0.031073591 0.044987913 -0.47379583 -0.87986982 0.036697272 0
-0.035233092 -0.034109011 0.044994984 -0.33921546 -0.94052655 0.018513218 0
-0.025068581 -0.036378261 0.0449095 -0.094858311 -0.99547964 -0.004703152 0
-0.015136505 -0.036324069 0.044792898 0.11465899 -0.99296397 0.029594069 0
-0.0049333381 -0.034091044 0.044730458 0.29507834 -0.95547128 0.0018600749 0
0.0025137472 -0.031284589 0.044941198 0.45164585 -0.89105594 -0.04511511 0
-0.053004302 -0.022940811 0.044926833 -0.71964228 -0.69430035 -0.0078740185 0
-0.04739935 -0.027972624 0.045376766 -0.57565993 -0.81768858 -0.00093229156 0
0.0074447449 -0.028059386 0.044646028 0.59615368 -0.80129987 -0.050192483 0
0.013277181 -0.023265019 0.04509712 0.69015747 -0.72191405 -0.050226919 0
-0.061362922 -0.012351077 0.04504231 -0.86291188 -0.50517279 -0.013548459 0
-0.057734933 -0.0174731 0.045003247 -0.7946437 -0.60697109 -0.011295673 0
0.018169923 -0.017655058 0.044720545 0.79648048 -0.59986871 -0.076001756 0
0.021643735 -0.012622922 0.045074224 0.8688125 -0.48915485 -0.076762222 0
-0.064327002 -0.0051492993 0.044932548 -0.95071763 -0.31003264 -0.0039756484 0
0.024857532 -0.0049895667 0.045277528 0.94510496 -0.32322794 -0.047962289 0
-0.066573165 0.0048242435 0.045011062 -0.99306494 -0.11752189 0.0032854006 0
0.027251624 0.005232451 0.045159917 0.98920923 -0.13589537 -0.054750603 0
-0.066796459 0.015077966 0.04496989 -0.99650401 0.079139046 -0.026770979 0
0.027392028 0.015166149 0.044962667 0.99241906 0.11523454 -0.042726044 0
-0.064826086 0.025158575 0.044977739 -0.96070796 0.27749601 -0.0060048918 0
0.025459072 0.025036814 0.044841409 0.96252221 0.26396304 -0.062246699 0
-0.061598942 0.03332942 0.04515345 -0.89483368 0.44383001 -0.04782968 0
-0.058918066 0.038276318 0.045291588 -0.82001817 0.56970966 -0.054781109 0
0.019056631 0.038609117 0.044536352 0.81544018 0.57539552 -0.063065231 0
0.022075614 0.033761911 0.045198735 0.88087296 0.47033113 -0.053398862 0
-0.053883869 0.043808721 0.04507301 -0.70591462 0.70792902 -0.022824796 0
-0.048578773 0.048725195 0.044914834 -0.64229167 0.76604587 -0.025200745 0
0.0087026665 0.049231593 0.044928014 0.60151851 0.79775971 -0.041891396 0
0.014020199 0.044505719 0.04487088 0.7082473 0.70506191 -0.03568482 0
-0.043645561 0.052457768 0.04501237 -0.55245656 0.83296597 -0.030974466 0
-0.034976292 0.05618998 0.045184098 -0.25709167 0.96536618 -0.044407785 0
-0.02494517 0.057955116 0.045044869 -0.10072374 0.99314082 -0.059380461 0
-0.014618115 0.058005657 0.045038141 0.094417103 0.99286473 -0.072835408 0
-0.0047982167 0.056248609 0.045014422 0.27037245 0.96220434 -0.032582693 0
0.0037917478 0.052587099 0.045030229 0.51761919 0.85445613 -0.044442065 0
-0.041341309 -0.03072438 0.053991854 -0.44753486 -0.88182741 0.14863704 0
-0.034956552 -0.033240903 0.054817215 -0.3329072 -0.92709297 0.17225417 0
-0.025025656 -0.035564799 0.05507417 -0.095870569 -0.9796353 0.17641845 0
-0.014753105 -0.035285842 0.055108044 0.12654425 -0.97709608 0.17108412 0
-0.0046395776 -0.0333017 0.055156924 0.25711015 -0.95354623 0.15698391 0
0.0019570638 -0.031040318 0.054038037 0.4852207 -0.86057824 0.1548095 0
-0.052289985 -0.022600576 0.054628227 -0.70881319 -0.68104649 0.18373781 0
-0.046350088 -0.02747795 0.055119794 -0.54993784 -0.80830991 0.21024621 0
0.0068465369 -0.027606403 0.055815797 0.56476933 -0.8024103 0.19280405 0
0.01294742 -0.02289049 0.054751728 0.67293704 -0.72284257 0.15701705 0
-0.060894806 -0.011512474 0.053939212 -0.86265475 -0.47439483 0.17543173 0
-0.057258934 -0.016526781 0.055480283 -0.79047525 -0.58261186 0.18897693 0
0.017935991 -0.017015964 0.055479214 0.80357033 -0.57410794 0.15708205 0
0.021284875 -0.012269666 0.054324061 0.85534835 -0.49284181 0.15964419 0
-0.063388214 -0.005267208 0.054852977 -0.9257555 -0.33675826 0.17196123 0
0.024373168 -0.0049975743 0.055088528 0.93210143 -0.33605111 0.13511679 0
-0.065864854 0.0050799875 0.054843824 -0.98365796 -0.10972583 0.14274892 0
0.026759079 0.0048220009 0.054928254 0.98037165 -0.12631939 0.15137635 0
-0.065976754 0.014859777 0.055173326 -0.98070723 0.077570423 0.17943321 0
0.026843505 0.015117332 0.054802794 0.98401058 0.11527961 0.13577101 0
-0.06397891 0.025076106 0.054911815 -0.94763237 0.26936018 0.17157519 0
0.02503746 0.024911867 0.055063959 0.95515752 0.24064602 0.17252102 0
-0.061443768 0.03270904 0.054292802 -0.87975067 0.43890911 0.18274993 0
-0.058246046 0.037187736 0.055941589 -0.802324 0.55526578 0.21898872 0
0.018525124 0.0380603 0.055075713 0.80387503 0.5666284 0.18087906 0
0.021847149 0.033053331 0.054652084 0.84448296 0.51061887 0.1616074 0
-0.053314399 0.043579683 0.054762099 -0.71674186 0.67909688 0.15845682 0
-0.048009932 0.048319481 0.055721644 -0.63189244 0.75285441 0.18417977 0
0.0083412845 0.048685309 0.055510961 0.60916197 0.77671558 0.16010816 0
0.013723138 0.043748084 0.054729331 0.71291286 0.68352556 0.15667854 0
-0.043218605 0.052245498 0.054628324 -0.54383701 0.82978851 0.1252687 0
-0.035046004 0.055644494 0.054915015 -0.26350823 0.95430088 0.1409729 0
-0.024799008 0.057506334 0.055173136 -0.10784756 0.9812662 0.15964156 0
-0.015099485 0.057604112 0.055002272 0.097998783 0.98028332 0.17158332 0
-0.0051586558 0.055712622 0.054988824 0.2758981 0.94642818 0.16779158 0
0.0036255559 0.05222464 0.054289803 0.50317883 0.85275501 0.14007145 0
-0.033905558 -0.031417876 0.063049138 -0.31444445 -0.8838923 0.3462069 0
-0.025144083 -0.032551266 0.064975269 -0.099220023 -0.922351 0.37339526 0
-0.014926206 -0.032642297 0.064995557 0.074966341 -0.94395125 0.32145932 0
-0.0058821319 -0.031377558 0.063978538 0.24429452 -0.91910708 0.30913189 0
0.00078694813 -0.030324196 0.060379531 0.48845398 -0.82567495 0.28226519 0
-0.051076159 -0.021265604 0.062178995 -0.66523951 -0.67680275 0.31526873 0
-0.045115344 -0.024661768 0.064716764 -0.53512055 -0.76033843 0.36814588 0
-0.036560301 -0.028495871 0.067027509 -0.38567075 -0.83470267 0.39310241 0
-0.029481843 -0.029999595 0.069494918 -0.22105567 -0.88645995 0.40659955 0
-0.0028697588 -0.029147642 0.068047002 0.29566988 -0.88316995 0.36412939 0
0.005140129 -0.02552758 0.065324225 0.54676878 -0.76856333 0.33219615 0
0.011443243 -0.021566896 0.063240312 0.64785188 -0.70463824 0.28943565 0
-0.054821081 -0.014826191 0.064914495 -0.74603605 -0.53655571 0.39438334 0
-0.049137846 -0.019161543 0.068855219 -0.63240963 -0.61207747 0.47478336 0
0.015900049 -0.015237789 0.065209895 0.75639623 -0.54286343 0.36491641 0
0.020355297 -0.010704923 0.061603155 0.84284776 -0.44775066 0.29854146 0
-0.061574187 -0.0036341895 0.063595884 -0.88008845 -0.30695319 0.36224863 0
-0.058571309 -0.0064234575 0.067427896 -0.81203401 -0.3675369 0.45334026 0
0.019137053 -0.0082367007 0.067987278 0.82187527 -0.42918459 0.3745954 0
0.022306288 -0.0045961179 0.064214528 0.87733597 -0.34679097 0.33168894 0
-0.063064076 0.0051078205 0.064836688 -0.90646309 -0.1204669 0.40473768 0
-0.059812687 0.00098330365 0.06993822 -0.85138023 -0.22341743 0.47459078 0
0.024066459 0.0048937327 0.065121688 0.93245846 -0.1006085 0.34698576 0
-0.063091688 0.014958666 0.065048344 -0.92406356 0.067048781 0.37631246 0
0.02418856 0.014982414 0.065040499 0.92481673 0.090249389 0.36955246 0
-0.06172923 0.024072444 0.064305998 -0.90457475 0.27540547 0.32541716 0
-0.058983482 0.02739384 0.067958787 -0.81962389 0.36729375 0.43967256 0
0.019348396 0.02823627 0.068762213 0.83894807 0.3436062 0.42202005 0
0.022317288 0.0247194 0.064657845 0.89022821 0.29213318 0.34950235 0
-0.060347926 0.030883553 0.060928304 -0.88105875 0.36294913 0.30332056 0
-0.055627726 0.03555483 0.065371811 -0.7670244 0.51078862 0.38828924 0
-0.049980771 0.039579619 0.069842748 -0.64340311 0.57742161 0.50261003 0
0.016633077 0.035600822 0.065559886 0.78233868 0.50587374 0.36337021 0
0.020875195 0.031373117 0.061753884 0.84173715 0.42922449 0.32748276 0
-0.052019991 0.041705918 0.063129738 -0.66353345 0.66039199 0.35157621 0
-0.045817688 0.046048544 0.065688647 -0.60183609 0.69918054 0.38592717 0
-0.038084585 0.049256999 0.069281764 -0.29141054 0.78582764 0.54548597 0
-0.001859681 0.049380735 0.068886027 0.31088743 0.80336797 0.50788683 0
0.0059389598 0.04673136 0.065860637 0.5370571 0.74154401 0.40209702 0
0.012216636 0.042212348 0.06409888 0.67500192 0.66097748 0.32784316 0
-0.041633375 0.05136545 0.062408421 -0.58344412 0.73875964 0.33738306 0
-0.034749381 0.05271538 0.065178975 -0.23669191 0.86725497 0.43800199 0
-0.025112964 0.054517515 0.064973235 -0.096679941 0.91348124 0.39522782 0
-0.014755777 0.054585867 0.065056987 0.080525078 0.92136931 0.38025564 0
-0.0052847513 0.0527694 0.064693876 0.28849426 0.87365478 0.39178875 0
0.0018760365 0.050929815 0.062655903 0.42001924 0.84078652 0.34155795 0
-0.023051383 -0.030369185 0.070420124 -0.066843614 -0.87202322 0.4848789 0
-0.015679687 -0.030503627 0.07077343 0.033883516 -0.88458019 0.46515569 0
-0.042530805 -0.021970846 0.072801486 -0.50926208 -0.7190634 0.47286364 0
-0.034928858 -0.024673602 0.074955352 -0.34213212 -0.76202339 0.54978716 0
-0.024752608 -0.026992757 0.075602159 -0.091424644 -0.8135528 0.57425898 0
-0.01480375 -0.026782932 0.076074623 0.060189232 -0.76772559 0.63794577 0
-0.0049571218 -0.02516211 0.075129226 0.31370494 -0.72489351 0.61328518 0
0.0032167761 -0.022508025 0.072938845 0.48421001 -0.66714197 0.56609392 0
-0.051871561 -0.012620995 0.072433032 -0.69144177 -0.50986034 0.51181132 0
-0.046172351 -0.015913134 0.075941429 -0.60895711 -0.54986638 0.57168019 0
-0.038528625 -0.019332003 0.079432026 -0.34769034 -0.67459822 0.65117484 0
-0.0013513846 -0.019128583 0.079272248 0.34721136 -0.60187614 0.71915883 0
0.005974262 -0.016336255 0.076675154 0.52351928 -0.54546845 0.65451646 0
0.012449306 -0.013388372 0.072883144 0.67355967 -0.50976521 0.53521651 0
-0.054080769 -0.004959519 0.075121917 -0.75382894 -0.32483336 0.57116121 0
-0.049238384 -0.0084565468 0.079155847 -0.6838423 -0.3980827 0.61146539 0
0.009326376 -0.0086127361 0.079288386 0.59507489 -0.38070297 0.70777893 0
0.01524652 -0.0050501963 0.075359501 0.70267814 -0.32219359 0.63437736 0
0.020324877 -0.00163648 0.070809327 0.78621119 -0.25642836 0.56224239 0
-0.060408603 0.0069755535 0.070606671 -0.8482756 -0.08333265 0.52295721 0
-0.05644764 0.0048556468 0.075860545 -0.79705352 -0.12996997 0.58975714 0
0.016998485 0.0045184381 0.076931395 0.72782344 -0.12221698 0.67478597 0
0.021176612 0.0052665421 0.071870178 0.85536015 -0.10659296 0.50694871 0
-0.060450271 0.014412877 0.070776246 -0.85841727 0.040877089 0.51132077 0
-0.056923941 0.015157242 0.075719424 -0.79902679 0.071963906 0.59697354 0
0.017019669 0.015195333 0.076901279 0.73887348 0.089117594 0.66792518 0
0.021065444 0.015116022 0.071595661 0.86165726 0.088062756 0.49979174 0
-0.06017372 0.020670369 0.070227593 -0.79359007 0.17129362 0.58384365 0
-0.055104412 0.025200138 0.074985608 -0.75754505 0.28701916 0.58629811 0
-0.049525283 0.029284891 0.07957764 -0.68946469 0.32918885 0.64519233 0
0.0095662624 0.029071936 0.079594195 0.61418754 0.28551304 0.73570102 0
0.015782626 0.02506475 0.075268254 0.71768087 0.29022437 0.63301188 0
0.020579815 0.021486172 0.070744179 0.81459761 0.25522882 0.52085418 0
-0.052379206 0.033396937 0.073147185 -0.69946682 0.4759919 0.53308344 0
-0.046654023 0.036595736 0.07676141 -0.5989626 0.53209847 0.59842724 0
-0.00059571589 0.039732609 0.07941404 0.37613669 0.65425724 0.65610111 0
0.0062402575 0.036728691 0.077322759 0.49973884 0.54390168 0.67411578 0
0.013065099 0.033799715 0.073361255 0.68675846 0.4559629 0.56609237 0
-0.043304399 0.042713065 0.07379628 -0.52260488 0.65549487 0.54517019 0
-0.035109632 0.045845598 0.075187407 -0.26759946 0.74511558 0.61089551 0
-0.025194161 0.047353543 0.076664738 -0.11936074 0.75912422 0.63990885 0
-0.014484796 0.047296278 0.076841205 0.11544783 0.74274009 0.65955204 0
-0.0046926676 0.045645893 0.075327843 0.30996928 0.72797865 0.61152774 0
0.0033144702 0.042966574 0.073499054 0.44391927 0.66194409 0.60395831 0
0.010214224 0.040413491 0.070222266 0.55286133 0.60612863 0.57179755 0
-0.031555094 0.050560139 0.070582241 -0.22804585 0.80649352 0.54549366 0
-0.024788501 0.051042791 0.071832709 -0.10891496 0.84073341 0.53038162 0
-0.015425218 0.051422633 0.071800113 0.067530774 0.84815544 0.52542537 0
-0.0083122561 0.050449003 0.070848651 0.27997303 0.8128376 0.51079357 0
-0.032080561 -0.020671625 0.081018865 -0.28378895 -0.60233766 0.7460919 0
-0.024970243 -0.021722343 0.081567876 -0.04351807 -0.64141053 0.7659626 0
-0.015062162 -0.021517489 0.081376083 0.076618269 -0.66509974 0.74281347 0
-0.0077136112 -0.020902827 0.0806375 0.24581166 -0.62383991 0.74188966 0
-0.042730581 -0.012451551 0.081826381 -0.4904317 -0.51230246 0.70499855 0
-0.034951258 -0.015201847 0.083941497 -0.29432306 -0.51843286 0.80287069 0
-0.02486161 -0.015200843 0.086199932 -0.091620319 -0.52680677 0.84503275 0
-0.014808917 -0.015230577 0.08627332 0.09341044 -0.53508538 0.83961785 0
-0.0052958829 -0.014783558 0.084148079 0.31085274 -0.51882714 0.79635984 0
0.0029226306 -0.012638518 0.081584804 0.46260589 -0.49056882 0.73847014 0
-0.050669838 -0.0019945519 0.080766298 -0.70683593 -0.25765714 0.65878356 0
-0.044989336 -0.0049458048 0.084181666 -0.51946354 -0.31898209 0.79272187 0
-0.035767976 -0.0061491621 0.08814282 -0.33493397 -0.36228916 0.86980796 0
-0.026596922 -0.0088867648 0.089454502 -0.13036859 -0.42326713 0.89657629 0
-0.01381568 -0.0086708115 0.089505225 0.11801348 -0.37253809 0.92048252 0
-0.0037356296 -0.006170419 0.088273697 0.33108106 -0.36986566 0.86809248 0
0.0049748993 -0.0050319755 0.08412201 0.52196127 -0.31145585 0.79407287 0
0.011022669 -0.0024206364 0.080831379 0.62095666 -0.27214471 0.73508507 0
-0.051673565 0.0056598876 0.081936613 -0.72667921 -0.12944834 0.67467064 0
-0.044966176 0.0049504545 0.086748414 -0.50741678 -0.10928113 0.85474318 0
-0.039211478 0.0034922324 0.089603662 -0.41373119 -0.13932405 0.89967513 0
-0.00090649893 0.0031163818 0.08960104 0.45591003 -0.12796916 0.88077801 0
0.0052671493 0.0050266772 0.086361282 0.52059388 -0.10183413 0.84770977 0
0.012100187 0.005013804 0.081627287 0.62442499 -0.099626884 0.77470505 0
-0.051955793 0.014693095 0.081834853 -0.70871162 0.094338052 0.69916254 0
-0.045177396 0.015036415 0.08675544 -0.51543498 0.073214725 0.85379523 0
-0.039278544 0.016867826 0.089750402 -0.3708066 0.094481349 0.92389166 0
-0.00051495701 0.016997701 0.089614324 0.49089828 0.11999712 0.86291343 0
0.0048321462 0.015066124 0.086650714 0.53205132 0.099575356 0.84083652 0
0.011932938 0.014480268 0.081740543 0.62034827 0.1053655 0.77721691 0
-0.050845429 0.022322554 0.081036113 -0.63407636 0.21189569 0.7436716 0
-0.045295592 0.025044937 0.08461009 -0.54972053 0.26253191 0.79302227 0
-0.03600964 0.026487133 0.088714957 -0.3007192 0.33429825 0.89320362 0
-0.02802752 0.029320868 0.089738004 -0.16551496 0.40091762 0.90103823 0
-0.011173345 0.029598169 0.089743741 0.20972039 0.41705197 0.88435572 0
-0.0035893912 0.026408378 0.088808857 0.33874756 0.29865429 0.89221954 0
0.004929747 0.025311105 0.084378876 0.55255347 0.26013851 0.79184127 0
0.011059956 0.02232188 0.080787413 0.62013388 0.22115435 0.75267833 0
-0.043114021 0.033262469 0.082136929 -0.47827354 0.47881573 0.73619956 0
-0.034914725 0.035288807 0.084554084 -0.27161604 0.51271969 0.81445885 0
-0.02516919 0.034973793 0.087053917 -0.1077807 0.50962001 0.85362208 0
-0.01479027 0.035215151 0.087033436 0.10221025 0.52303982 0.84615749 0
-0.0049618045 0.035235636 0.084748 0.27949804 0.5382576 0.79508466 0
0.0030123235 0.032996263 0.082195699 0.49516925 0.45354459 0.74101597 0
-0.033269834 0.041052204 0.081033133 -0.23166463 0.62660933 0.74410504 0
-0.024699967 0.042321414 0.081925996 -0.10550497 0.64079911 0.76042438 0
-0.015284901 0.042329751 0.082056999 0.08579392 0.65791249 0.74819165 0
-0.0071739163 0.041476909 0.080965258 0.26372951 0.61333388 0.74449193 0
-0.032877151 -0.0021850846 0.090962216 -0.29587564 -0.33329836 0.89519256 0
-0.024740294 -0.0043114303 0.091627434 -0.065749079 -0.33145764 0.94117635 0
-0.015430909 -0.0039705769 0.091502972 0.092411377 -0.32971367 0.93954724 0
-0.0066057988 -0.0020760477 0.090879202 0.24848741 -0.2827999 0.92643303 0
-0.034512628 0.0053401855 0.091572359 -0.29285431 -0.055994079 0.95451611 0
-0.025014982 0.0049879062 0.093277827 -0.09426979 -0.078869887 0.99241757 0
-0.015031124 0.0048067849 0.093447611 0.087718822 -0.12202614 0.98864299 0
-0.0054712272 0.0051528979 0.091526031 0.29996428 -0.069406979 0.95142215 0
-0.034519799 0.015036816 0.091569804 -0.29606923 0.066615112 0.95284075 0
-0.025001433 0.014984418 0.093539648 -0.11942319 0.058855262 0.99109745 0
-0.015020079 0.014816066 0.093740508 0.12110704 0.091305062 0.98843127 0
-0.0053081983 0.015120935 0.091671579 0.29128343 0.050143912 0.95532173 0
-0.032762885 0.022966726 0.090887606 -0.25553939 0.24925144 0.93411636 0
-0.025152814 0.025012933 0.091597177 -0.1035068 0.29861298 0.94874471 0
-0.015062494 0.025027974 0.091776259 0.088356107 0.27098575 0.95851958 0
-0.0067831939 0.022960197 0.090940692 0.24015704 0.25832516 0.93573105 0
-0.021673787 0.030134413 0.090083726 -0.053771242 0.44698909 0.89292186 0
-0.016929256 0.030298389 0.090191364 0.016102143 0.47770834 0.87837094 0
