# .PCD v0.7 - Point Cloud Data file format
VERSION 0.7
FIELDS x y z normal_x normal_y normal_z curvature
SIZE 4 4 4 4 4 4 4
TYPE F F F F F F F
COUNT 1 1 1 1 1 1 1
WIDTH 229
HEIGHT 1
VIEWPOINT 0 0 0 1 0 0 0
POINTS 229
DATA ascii
-0.040691581 -0.060374305 -0.00084902206 -0.33577234 -0.8441689 -0.41789463 0
-0.03503551 -0.061449938 -0.0015998486 -0.17965591 -0.72751456 -0.66215289 0
-0.024896445 -0.06198157 -0.0017857259 0.01385028 -0.64026076 -0.76803279 0
-0.015764365 -0.06126171 -0.0016266613 0.20575723 -0.71936315 -0.66346103 0
-0.0097763687 -0.060171615 -0.0006809234 0.41157714 -0.84013313 -0.35324302 0
-0.052577715 -0.052089773 -0.0016433208 -0.46847972 -0.50705498 -0.72347915 0
-0.045022551 -0.054808162 -0.0019229463 -0.04976533 -0.10745019 -0.99296415 0
-0.034908388 -0.055075385 -0.001457948 0.041634429 0.18459685 -0.9819321 0
-0.024908222 -0.055298753 -0.0013004226 -0.01112671 0.23399588 -0.97217393 0
-0.014859173 -0.054948729 -0.0015660307 -0.042279895 0.13775022 -0.98956424 0
-0.0055776946 -0.054291334 -0.001961255 0.11789623 -0.19325149 -0.97404015 0
0.0016799176 -0.051502384 -0.0016643701 0.5067566 -0.55166572 -0.66246712 0
-0.061252419 -0.04209213 -0.0012487108 -0.67721772 -0.38219047 -0.62873411 0
-0.05500181 -0.044859022 -0.001880465 0.023259003 0.034168597 -0.99914545 0
-0.045016114 -0.045081705 -0.00065770181 0.056506928 0.065047257 -0.99628091 0
-0.035335556 -0.04610274 -0.0004088885 0.037353586 0.11467253 -0.99270087 0
-0.025097203 -0.04659101 -0.00035699719 -0.013911894 0.098093912 -0.99507993 0
-0.014732114 -0.045299388 -0.00048822467 -0.038665824 0.061552495 -0.99735463 0
-0.005054682 -0.045071058 -0.00098979159 -0.088982336 0.083425 -0.99253339 0
0.004627245 -0.044436876 -0.0020432121 0.14950886 -0.10071823 -0.98361725 0
0.010396268 -0.040599037 -0.0012192924 0.84025633 -0.40882725 -0.35613146 0
-0.063119121 -0.034515675 -0.0020543574 -0.36967286 -0.14483827 -0.91780376 0
-0.055110924 -0.03509111 -0.00080023427 0.15927199 0.078773379 -0.98408699 0
-0.04658981 -0.036149859 -0.00031050312 0.087587841 0.056496006 -0.99455345 0
-0.039749309 -0.039775699 -2.6998367e-05 0.067396924 0.08945749 -0.99370772 0
-0.011558088 -0.038193084 -0.00013593263 -0.085741885 0.085386306 -0.99265176 0
-0.0046864231 -0.035258409 -0.00055534404 -0.071195073 0.042114664 -0.99657297 0
0.0048294761 -0.035040367 -0.0013467805 -0.21549153 0.094138689 -0.97195745 0
0.012122926 -0.034424052 -0.0018367179 0.69321537 -0.22793888 -0.6837371 0
-0.064147994 -0.025069207 -0.0018314972 -0.11077519 -0.010561689 -0.99378943 0
-0.055120654 -0.024992889 -0.00047891896 0.070120588 0.0046245917 -0.99752778 0
-0.04879735 -0.02641006 -0.00014623099 0.090727337 0.040342595 -0.9950583 0
-0.0027514668 -0.025531946 -0.00032741486 -0.10896956 0.026944438 -0.99367982 0
0.0053616781 -0.024947098 -0.00097217597 -0.19640963 0.0074675865 -0.98049349 0
0.013126814 -0.024785964 -0.0022902703 0.44604084 -0.04324498 -0.89396733 0
-0.06372337 -0.015275526 -0.0020596143 -0.13175736 0.023144316 -0.99101174 0
-0.055509817 -0.014722425 -0.00059894309 0.093166113 -0.037447419 -0.99494612 0
-0.048138473 -0.012358285 -0.000180581 0.096499443 -0.071659699 -0.99275011 0
-0.0029643332 -0.014469641 -0.00039687703 -0.12403908 -0.045418434 -0.99123728 0
0.0051301382 -0.015151132 -0.0011604381 -0.22018173 -0.030331891 -0.97498721 0
0.012921049 -0.015199323 -0.0021724286 0.51457787 0.10351418 -0.85117233 0
-0.062488217 -0.0057778247 -0.0018210455 -0.59058523 0.27940816 -0.75706029 0
-0.055303007 -0.005045617 -0.0013430229 0.18081589 -0.10608353 -0.97777909 0
-0.045437098 -0.0046636318 -0.00046772364 0.060463861 -0.058943089 -0.99642855 0
-0.035971034 -0.0014740692 -0.0002439534 0.049800634 -0.1321592 -0.9899767 0
-0.024813052 -0.00050386769 -5.6739278e-05 0.0048143486 -0.10306985 -0.99466246 0
-0.013444243 -0.0029547869 -0.00027641028 -0.076564118 -0.097678714 -0.99226844 0
-0.0048627486 -0.0049028392 -0.00061842619 -0.043367721 -0.031568419 -0.99856031 0
0.0053297607 -0.0049248156 -0.0016849367 -0.070017852 -0.034191214 -0.99695969 0
0.01144407 -0.0068772701 -0.0015105068 0.71330065 0.33761427 -0.61418146 0
-0.06054597 0.00059347571 -0.00074975094 -0.78439832 0.46222541 -0.41360238 0
-0.054238647 0.0039982237 -0.0019937449 -0.20049095 0.19590089 -0.9599095 0
-0.045067634 0.0050668353 -0.0012631242 0.11238068 -0.18166561 -0.97691768 0
-0.034962445 0.0050952202 -0.00066192471 0.0098886471 -0.032429628 -0.99942511 0
-0.024877824 0.0050833342 -0.00062517094 0.006276242 -0.032720409 -0.99944484 0
-0.014822626 0.0051324605 -0.00070853182 -0.03610263 -0.080082744 -0.99613422 0
-0.0049598077 0.0051048803 -0.0015175632 -0.1066246 -0.14396438 -0.98382187 0
0.0035890127 0.0037824202 -0.0019164492 0.35682943 0.29384604 -0.886751 0
-0.050674174 0.010691392 -0.00093389908 -0.53917068 0.63721627 -0.55068183 0
-0.044203959 0.012980005 -0.0017541122 -0.24298745 0.52519459 -0.81555367 0
-0.034729179 0.014307546 -0.0018771625 -0.026858598 0.054656915 -0.99814391 0
-0.025017485 0.015143973 -0.0017388326 -0.0013733063 0.083089657 -0.9965412 0
-0.01523324 0.01405759 -0.0020807444 0.029427174 0.15160519 -0.98800296 0
-0.0062022251 0.012401824 -0.0017477706 0.35622463 0.56892765 -0.7412324 0
-0.041862037 -0.060823623 0.0048531471 -0.35753646 -0.93199509 -0.059605539 0
-0.0350997 -0.062787645 0.0050581321 -0.21368726 -0.97569358 -0.048575956 0
-0.025012279 -0.063843042 0.0049779345 0.017656285 -0.99874341 -0.046902679 0
-0.014792368 -0.062279064 0.0051368577 0.2727291 -0.96096385 -0.046554312 0
-0.0092064599 -0.060387764 0.0052081668 0.37979192 -0.924793 -0.022713214 0
-0.053732581 -0.053316586 0.0049619717 -0.67299533 -0.73777908 -0.052530341 0
-0.047064368 -0.058258567 0.0049281665 -0.49714097 -0.86624354 -0.049728129 0
-0.0041884831 -0.057614222 0.0049896464 0.53026503 -0.84672451 -0.043320581 0
0.0026608226 -0.052351251 0.0052363784 0.68288332 -0.72919565 -0.04409099 0
-0.062043313 -0.043190874 0.0053917477 -0.85564274 -0.51529193 -0.048475206 0
-0.05864203 -0.048131078 0.004957167 -0.79281509 -0.60811377 -0.040518906 0
-0.033721592 -0.0415131 0.00015529754 0.031087456 0.093768612 -0.99510849 0
-0.025177069 -0.041622195 0.00015771082 -0.0080767637 0.098944291 -0.99506027 0
-0.018150331 -0.041268632 0.0001121251 -0.032000873 0.097680911 -0.99470317 0
0.0076410947 -0.046567265 0.0048304922 0.81825399 -0.57195103 -0.057727098 0
0.010757027 -0.041443095 0.0052115801 0.89234841 -0.44859767 -0.049743481 0
-0.065648742 -0.035129324 0.0049463739 -0.94932866 -0.31050912 -0.048572224 0
-0.04271251 -0.03329346 0.00040266488 0.089584388 0.076551057 -0.99303305 0
-0.034969397 -0.035078481 0.00055318925 0.027418846 0.061108954 -0.9977544 0
-0.024877029 -0.03531665 0.00062606594 -0.0097476216 0.060881004 -0.99809742 0
-0.015370565 -0.03450577 0.00036738429 -0.058856398 0.053061258 -0.99685526 0
-0.0089712208 -0.031107789 9.3308525e-05 -0.11154051 0.059009559 -0.99200636 0
0.0033881092 -0.0371731 2.2802644e-06 -0.21021748 0.11126578 -0.97130251 0
0.013344299 -0.035386816 0.004702331 0.94007009 -0.33850923 -0.04098434 0
-0.067633696 -0.025216904 0.0051396131 -0.99567407 -0.088215388 -0.029172098 0
-0.050160162 -0.020404417 7.7286095e-06 0.091557153 0.049052045 -0.99459094 0
-0.044114932 -0.024496602 0.00047111502 0.10251103 0.010474572 -0.99467671 0
-0.034821082 -0.025016231 0.001007214 0.014346817 0.014782016 -0.99978781 0
-0.02494478 -0.025168534 0.00097235042 -0.009833172 0.0060295667 -0.99993348 0
-0.014916915 -0.024852881 0.0007107039 -0.069407307 0.016749682 -0.99744779 0
-0.0075806561 -0.02450509 0.00011733404 -0.057265982 0.012237733 -0.99828398 0
0.015550726 -0.024872366 0.0051687164 0.99797225 -0.047658905 -0.042189676 0
-0.067178495 -0.015057258 0.0051213014 -0.98366213 0.17599632 -0.037870497 0
-0.050064228 -0.019719183 8.7691224e-06 0.12458414 -0.034623414 -0.9916048 0
-0.044021223 -0.015429326 0.00030621424 0.077273071 -0.04549437 -0.99597144 0
-0.035230789 -0.015010799 0.00079808052 0.031854142 -0.0501583 -0.99823314 0
-0.024943629 -0.015004075 0.00088166661 -0.00089175929 -0.026926827 -0.99963701 0
-0.014970392 -0.015058259 0.00065328483 -0.05709561 -0.021436274 -0.99813855 0
-0.0077175549 -0.015834225 0.00020559256 -0.067246161 -0.014757256 -0.99762726 0
0.014993185 -0.015042886 0.0050125862 0.98607177 0.15926287 -0.047936141 0
-0.064059876 -0.0051562977 0.0048853122 -0.91227579 0.40652636 -0.049891368 0
-0.041508783 -0.0084173717 0.00010813383 0.068411574 -0.058392197 -0.99594688 0
-0.034730539 -0.0062722946 0.00033295513 0.035589099 -0.075171791 -0.9965353 0
-0.024836551 -0.005461514 0.00035894505 -0.0065175043 -0.079013079 -0.99685222 0
-0.016150361 -0.0066687888 0.00026921334 -0.047979023 -0.091834739 -0.9946177 0
-0.0095653636 -0.0096672401 6.2462277e-05 -0.11793666 -0.1134643 -0.98651749 0
0.0095327701 -0.00059101562 0.004315604 0.84115386 0.5368011 -0.06561055 0
0.012231526 -0.0056687812 0.0049650166 0.9134897 0.40317047 -0.054681879 0
-0.060804214 0.00112376 0.0049678055 -0.8321296 0.55354184 -0.033939522 0
-0.056473412 0.0062977211 0.0049876692 -0.7233336 0.68838131 -0.054033767 0
0.0052005011 0.0052995081 0.0050291819 0.75919998 0.65047693 -0.022252066 0
-0.051480398 0.01105848 0.0056102825 -0.64208317 0.76591098 -0.033309754 0
-0.045019753 0.01502622 0.0050349361 -0.44667852 0.8930909 -0.053544264 0
-0.035394512 0.018426286 0.0048805331 -0.21998084 0.9744823 -0.044638742 0
-0.025121702 0.019448191 0.0050911456 0.02764385 0.99801677 -0.056555212 0
-0.015108422 0.017924553 0.0049482482 0.2733829 0.96067929 -0.04854985 0
-0.0049289223 0.013646884 0.0047673839 0.4876574 0.87015176 -0.070895478 0
0.00038768863 0.010300095 0.0057124081 0.6611734 0.74984473 -0.024138639 0
-0.041890021 -0.060894031 0.0152866 -0.3874293 -0.92189938 -0.00020862259 0
-0.034983035 -0.06293419 0.014852812 -0.21683516 -0.97620666 -0.0017683015 0
-0.024631027 -0.063987985 0.015023425 0.029376179 -0.9995572 -0.0047419937 0
-0.014946898 -0.062465798 0.014895199 0.27548334 -0.96129692 -0.0041484646 0
-0.0091761518 -0.060438875 0.014784812 0.4170157 -0.90889931 6.6602712e-05 0
-0.053820044 -0.053343572 0.015046282 -0.65965337 -0.75146711 0.012436392 0
-0.047100965 -0.058263648 0.015034018 -0.50666559 -0.86213976 0.0022327006 0
-0.003995284 -0.057587657 0.014949559 0.52566946 -0.85067457 -0.0049361596 0
0.0026811503 -0.052515641 0.015089211 0.69120657 -0.72265643 -0.0010792143 0
-0.062033053 -0.043570098 0.015126232 -0.86396062 -0.50355756 0.0013693584 0
-0.058705945 -0.048358936 0.014961756 -0.76964521 -0.63846952 0.0016572908 0
0.0076870471 -0.046766225 0.015060396 0.81091994 -0.58515692 0.00048540678 0
0.010851325 -0.041747782 0.015418136 0.88968229 -0.45640004 -0.01282108 0
-0.065758012 -0.035135161 0.01479674 -0.9498626 -0.31265715 -0.002542608 0
0.013679545 -0.034892026 0.014942939 0.9456138 -0.32523903 -0.0058376878 0
-0.067742027 -0.024937453 0.014708688 -0.99753398 -0.069994017 -0.0051736273 0
0.015686594 -0.024918593 0.014979751 0.99748826 -0.07080736 -0.0018842684 0
-0.06730479 -0.01506646 0.015007403 -0.98574436 0.16818723 -0.0046019936 0
0.015297897 -0.015141435 0.01489673 0.98787224 0.15477653 -0.012351414 0
-0.064043991 -0.0048640766 0.014866551 -0.90905124 0.41668326 0.00098444987 0
0.0097299432 -0.00050125539 0.015330995 0.84796154 0.53002256 -0.006101924 0
0.012313289 -0.0054011173 0.015069206 0.90452659 0.42635313 -0.0073931562 0
-0.060786027 0.0013037904 0.015349734 -0.82234412 0.56894559 0.0071398006 0
-0.056503031 0.0065340339 0.015028941 -0.73192716 0.68138021 -0.0018946024 0
0.0051615485 0.0054047527 0.014960043 0.7551555 0.65551555 -0.0062875394 0
-0.051536251 0.011176056 0.015128733 -0.60480279 0.79626107 -0.013489389 0
-0.045191467 0.015038688 0.014975811 -0.44963124 0.89320755 -0.003464435 0
-0.035161614 0.018567279 0.015089644 -0.21981734 0.97553605 0.0031126474 0
-0.025117693 0.019640211 0.015170049 0.020796554 0.99978375 0.00015062286 0
-0.014992923 0.018041765 0.014979188 0.26926336 0.96306205 -0.0029731202 0
-0.0051328344 0.013984923 0.015002586 0.49139345 0.87093711 0.00099883135 0
0.00045662542 0.010342815 0.015664801 0.65339524 0.75701392 0.0021566022 0
-0.042034432 -0.06093464 0.025533082 -0.38801035 -0.92002434 0.054800838 0
-0.034964453 -0.062627651 0.025952024 -0.21547922 -0.90155524 0.37518921 0
-0.025062958 -0.063399442 0.026096296 0.024932133 -0.86625421 0.49898085 0
-0.014964934 -0.062230989 0.025543071 0.26157585 -0.92412227 0.27852479 0
-0.0089494977 -0.060479853 0.025398199 0.41881859 -0.9076677 0.027026938 0
-0.053510956 -0.053121984 0.02575432 -0.64257371 -0.69405758 0.32462749 0
-0.045787551 -0.056204673 0.026430666 -0.21659909 -0.35962433 0.90760958 0
-0.034940481 -0.054861233 0.026865358 0.0137597 0.072081357 0.99730384 0
-0.025334921 -0.055194475 0.026845016 -0.0036461812 0.093729585 0.99559104 0
-0.014939796 -0.05502668 0.027010078 -0.029924953 0.10621998 0.99389219 0
-0.004714617 -0.056251582 0.026303383 0.29882893 -0.52040231 0.7999267 0
0.0025589222 -0.052549906 0.02540879 0.69479585 -0.69502896 0.18491487 0
-0.062004324 -0.043177996 0.025434544 -0.83234376 -0.51501703 0.20484476 0
-0.056039702 -0.046034474 0.026560906 -0.16479504 -0.1301496 0.97770333 0
-0.045020964 -0.044922717 0.02663075 0.034216173 0.037022922 0.99872851 0
-0.034948319 -0.045182679 0.02644022 0.011319683 0.032448713 0.99940932 0
-0.024963556 -0.044919599 0.026368136 0.0028940935 0.026803862 0.99963647 0
-0.01505297 -0.044875637 0.026422754 -0.018678749 0.029488031 0.9993906 0
-0.0052582403 -0.045172177 0.026744777 -0.03556481 0.040899523 0.99853009 0
0.0060125533 -0.045518413 0.026259659 0.39782116 -0.29003209 0.87041354 0
0.01098252 -0.041672111 0.025688784 0.85879612 -0.49966359 0.11316118 0
-0.064679451 -0.034937214 0.025783828 -0.70348638 -0.21442646 0.67759001 0
-0.054940019 -0.035007212 0.026683731 0.050354715 0.027248178 0.99835962 0
-0.044834543 -0.035225965 0.026343998 0.020783186 0.020303553 0.99957788 0
-0.035140291 -0.035035599 0.026242564 0.0038609398 0.012370209 0.99991608 0
-0.024893371 -0.035166353 0.026219541 0.001228222 0.0075242938 0.99997097 0
-0.014894908 -0.034863744 0.026300542 -0.019331131 0.011342577 0.99974877 0
-0.0050135804 -0.035216369 0.026525712 -0.023432318 0.010367215 0.99967164 0
0.0049756486 -0.034780696 0.026954073 -0.066031314 0.027468691 0.99743944 0
0.013146412 -0.034907989 0.025851717 0.81638122 -0.27143139 0.5097518 0
-0.065899849 -0.024970077 0.025785247 -0.67995954 -0.03447086 0.73243892 0
-0.055162333 -0.025014305 0.026567061 0.050812803 0.0028007848 0.99870431 0
-0.045131128 -0.025163241 0.026254745 0.013802469 0.0021633995 0.99990237 0
-0.034958981 -0.024874158 0.026189771 0.0018473045 0.0015051621 0.9999972 0
-0.025111601 -0.024950108 0.02617516 0.00095342926 0.0011786667 0.99999887 0
-0.015239081 -0.024959486 0.026218735 -0.014123806 5.2624611e-05 0.99990028 0
-0.0047585284 -0.02483462 0.026442464 -0.023375401 0.0034713487 0.99972069 0
0.0050029191 -0.024786048 0.026776636 -0.039352406 0.0088653434 0.99918604 0
0.014708048 -0.025017893 0.025972839 0.77388012 -0.04621353 0.63164377 0
-0.06564939 -0.014957328 0.025952712 -0.68486613 0.12024719 0.71867871 0
-0.055051778 -0.014810009 0.026617246 0.047956601 -0.012816268 0.9987672 0
-0.044979271 -0.015008419 0.026259931 0.012795918 -0.010085544 0.99986732 0
-0.035376471 -0.014909134 0.02618066 0.0039390903 -0.0012670669 0.99999148 0
-0.025105866 -0.014928352 0.02618441 -0.002787444 -0.0027991012 0.99999219 0
-0.015192102 -0.015182587 0.026246069 -0.013835332 -0.0034607053 0.99989831 0
-0.0049828026 -0.015219867 0.026460923 -0.024289431 -0.0079448046 0.99967337 0
0.0047429865 -0.015128372 0.026780304 -0.046007928 -0.014199964 0.99884009 0
0.014288643 -0.015108387 0.02583266 0.81231529 0.13446411 0.56750619 0
-0.063449442 -0.0051686959 0.025844589 -0.80544239 0.36128211 0.46982735 0
-0.055024013 -0.0051784259 0.026807357 0.060871337 -0.038328614 0.99740946 0
-0.045198649 -0.0049871928 0.026493406 0.020125862 -0.023430072 0.99952292 0
-0.034998134 -0.0051520071 0.026317483 0.0081826914 -0.025908897 0.99963087 0
-0.024954746 -0.0050813467 0.026313342 -0.0019871884 -0.024602756 0.9996953 0
-0.014910577 -0.0048111635 0.026383085 -0.014357405 -0.026171394 0.9995544 0
-0.0049590431 -0.0048278472 0.026589535 -0.031949088 -0.015825046 0.99936426 0
0.0054571358 -0.0047562374 0.026982026 -0.066168442 -0.0377132 0.99709553 0
0.012120566 -0.0054945629 0.025305042 0.89385533 0.39803672 0.20637193 0
-0.060797129 0.0011509843 0.025419747 -0.83206969 0.55193174 0.055058304 0
-0.055687256 0.0053057442 0.025990864 -0.54002786 0.4545863 0.70832282 0
-0.045047008 0.004811116 0.026811607 0.046367913 -0.064667955 0.99682897 0
-0.034858063 0.0051872944 0.026595457 0.010945294 -0.052318368 0.9985705 0
-0.025046829 0.0047505656 0.026577964 -0.0075786612 -0.031837791 0.99946427 0
-0.015084709 0.005016746 0.026698362 -0.010725338 -0.030214634 0.99948585 0
-0.004870276 0.0052479659 0.026986834 -0.06631992 -0.092801563 0.99347347 0
0.0046883533 0.0048630335 0.02596063 0.64652228 0.58420342 0.49062744 0
-0.05162495 0.011221944 0.02519699 -0.57486522 0.81276929 0.094530135 0
-0.044616442 0.014453632 0.025893362 -0.38614133 0.74297398 0.54670328 0
-0.034984261 0.016672263 0.026180612 -0.11875772 0.63188499 0.76590997 0
-0.0250441 0.017433725 0.026103666 0.0033561881 0.55267668 0.83338904 0
-0.015069272 0.01646358 0.026348718 0.17245793 0.62021565 0.765239 0
-0.0052018417 0.013461134 0.025770966 0.4652501 0.79185617 0.39560857 0
0.00038061643 0.010312951 0.024825744 0.66109049 0.74991262 0.024297921 0
-0.025723472 0.020119557 0.029025408 -0.01295241 0.99973679 0.018934507 0
-0.019665832 0.020082608 0.029400131 0.19381566 0.98103791 -0.00037984943 0
-0.017050372 0.018812774 0.030010067 0.0378813 0.41054255 0.91105425 0
