# .PCD v0.7 - Point Cloud Data file format
VERSION 0.7
FIELDS x y z normal_x normal_y normal_z curvature
SIZE 4 4 4 4 4 4 4
TYPE F F F F F F F
COUNT 1 1 1 1 1 1 1
WIDTH 647
HEIGHT 1
VIEWPOINT 0 0 0 1 0 0 0
POINTS 647
DATA ascii
-0.041754726 0.087495983 0.047559861 -0.99300396 0.11771768 0.0092548989 0
0.02315966 0.087483622 0.047734682 0.99101478 0.13373439 0.0021916386 0
-0.040871885 0.09235169 0.047361184 -0.97078788 0.23975851 0.0093144327 0
0.022130093 0.092615873 0.047719721 0.96320552 0.26876318 0.0012583542 0
-0.040092289 0.095166326 0.048035536 -0.95910597 0.28300464 0.0049151247 0
-0.039046027 0.097821541 0.047511786 -0.91632462 0.40032068 0.0096274819 0
0.019672139 0.099148422 0.047355473 0.89854455 0.43872964 -0.011581034 0
0.020737741 0.096723743 0.047611315 0.92931587 0.36928073 0.0019446708 0
-0.036532152 0.10240887 0.047632411 -0.82705724 0.56184101 0.017630991 0
-0.03473359 0.10486411 0.047223303 -0.75070429 0.66041166 0.017305339 0
0.017562136 0.10264277 0.047499038 0.82631469 0.56308502 0.011805489 0
-0.032172684 0.10751286 0.047542904 -0.70057935 0.71344846 0.013410872 0
-0.029770942 0.10974865 0.047595676 -0.63581622 0.77154571 0.021330606 0
0.013218571 0.10787753 0.047727019 0.6872167 0.72629654 0.015052143 0
0.015610751 0.10537468 0.047273342 0.78038222 0.62480396 0.024971914 0
-0.027023803 0.11176997 0.047551025 -0.56205481 0.82675648 0.023834435 0
-0.023049876 0.11413081 0.047619831 -0.4498719 0.89309251 0.00099674833 0
0.0035853416 0.11453561 0.047295038 0.43169203 0.901995 0.0068488638 0
0.0073681627 0.11240505 0.047765151 0.53858382 0.84241056 0.016492041 0
0.010489857 0.11024051 0.046549823 0.619973 0.7846061 0.0051620426 0
-0.020696564 0.11520539 0.047762174 -0.3699947 0.92896056 -0.011669205 0
-0.017444374 0.11627793 0.0477174 -0.26910317 0.96308875 -0.006602528 0
-0.012447361 0.11723479 0.047482293 -0.10553539 0.9943527 -0.011177768 0
-0.0074396874 0.11740655 0.047568869 0.056010738 0.99841195 -0.0060366788 0
-0.0025132629 0.11665357 0.047581159 0.22839205 0.97351694 0.010093326 0
0.0013231674 0.11550599 0.048001096 0.36322293 0.93127751 0.028130997 0
-0.022416312 0.054295588 0.052345254 -0.24082701 -0.97056669 0.0016455429 0
-0.017712783 0.053575225 0.052847125 -0.068541691 -0.99723232 -0.028806027 0
-0.01232209 0.053510349 0.052691761 -0.037836377 -0.99746954 -0.060190443 0
-0.0074796681 0.053240694 0.05245547 -0.047104105 -0.9971227 -0.059393119 0
-0.0024841304 0.053423416 0.052404996 0.11755471 -0.99217564 -0.042052891 0
0.0022620605 0.054155655 0.052531116 0.21884573 -0.97507042 -0.036663916 0
0.0052742334 0.054922309 0.05236426 0.2631526 -0.96419466 -0.032854486 0
-0.031936646 0.05858051 0.052516259 -0.59576762 -0.80281442 0.023451846 0
-0.027315775 0.055979177 0.052553989 -0.40151665 -0.91579163 -0.010493071 0
-0.024956727 0.055018201 0.053109992 -0.30193046 -0.95329577 -0.0080679813 0
0.0076235384 0.055826027 0.052410092 0.38944122 -0.9208793 -0.017797709 0
0.012559472 0.058496464 0.052363653 0.55773371 -0.82992798 0.0123566 0
-0.036232449 0.063038617 0.05232029 -0.80887085 -0.58797032 0.0043445542 0
-0.034381878 0.060724169 0.052827727 -0.73541737 -0.67729825 0.020697517 0
0.014858632 0.060189109 0.052711062 0.66755784 -0.74433082 0.018388659 0
0.01709651 0.062573522 0.052380607 0.76443398 -0.64422327 0.024839206 0
-0.038750939 0.067381732 0.052333508 -0.90373355 -0.42794552 -0.011326137 0
0.019419873 0.065773159 0.052378017 0.86869079 -0.49505043 0.017361192 0
0.020778291 0.0685037 0.052644424 0.91605836 -0.40101579 0.0048357141 0
-0.040720958 0.072746068 0.052424289 -0.96547836 -0.25954497 -0.022091858 0
-0.039968476 0.070162199 0.052535862 -0.94464034 -0.32784897 -0.013020293 0
0.022202503 0.072494149 0.052806262 0.96236074 -0.27177525 -4.5909761e-05 0
-0.041705742 0.077554278 0.052388523 -0.99133658 -0.13104503 -0.008882964 0
0.023180895 0.077138752 0.052455854 0.98901558 -0.14690396 -0.016351366 0
-0.041984078 0.08272966 0.05228344 -0.99996924 0.0064015361 0.0045297444 0
0.02350636 0.082471058 0.052545227 0.99976736 0.019657897 -0.0088761393 0
-0.041722968 0.087380715 0.05256727 -0.99289119 0.11891279 0.0051659402 0
0.02318597 0.087395556 0.052413061 0.99202311 0.1260201 -0.003031374 0
-0.04082974 0.092553623 0.052470569 -0.9756341 0.21760952 -0.028003784 0
0.022166353 0.09251719 0.052446399 0.96657807 0.25634974 0.0034205462 0
-0.040096931 0.095334135 0.052359696 -0.96197695 0.27249888 -0.018565834 0
-0.03895472 0.098036468 0.052532285 -0.91005737 0.4137083 -0.025319437 0
0.019622888 0.099332474 0.052358564 0.88951916 0.45687839 0.0042340127 0
0.020737808 0.096915185 0.052732896 0.92378598 0.3824487 -0.018771457 0
-0.036659248 0.10220537 0.052488223 -0.8331157 0.55178732 -0.038066167 0
-0.034776058 0.10470358 0.052037977 -0.76905036 0.63814014 -0.036588021 0
0.017707262 0.10254019 0.0526939 0.84017742 0.54143387 -0.030843977 0
-0.032541282 0.10718814 0.052593235 -0.71203774 0.70066392 -0.045522545 0
-0.029809799 0.10978381 0.052645486 -0.63066208 0.77583301 0.01866902 0
0.012981355 0.10812671 0.052684452 0.67689502 0.73596048 -0.013240685 0
0.015497112 0.10564636 0.052377466 0.76563406 0.6417014 -0.044987466 0
-0.027145846 0.1117512 0.052330635 -0.57238424 0.81899709 -0.040250011 0
-0.02317005 0.11410904 0.052626476 -0.44009537 0.89778697 -0.017167993 0
0.0038029957 0.11445335 0.051833201 0.44695085 0.89428365 -0.022173923 0
0.0075286729 0.11231068 0.052430317 0.54333544 0.83889091 -0.032382965 0
0.010416039 0.1102939 0.05250565 0.60378909 0.79704636 -0.012479606 0
-0.020617258 0.11528293 0.052246928 -0.35823387 0.93361652 -0.0053610541 0
-0.017401583 0.11630961 0.052450851 -0.2661213 0.96393782 0.0018279433 0
-0.012478922 0.11725904 0.052674893 -0.12017014 0.99275219 0.00147912 0
-0.0076589175 0.11745596 0.052505318 0.039143 0.99921185 -0.0065951985 0
-0.0022917497 0.11662584 0.05245655 0.25865796 0.96570402 -0.022624226 0
0.0011693432 0.11565009 0.052701931 0.34429464 0.93870002 -0.017421087 0
-0.022637868 0.054356705 0.057445746 -0.25242528 -0.96760625 -0.0044341749 0
-0.017827505 0.053460583 0.057178091 -0.097482711 -0.99509102 -0.017061038 0
-0.012224266 0.053217571 0.057642862 -0.045414645 -0.99696964 -0.063159086 0
-0.0077393414 0.05298648 0.057128206 -0.033917341 -0.99790889 -0.055022001 0
-0.0024910585 0.053313408 0.057547491 0.1022223 -0.99432898 -0.029333655 0
0.0023499879 0.054011207 0.057711333 0.20168599 -0.97845709 -0.044098016 0
0.0052842675 0.054831408 0.057455517 0.31394845 -0.94919795 -0.021436984 0
-0.031700049 0.058614347 0.057814308 -0.59281516 -0.80462176 0.033969462 0
-0.027324477 0.056002688 0.05750002 -0.41640458 -0.90916383 0.0053351009 0
-0.024959415 0.055025578 0.056643229 -0.31943011 -0.94753492 -0.011913722 0
0.0079228692 0.05588869 0.057215784 0.40922415 -0.91240394 -0.0073920889 0
0.012469658 0.05845882 0.057727974 0.57014161 -0.8214854 0.010014177 0
-0.036314048 0.063254625 0.057691127 -0.80390924 -0.59457064 0.014685469 0
-0.034292959 0.060824327 0.05744689 -0.7176457 -0.69579148 0.029307904 0
0.014775316 0.060239542 0.057247687 0.70483965 -0.70933813 0.0063575231 0
0.016964095 0.062607139 0.057936646 0.76134896 -0.64811844 0.017036002 0
-0.038841207 0.06745249 0.057556279 -0.90034497 -0.43515584 -0.004296843 0
0.019475192 0.066057071 0.057631809 0.86905193 -0.49451485 0.014277892 0
0.020727521 0.068487205 0.057441894 0.90685344 -0.42140022 0.0062139933 0
-0.040768281 0.072533697 0.057920281 -0.96176189 -0.27361268 -0.012254404 0
-0.039980344 0.07002306 0.056503084 -0.92635441 -0.37640175 -0.013754117 0
0.022221664 0.072421007 0.057683751 0.95657909 -0.29143032 -0.0049811457 0
-0.041754961 0.077551603 0.05749296 -0.99405926 -0.10839951 -0.0097840456 0
0.023294516 0.077486262 0.057704329 0.9914819 -0.1295545 -0.013392865 0
-0.042012241 0.08243566 0.057535838 -0.99983251 0.0032065089 -0.018017547 0
0.023557007 0.082625091 0.057360671 0.99991918 0.012268782 -0.0033482194 0
-0.041677538 0.087576844 0.057608444 -0.99392134 0.11007234 -0.0021388561 0
0.023161316 0.087705888 0.057776771 0.99063629 0.13652331 -0.0011412213 0
-0.040828425 0.092730068 0.057575379 -0.9709419 0.23875549 -0.016360978 0
0.022185313 0.092450075 0.057767749 0.9652465 0.26074168 -0.017690185 0
-0.040101551 0.095293812 0.056879908 -0.94378734 0.33001953 -0.018773301 0
-0.039145652 0.097656891 0.057572119 -0.91420281 0.40477598 0.019738993 0
0.019635284 0.099490106 0.058003012 0.8506875 0.52567172 -0.00017399687 0
0.020790352 0.096926063 0.057419844 0.93719786 0.34802398 -0.023230555 0
-0.036553528 0.10230199 0.057537451 -0.83221805 0.5543415 0.010895638 0
-0.03484932 0.10478581 0.057129998 -0.80669892 0.59090531 -0.0082290005 0
0.017957691 0.10220926 0.05738439 0.84443253 0.53559911 0.0082027717 0
-0.032445647 0.1074324 0.057573684 -0.71186924 0.70230645 -0.002789642 0
-0.029750332 0.10990231 0.057575513 -0.63146538 0.77481335 0.030260339 0
0.01319252 0.10794147 0.057534281 0.68250674 0.73087817 0.0012709863 0
0.015510406 0.10560641 0.057625227 0.75622475 0.6542266 0.010574133 0
-0.027177006 0.11176649 0.057250559 -0.56252539 0.82676667 -0.0046936949 0
-0.023315169 0.11409887 0.057713024 -0.45634663 0.88978887 -0.0048440341 0
0.0038814396 0.11450616 0.057337176 0.43644801 0.89972818 0.0015728232 0
0.0075948546 0.11236266 0.057146877 0.55343485 0.83289254 0.00014880893 0
0.0102626 0.1104479 0.05731681 0.6594575 0.75173515 -0.003185444 0
-0.020635631 0.11532003 0.057688508 -0.35913327 0.93327314 -0.0049597695 0
-0.017400401 0.11632366 0.057452451 -0.25793859 0.96613473 -0.0071629398 0
-0.012847526 0.11720327 0.057068475 -0.1122179 0.9936834 0.00058682531 0
-0.007463607 0.1174688 0.057272092 0.035507757 0.99936807 -0.001600806 0
-0.0025733325 0.11675213 0.057781532 0.20972431 0.9777379 -0.006650514 0
0.0015250081 0.11555275 0.057798639 0.36289018 0.9318198 0.0047555314 0
-0.022450682 0.054283548 0.062420167 -0.2433181 -0.96992505 -0.0064548468 0
-0.017717009 0.053430241 0.062445935 -0.12521917 -0.99185526 -0.023308871 0
-0.012609312 0.052949019 0.062653698 -0.082634293 -0.99504864 -0.055224963 0
-0.0073669571 0.052656215 0.062701397 0.0034855667 -0.99697375 -0.077660747 0
-0.0025249026 0.053072471 0.062389635 0.12973712 -0.98713028 -0.093499713 0
0.0023616343 0.053861521 0.062293727 0.24627779 -0.96877611 -0.028636787 0
0.0054511465 0.054789629 0.062476188 0.37566388 -0.92640477 -0.025512684 0
-0.03167728 0.058761548 0.062569499 -0.60481477 -0.79598916 0.024500685 0
-0.027571164 0.056186773 0.0627378 -0.45335311 -0.89121997 0.014071763 0
-0.024967413 0.055010445 0.063096203 -0.34031266 -0.94031143 0.0012675226 0
0.0080717579 0.055955075 0.06241665 0.44011477 -0.89793801 0.0025168124 0
0.012055957 0.058320567 0.06249604 0.57460147 -0.81815457 0.021358613 0
-0.036416605 0.063503362 0.062417902 -0.79532301 -0.60586143 0.019826597 0
-0.03409107 0.060817912 0.062386598 -0.71037328 -0.70327258 0.02788537 0
0.014688435 0.06028042 0.061843526 0.64807063 -0.76151443 -0.010013101 0
0.017158067 0.062951706 0.062440626 0.77364922 -0.63348728 0.01267916 0
-0.03898767 0.067761064 0.062371153 -0.89900607 -0.43792999 0.0023369947 0
0.019405166 0.066092402 0.062578246 0.85690498 -0.51406759 0.038057439 0
0.020649737 0.068414189 0.062519304 0.89831698 -0.43861103 0.02543602 0
-0.040811289 0.072637692 0.062610157 -0.96325457 -0.26856974 -0.0033102762 0
0.022273498 0.072598994 0.062653296 0.95639503 -0.29205963 -0.0031349175 0
-0.041767415 0.077346981 0.062546618 -0.99082613 -0.13500999 0.0059964848 0
0.023352699 0.077298768 0.062804624 0.99090326 -0.13281523 -0.021698806 0
-0.042065043 0.082950808 0.062509485 -0.99950945 0.029369552 -0.010880316 0
0.023638725 0.082505755 0.062512867 0.99975359 0.010884946 -0.019348728 0
-0.041701026 0.087635562 0.062520295 -0.99352258 0.11279329 -0.013802186 0
0.023239508 0.087661788 0.062509984 0.98993927 0.13517691 -0.041802231 0
-0.040884938 0.092551649 0.062229872 -0.97166169 0.23637597 -6.5828572e-05 0
0.022249635 0.092435807 0.06220717 0.96241957 0.27154851 -0.0031640434 0
-0.040120043 0.095183522 0.062626496 -0.94296134 0.33289492 0.0022098143 0
-0.039088201 0.097715281 0.062353488 -0.90239441 0.43036905 -0.021604225 0
0.019649291 0.099404246 0.062353652 0.85179663 0.52385551 -0.0042309822 0
0.020676531 0.09716931 0.06248071 0.92558467 0.37806946 0.018880207 0
-0.036523163 0.10233781 0.06253022 -0.84484839 0.5350033 0.0016130859 0
-0.034857295 0.10477777 0.062322896 -0.79231715 0.61010891 0.00078974164 0
0.017803052 0.10245009 0.062648937 0.84153408 0.54011041 -0.010059372 0
-0.032367446 0.10751145 0.062521078 -0.70062631 0.71350735 0.0054897778 0
-0.029819949 0.1098028 0.062320255 -0.68761772 0.72552723 0.028144155 0
0.01313716 0.10802035 0.062761821 0.68271881 0.73065168 -0.0065787728 0
0.015545507 0.10557019 0.061909702 0.74706852 0.6644752 -0.019010929 0
-0.027336916 0.11167722 0.062383603 -0.56881136 0.82245797 0.0040644645 0
-0.023188176 0.11417965 0.062152367 -0.4446353 0.89571011 -0.0016473819 0
0.0040282975 0.11446147 0.062072862 0.43545347 0.89990532 -0.023466272 0
0.0076235752 0.11237603 0.062678732 0.55765587 0.82985544 -0.01896891 0
0.010354212 0.11036142 0.062766299 0.60412782 0.79675186 -0.014693151 0
-0.020757373 0.11528487 0.062145423 -0.35480613 0.93467247 0.022359712 0
-0.017440669 0.11632618 0.062565334 -0.26651618 0.96380991 -0.0062850276 0
-0.012456089 0.11731591 0.062702417 -0.10957543 0.99381673 -0.017929396 0
-0.0073875869 0.11745708 0.062438231 0.055877004 0.99842221 -0.0055448166 0
-0.0024900918 0.11673718 0.062671207 0.22769389 0.97373235 0.00096701324 0
0.0017937523 0.11545221 0.062534161 0.35334286 0.93546772 -0.0069962679 0
-0.022494577 0.054263968 0.067515954 -0.25996369 -0.96552557 -0.013386692 0
-0.017270569 0.053220119 0.067337342 -0.14438096 -0.98923665 -0.023770761 0
-0.012575299 0.052667126 0.067422159 -0.10588802 -0.99228758 -0.064444162 0
-0.0076142764 0.05233629 0.06763228 0.010348815 -0.99794447 -0.063243411 0
-0.0026442746 0.052824296 0.067642488 0.16046977 -0.98651785 -0.032123879 0
0.0023341372 0.053736363 0.067360036 0.26796123 -0.9634192 -0.0044992981 0
0.0056771697 0.054793347 0.068244785 0.37772286 -0.9258526 -0.011066617 0
-0.031592026 0.058824454 0.067070298 -0.60464776 -0.79624641 0.019815907 0
-0.027584717 0.056277324 0.067215689 -0.46696362 -0.88396043 0.023643157 0
-0.024956856 0.055012748 0.067056969 -0.35285708 -0.93561184 0.011060582 0
0.0081531554 0.05600448 0.067416623 0.47117361 -0.88203794 -0.0021095867 0
0.012515984 0.058684107 0.067295417 0.58706516 -0.80949926 0.0080966763 0
-0.036282595 0.063473746 0.067481086 -0.78746086 -0.61605102 0.019658988 0
-0.033884361 0.060792349 0.067731313 -0.70256907 -0.71122247 0.023650095 0
0.014639101 0.060327642 0.067031018 0.67247766 -0.74005014 0.0099761738 0
0.016884003 0.062734701 0.067229435 0.76317018 -0.6451472 0.036829256 0
-0.040012591 0.069970109 0.065619156 -0.91577774 -0.40168542 4.3290889e-05 0
-0.038828012 0.067516431 0.067626543 -0.88974571 -0.45632651 0.010892736 0
0.019328589 0.066146895 0.067422293 0.85734367 -0.51473552 -0.0030369747 0
0.020783465 0.068827271 0.067486852 0.90054488 -0.43476069 0.001451376 0
-0.04065948 0.072087139 0.067443565 -0.95949525 -0.28166673 0.0057197069 0
0.022173326 0.072324097 0.067259349 0.94983226 -0.31249365 0.012896759 0
-0.041803479 0.07759922 0.067396253 -0.98975605 -0.14261393 -0.0066488041 0
0.023339521 0.077392444 0.067661181 0.98979294 -0.14250609 -0.0014100298 0
-0.042120058 0.082449086 0.067551076 -0.99981987 0.018907368 -0.0016469355 0
0.023769254 0.082500085 0.067563802 0.99965972 -0.012121346 -0.023095308 0
-0.041746795 0.0876249 0.067695059 -0.99209344 0.12549673 0.001108835 0
0.023367802 0.087661527 0.067255288 0.98936278 0.1444698 -0.017022343 0
-0.0408924 0.092471518 0.067693174 -0.97460896 0.22379319 -0.0073430319 0
0.022291716 0.092436545 0.067630209 0.96179092 0.27377951 0.001732223 0
-0.040090427 0.095249236 0.067195602 -0.94353622 0.33125207 0.0033979272 0
-0.039036512 0.097750723 0.067534924 -0.90655077 0.42208752 0.002815088 0
0.019622209 0.09955623 0.066908546 0.86235625 0.50617361 -0.011401376 0
0.020768944 0.097022109 0.067591593 0.92110413 0.38927728 -0.0055119013 0
-0.036506016 0.10234252 0.067403615 -0.84235173 0.53890413 -0.005093588 0
-0.034925263 0.10476051 0.066579863 -0.82646662 0.55960441 0.061610691 0
0.017830063 0.10254305 0.067538358 0.84037477 0.54183531 -0.013590768 0
-0.032332752 0.10746734 0.06742724 -0.69094062 0.72286171 0.0084879491 0
-0.029749798 0.10978997 0.066987962 -0.64355934 0.76526874 -0.013972181 0
0.01307963 0.10809279 0.067139275 0.69358689 0.72032851 0.0080003422 0
0.01552345 0.10566115 0.066763833 0.72126877 0.69239104 0.019129504 0
-0.027423691 0.11160068 0.067382298 -0.5892542 0.80793816 -0.0039308732 0
-0.023143183 0.11418806 0.067205578 -0.43554541 0.90013975 0.0069734934 0
0.0042196936 0.11436877 0.067763865 0.43464082 0.90057206 0.0075737531 0
0.007497387 0.11250205 0.067443557 0.53950739 0.84175736 -0.019399654 0
0.010526201 0.11041632 0.067696244 0.6228767 0.78139156 -0.038102441 0
-0.020677207 0.11530027 0.067410074 -0.37639463 0.92644107 -0.0058252164 0
-0.017945701 0.11619431 0.067509182 -0.28314108 0.95906192 0.0055991393 0
-0.012730409 0.11725937 0.067488402 -0.10172053 0.99472314 0.013374519 0
-0.0074735908 0.11744431 0.067468368 0.039650217 0.99910998 0.014392943 0
-0.0025005525 0.11673398 0.06738691 0.23934361 0.97093427 0.0011431158 0
0.0015373738 0.11551572 0.067348935 0.34787619 0.93752974 0.0044841478 0
-0.022032049 0.054063894 0.072500817 -0.2927241 -0.95619678 0.00053779501 0
-0.017175041 0.052970719 0.07245589 -0.16732131 -0.98505294 -0.040917393 0
-0.012473647 0.052302167 0.072593428 -0.11077674 -0.99171734 -0.065002404 0
-0.0072387676 0.052006695 0.072716594 0.056020133 -0.99596828 -0.070062891 0
-0.002755475 0.05263719 0.072291091 0.19769841 -0.97958273 -0.036509663 0
0.0027055941 0.053760864 0.072276026 0.28290549 -0.95885581 -0.023664886 0
0.0055501144 0.054690089 0.071960792 0.37574551 -0.926714 -0.0040463721 0
-0.031325888 0.058779195 0.07274472 -0.60745925 -0.79415053 0.017837014 0
-0.027507594 0.056405887 0.07234282 -0.46888968 -0.88299143 0.021647841 0
-0.02483616 0.055094533 0.07349731 -0.41753295 -0.90847951 0.01819811 0
0.0080707548 0.055907153 0.072401226 0.4721486 -0.88150543 0.0048912084 0
0.0120822 0.058499973 0.07258074 0.5893141 -0.80781281 0.012136639 0
-0.036159832 0.063447118 0.072193898 -0.78442222 -0.61991674 0.019619917 0
-0.034114003 0.061191544 0.072436832 -0.70118827 -0.71251482 0.025642289 0
0.014542369 0.060392577 0.072288975 0.66094887 -0.74991041 0.027946219 0
0.016842591 0.062882364 0.072640367 0.77262276 -0.63460124 0.018311547 0
-0.038792066 0.067586809 0.072551712 -0.88893598 -0.45787531 0.011961077 0
0.01926749 0.066171899 0.072559118 0.83725417 -0.54678369 0.0057569244 0
0.020663066 0.068718173 0.072597921 0.90240777 -0.4306919 0.012834653 0
-0.040774468 0.0726154 0.072538257 -0.96023518 -0.27902171 0.0097633433 0
-0.039963149 0.070101887 0.073206946 -0.93339634 -0.35884628 0.00081924163 0
0.022235477 0.072703108 0.072293758 0.95528603 -0.29534003 0.014245281 0
-0.041793816 0.077318788 0.072542891 -0.98941541 -0.14501344 0.0053243381 0
0.023367403 0.077669837 0.07257811 0.98733282 -0.15861882 0.0037374843 0
-0.042142056 0.082507618 0.072484866 -0.99998146 0.0030218449 -0.0052817832 0
0.023772286 0.082498826 0.072433569 0.9995169 -0.0093561402 0.029636303 0
-0.041771609 0.087664343 0.072530016 -0.99053854 0.13700446 -0.0079393182 0
0.023398537 0.087429091 0.072252318 0.98842734 0.1514525 -0.0085780723 0
-0.040979467 0.09220998 0.072334535 -0.97336984 0.22864524 -0.016511258 0
0.022285569 0.092772856 0.072584085 0.95967448 0.28089839 0.010992925 0
-0.040081736 0.095234089 0.072568387 -0.93356317 0.35814664 -0.013810787 0
-0.038941715 0.097950347 0.072471909 -0.90321845 0.42917737 0.0018217345 0
0.019743554 0.099426478 0.072749212 0.878362 0.47783947 0.01222444 0
0.020805942 0.097095184 0.072565101 0.92963517 0.36847442 -0.0022318931 0
-0.036573522 0.10227904 0.072406381 -0.84825712 0.52813035 -0.039219368 0
-0.034896549 0.10481432 0.072477378 -0.7974214 0.60124791 -0.05118617 0
0.017880447 0.10250267 0.072592743 0.82809901 0.56054854 -0.0061203642 0
-0.032486364 0.10727855 0.072601035 -0.69789529 0.71619946 0.00069608522 0
-0.029848307 0.10971266 0.072263047 -0.6981802 0.71581376 -0.01245579 0
0.013152462 0.10810298 0.072680846 0.70803314 0.70535147 -0.03418047 0
0.015535498 0.10557717 0.072677329 0.72163844 0.68979776 0.058454096 0
-0.027271667 0.11175545 0.072441176 -0.5696829 0.82153004 -0.023449128 0
-0.02333324 0.11411876 0.072456442 -0.44805062 0.89373779 -0.021986386 0
0.0040125456 0.11452831 0.072339468 0.43643165 0.8997215 -0.0053529353 0
0.0077020698 0.11246718 0.072662063 0.53173661 0.84673649 -0.017131248 0
0.010596584 0.11047688 0.073279656 0.6203568 0.78428137 0.0077542826 0
-0.020777402 0.11526303 0.071700782 -0.3506839 0.93626392 -0.020753006 0
-0.017432341 0.11636406 0.072499529 -0.26270011 0.96466178 -0.020404814 0
-0.012087495 0.11732462 0.072307162 -0.073405102 0.99724334 -0.010842264 0
-0.0075338245 0.11740092 0.072686769 0.035589553 0.99936634 -0.00056172308 0
-0.0024475232 0.11672442 0.072506234 0.21805598 0.97588444 -0.01005539 0
0.0014678361 0.11559986 0.072293848 0.33231393 0.94256818 -0.033654962 0
-0.022340741 0.05424108 0.077610828 -0.34164378 -0.93982935 -0.00064301142 0
-0.017313212 0.052794609 0.077543147 -0.21463373 -0.97641999 -0.023161819 0
-0.012250474 0.051968127 0.077597193 -0.10570437 -0.99234378 -0.063877717 0
-0.0076545803 0.051812012 0.077598602 -0.017283225 -0.99976331 -0.013214493 0
-0.002385153 0.052422848 0.077554934 0.2776908 -0.96010536 -0.032946412 0
0.0024651547 0.053583439 0.077394307 0.32470852 -0.94476831 -0.044466794 0
0.0055625713 0.054670874 0.077802457 0.39493069 -0.91869116 0.0060183909 0
-0.031132892 0.058710538 0.077699363 -0.58689392 -0.80957228 0.012176814 0
-0.027578922 0.056543589 0.077724114 -0.46827719 -0.88331747 0.021602221 0
-0.024795303 0.055175345 0.0773803 -0.38579136 -0.92229074 -0.023341805 0
0.0081590107 0.055958521 0.077693202 0.48020893 -0.87714869 -0.0030874379 0
0.011772568 0.05828537 0.077467509 0.58876556 -0.80816281 -0.015103108 0
-0.036201995 0.06368345 0.077668674 -0.78434569 -0.62031955 0.0023643551 0
-0.033948518 0.061171822 0.077203996 -0.70125771 -0.7127648 0.014284813 0
0.014551352 0.06051426 0.076787494 0.68057829 -0.7319032 0.033629045 0
0.016812179 0.063005358 0.077625051 0.76732308 -0.64117217 0.010655008 0
-0.038685616 0.067591719 0.077726886 -0.88402456 -0.46707374 0.018514112 0
0.019279191 0.066324055 0.077665508 0.85994947 -0.51014811 0.015356346 0
0.020689653 0.068879016 0.077536762 0.8891713 -0.45757449 9.6315205e-05 0
-0.040802214 0.072828576 0.077478223 -0.95880193 -0.28407368 -0.0010496521 0
-0.039938398 0.070243426 0.077432685 -0.95619953 -0.29161942 0.02531025 0
0.022160567 0.072653741 0.077408299 0.95458257 -0.29774365 -0.010993022 0
-0.041868884 0.077411234 0.07728412 -0.98784256 -0.15306604 -0.02716325 0
0.023395514 0.077597469 0.077557273 0.98462653 -0.17452368 0.0072165509 0
-0.042210855 0.082480796 0.077486061 -0.99985915 -0.0049228366 -0.016049033 0
0.023781784 0.082861327 0.077363633 0.99975604 0.022018084 0.0017675514 0
-0.041841775 0.087637842 0.077349767 -0.98990911 0.14124882 -0.011348004 0
0.023452232 0.087315023 0.077448741 0.99315679 0.1156142 -0.016522901 0
-0.041006826 0.092181951 0.077295467 -0.96676087 0.25566843 0.0026541397 0
0.022422239 0.092533067 0.077558398 0.96411818 0.26514536 -0.013191437 0
-0.040100474 0.095167793 0.076925956 -0.93308866 0.35871476 0.025870951 0
-0.038962815 0.097942121 0.077487849 -0.92099333 0.38954452 0.0051245857 0
0.019696577 0.099522099 0.077872001 0.85829401 0.51315302 0.0023347447 0
0.020863395 0.097092561 0.07756912 0.91916966 0.39357868 -0.0149338 0
-0.036526833 0.10239492 0.077495664 -0.83511835 0.54928792 0.029327169 0
-0.034863815 0.1046901 0.077673651 -0.77512962 0.63096195 0.032575596 0
0.017618719 0.10275976 0.077725962 0.80569601 0.59229338 0.0065128887 0
-0.032421242 0.10741311 0.07735467 -0.71298105 0.70117193 0.0040002377 0
-0.029838424 0.10982035 0.078191511 -0.66531277 0.7463243 0.01894802 0
0.01315347 0.1081953 0.077561833 0.69136375 0.72162372 0.035714593 0
0.01544073 0.10558482 0.077581897 0.82547003 0.56321317 -0.037284084 0
-0.027197724 0.11182013 0.077554241 -0.56043595 0.82819635 0.001526829 0
-0.023033865 0.11423492 0.077688523 -0.44047156 0.89715689 0.033081088 0
0.0042534946 0.11437468 0.0776783 0.40944296 0.91232002 -0.0053528626 0
0.0076410067 0.1124308 0.07745339 0.55191785 0.83381003 0.012148207 0
0.010605838 0.11037766 0.077175736 0.59643459 0.80253768 0.014108941 0
-0.020950351 0.11524941 0.077293642 -0.37300342 0.92750555 0.024531746 0
-0.017290467 0.11638526 0.077338308 -0.27285993 0.96153998 0.031437192 0
-0.012438314 0.11725036 0.07756862 -0.07810194 0.99673676 0.020393644 0
-0.0074089118 0.11733194 0.077525832 0.060019046 0.99819589 -0.0016250357 0
-0.0025997444 0.11669838 0.077409618 0.20499408 0.97851324 0.022118915 0
0.0013438577 0.11560339 0.07757245 0.33691883 0.9414804 0.010023469 0
-0.022091156 0.054086585 0.082541518 -0.33438072 -0.94242805 -0.0043587182 0
-0.017606098 0.052775409 0.082218334 -0.23876224 -0.9708119 -0.022734171 0
-0.012479417 0.051748578 0.082366824 -0.13515696 -0.99000978 -0.040164828 0
-0.0074339188 0.051572066 0.082418345 -0.007443218 -0.99785298 -0.065069027 0
-0.002617362 0.052234523 0.082419097 0.20499523 -0.97821945 -0.03261324 0
0.0026142483 0.05349426 0.082536504 0.31646299 -0.9484517 -0.01704588 0
0.0057717822 0.054743487 0.082382411 0.40822849 -0.91287613 -0.0025830125 0
-0.031399287 0.059073452 0.08278954 -0.60016227 -0.7990424 0.036557835 0
-0.027655333 0.056658186 0.082362503 -0.49486244 -0.86892146 0.0093130236 0
-0.024721574 0.055113044 0.081947848 -0.42488548 -0.90524662 -0.00093709852 0
0.0080334283 0.055891983 0.082338803 0.4879376 -0.87287563 -0.0022194008 0
0.011903522 0.058440868 0.082442671 0.60749274 -0.79418159 0.015102646 0
-0.036042567 0.063634329 0.082748301 -0.78438687 -0.61932468 0.034266803 0
-0.033780791 0.061112795 0.082472295 -0.69952255 -0.71421194 0.023862425 0
0.014417564 0.06055769 0.082654282 0.70066047 -0.71321815 0.01986856 0
0.016643237 0.062947407 0.082557462 0.75693679 -0.65288007 0.028182613 0
-0.038541917 0.067479908 0.08261244 -0.87859172 -0.47735831 0.014340163 0
0.019067163 0.066180892 0.082689025 0.84144562 -0.53982025 0.023734836 0
0.020665752 0.068931744 0.082495704 0.89602298 -0.44350439 0.021133043 0
-0.040880967 0.072972968 0.082537323 -0.95235759 -0.30496964 0.0029328852 0
-0.039906882 0.070244454 0.082098581 -0.92329001 -0.38393727 0.011297027 0
0.022025561 0.072227463 0.082246125 0.94414812 -0.32928297 0.01252937 0
-0.042000446 0.077795714 0.082725555 -0.99060255 -0.13561967 0.017721448 0
0.02335237 0.077546902 0.082462043 0.98732144 -0.15863806 0.0055163112 0
-0.042287361 0.082298562 0.082484215 -0.99995166 0.0024003398 -0.0095336558 0
0.023781106 0.082475156 0.082750916 0.99986851 -0.016134139 -0.001638985 0
-0.041992355 0.08734151 0.082297578 -0.99183041 0.12642139 -0.017033782 0
0.023503765 0.087467276 0.082351744 0.99050027 0.1374319 -0.0046482193 0
-0.041048072 0.092103727 0.082417756 -0.96792626 0.25110278 -0.00813476 0
0.022397878 0.092662491 0.082619973 0.96039289 0.27862957 -0.0033079577 0
-0.04008463 0.095308252 0.081559703 -0.93201762 0.36235353 -0.0065557268 0
-0.039070364 0.097761743 0.082447022 -0.92185259 0.38750374 -0.0053498144 0
0.019735236 0.099361345 0.081930079 0.86323744 0.5046373 -0.012744416 0
0.020872759 0.097001791 0.082569622 0.90508986 0.42504609 -0.012173727 0
-0.036533471 0.1023718 0.082476623 -0.82205719 0.56935322 -0.0076740561 0
-0.034845348 0.10472644 0.082731776 -0.78944504 0.61323625 -0.026793752 0
0.017810158 0.1025151 0.082485981 0.82587481 0.5638079 -0.0071775983 0
-0.032398649 0.10740905 0.082823753 -0.70644152 0.7076928 0.010546347 0
-0.029830644 0.10984891 0.082162149 -0.6264993 0.77936965 -0.0090338271 0
0.013031012 0.10815238 0.082358792 0.70028925 0.71358496 0.019784836 0
0.015522863 0.10557193 0.082607828 0.75514442 0.65552312 0.0068065175 0
-0.027321674 0.11166587 0.082556695 -0.575203 0.81792027 0.012162587 0
-0.023071565 0.11413308 0.082898192 -0.44740266 0.89402938 0.02328896 0
0.0039973506 0.114438 0.082394451 0.42461619 0.90537137 0.0019652587 0
0.0073620779 0.11256537 0.082387775 0.51041853 0.85992485 0.0014551898 0
0.01058352 0.11038449 0.082895868 0.6411435 0.76738226 -0.0077066314 0
-0.020751921 0.11523801 0.082374081 -0.36110842 0.93252385 4.4922763e-05 0
-0.017957879 0.11610328 0.082751118 -0.28181237 0.9594475 0.0064954287 0
-0.012518359 0.11721444 0.082363576 -0.10930365 0.99399644 0.0048839324 0
-0.0072735781 0.1173009 0.082260497 0.081253566 0.99669254 -0.0013407569 0
-0.0023090155 0.11656693 0.082745366 0.19458005 0.98088598 -0.0011457182 0
0.0014113621 0.11552454 0.082360335 0.40365422 0.91472191 0.018630791 0
-0.022091081 0.054018252 0.087681942 -0.34857059 -0.9370563 -0.020592419 0
-0.017545216 0.052586462 0.087479845 -0.25368512 -0.9666186 -0.035948675 0
-0.012593403 0.051568396 0.087439157 -0.14825611 -0.98841029 -0.032637749 0
-0.0074105347 0.051207531 0.087530687 0.012316976 -0.99911904 -0.040117539 0
-0.002360163 0.052111588 0.087747313 0.24743022 -0.96726072 -0.056436971 0
0.0024762636 0.053339209 0.08751978 0.31287029 -0.94961226 -0.018669905 0
0.0057590171 0.054683875 0.087292716 0.43238506 -0.901586 -0.013633511 0
-0.031232296 0.059098996 0.087306239 -0.61493617 -0.78785014 0.033847451 0
-0.027387943 0.05655735 0.08734142 -0.50612241 -0.86244327 0.0056382283 0
-0.024842855 0.055133753 0.086733066 -0.4118506 -0.9108206 -0.028015926 0
0.008193464 0.055994712 0.087849133 0.50212187 -0.86479694 -0.00010582506 0
0.011964565 0.058576498 0.087714717 0.62002861 -0.78452033 0.0096082855 0
-0.035966348 0.06381689 0.087403543 -0.78026986 -0.62426639 0.038345482 0
-0.033727098 0.061319046 0.087575167 -0.70365959 -0.70927358 0.042358603 0
0.014398636 0.060687773 0.087576061 0.70338804 -0.71058089 0.017890599 0
0.01665153 0.063131399 0.087343328 0.76186293 -0.64733779 0.022775652 0
-0.038448796 0.067508742 0.08749409 -0.86407757 -0.50266314 0.026450645 0
0.019223928 0.066582292 0.087546222 0.84404641 -0.53600627 0.016818671 0
0.020573512 0.068930604 0.087391026 0.89186186 -0.45223743 0.007979447 0
-0.040847488 0.072918244 0.087276854 -0.95387214 -0.30017594 0.0047259801 0
-0.039928906 0.070354104 0.088184193 -0.91175544 -0.4102633 0.019650957 0
0.022087477 0.072527975 0.087568194 0.9428522 -0.33316132 0.0057798135 0
-0.041886065 0.077592 0.087506801 -0.98929095 -0.14526042 0.014241223 0
0.023355218 0.077487014 0.087245442 0.98722643 -0.15929013 -0.003263178 0
-0.042286798 0.082276165 0.087352522 -0.99991482 -0.0087601626 0.0096787699 0
0.023793252 0.082413301 0.08764866 0.99978811 -0.020425642 0.0025645706 0
-0.042021103 0.087322973 0.087581106 -0.99365979 0.112373 0.0035498347 0
0.023532806 0.08731392 0.087446399 0.99274874 0.1201892 0.0021121227 0
-0.041014042 0.092522949 0.08756528 -0.96672887 0.25502524 -0.019935125 0
0.022475829 0.092547327 0.087536819 0.96266043 0.27063292 -0.0065322104 0
-0.040131535 0.095428213 0.087660342 -0.93795764 0.34609783 -0.02125261 0
-0.039097436 0.097872399 0.087636508 -0.91154337 0.41106758 -0.010592517 0
0.019753333 0.099467322 0.087460697 0.87550503 0.48269358 -0.02231225 0
0.020972975 0.096988931 0.087389059 0.9335323 0.35831988 -0.011151294 0
-0.036529344 0.10237347 0.0875085 -0.82776189 0.56100231 0.0093069496 0
-0.034851883 0.10471465 0.087030686 -0.7562328 0.65410584 0.016043343 0
0.017943904 0.10244542 0.087587163 0.82981026 0.55784082 -0.015114169 0
-0.032233048 0.10757955 0.087392896 -0.71531451 0.69866854 -0.013688413 0
-0.029836733 0.10979238 0.086296469 -0.62073362 0.78345722 -0.029740302 0
0.013031097 0.10819415 0.087431699 0.67866385 0.7344479 0.0013083149 0
0.015576405 0.10561498 0.08744739 0.78380662 0.62073022 -0.018471396 0
-0.02702095 0.11189134 0.087757111 -0.52158207 0.85312748 -0.0112118 0
-0.023173606 0.11406995 0.087657735 -0.44771898 0.89417022 -0.0027044071 0
0.003798553 0.11453445 0.087635934 0.43976825 0.89807433 -0.0081390841 0
0.0076655964 0.11239576 0.087535858 0.53369462 0.84567297 -0.002689559 0
0.010517294 0.11042043 0.087814935 0.65398443 0.75481194 0.050627954 0
-0.020656494 0.11528685 0.08773689 -0.40936553 0.9121902 -0.018135121 0
-0.017366927 0.11631731 0.087265112 -0.26350242 0.96465844 0.00077553699 0
-0.012487891 0.11727557 0.087894604 -0.13211796 0.99107718 -0.017633419 0
-0.0073402114 0.11739589 0.087673359 0.076840311 0.99671739 -0.025496518 0
-0.0022843957 0.11660952 0.087442547 0.2229781 0.97468227 -0.016591951 0
0.0013129743 0.11556101 0.087527141 0.33270678 0.94302088 -0.004216325 0
-0.022349553 0.054012846 0.092386156 -0.37323794 -0.92759919 -0.0159072 0
-0.017645877 0.052450422 0.092294939 -0.25333086 -0.96694058 -0.029143391 0
-0.012583512 0.051425327 0.09240634 -0.14678261 -0.98876911 -0.028118417 0
-0.0076794033 0.050992783 0.092369951 -0.05938451 -0.99604875 -0.066032961 0
-0.0026535171 0.051752917 0.092324734 0.32996717 -0.94377303 -0.020350901 0
0.0024691741 0.05333446 0.092453726 0.32885379 -0.94418693 -0.019138873 0
0.0056442753 0.054622095 0.092609927 0.45884332 -0.88724637 0.047504146 0
-0.03085248 0.058983728 0.092608958 -0.61994982 -0.78419572 0.026444383 0
-0.02739355 0.056623645 0.092311107 -0.53265411 -0.84627795 0.0096612731 0
-0.02476798 0.055049859 0.092697673 -0.46315816 -0.8857075 0.031729527 0
0.0080916425 0.05607044 0.092710078 0.51559061 -0.85465664 0.061059825 0
0.011865085 0.058634501 0.092330709 0.63621742 -0.77120018 0.021856168 0
-0.035849102 0.063986681 0.092103049 -0.76500452 -0.64240158 0.045697611 0
-0.033668116 0.061586771 0.092522599 -0.71719235 -0.69488817 0.052588064 0
0.014251358 0.060932197 0.092799269 0.6887303 -0.70522386 0.16825533 0
0.016429337 0.063140184 0.092347018 0.75303763 -0.65247232 0.084936582 0
-0.038190268 0.06729079 0.092589408 -0.84482282 -0.53452373 0.023639278 0
0.019106936 0.066671252 0.092331678 0.82670265 -0.56119794 0.040244155 0
0.020552266 0.069025777 0.092029184 0.88328302 -0.46678999 0.043796659 0
-0.04077933 0.072767839 0.092832565 -0.95609856 -0.29287529 0.0099784322 0
-0.039895315 0.070282221 0.092080377 -0.91092259 -0.41256109 -0.0036616772 0
0.022015676 0.072434835 0.092296712 0.94103122 -0.33739579 0.024984442 0
-0.041804709 0.077427216 0.092436001 -0.98848051 -0.15118299 0.007079625 0
0.023332572 0.07752391 0.092640959 0.98478365 -0.17217834 0.02357463 0
-0.04222225 0.082377173 0.092538208 -0.99971765 -0.016955903 0.016646354 0
0.023784492 0.082438588 0.092696689 0.99999881 0.0011944408 0.00099755661 0
-0.042002883 0.087549202 0.09273871 -0.99350804 0.11347264 -0.0081095835 0
0.023514424 0.087419488 0.092351198 0.99232775 0.11977077 0.03067157 0
-0.041113682 0.092504859 0.092562847 -0.96645391 0.25667912 -0.0090874014 0
0.022538969 0.092360042 0.092550166 0.96545887 0.25755078 0.03945585 0
-0.04014628 0.095570058 0.092348211 -0.93093365 0.36505601 -0.0098313307 0
-0.039119367 0.097897694 0.092556298 -0.90342718 0.42836595 -0.017945638 0
0.019777663 0.099548094 0.092087261 0.8812269 0.47258797 -0.0099877045 0
0.02102707 0.096997708 0.092762612 0.91811097 0.39630035 0.0042903079 0
-0.036443241 0.1025846 0.092488401 -0.8278445 0.56026089 -0.02794995 0
-0.03474538 0.10481372 0.091581091 -0.75208336 0.65883541 -0.017506598 0
0.018050063 0.10243686 0.092657745 0.83131391 0.55569071 -0.011189549 0
-0.032401543 0.10747079 0.092415832 -0.72568214 0.68783909 -0.016210034 0
-0.029870341 0.10991082 0.093487777 -0.62182301 0.78279698 0.023769397 0
0.013066519 0.10824008 0.092478931 0.67234981 0.74023002 -0.0022678035 0
0.015609636 0.10565218 0.092804387 0.75871903 0.6513685 -0.0080276681 0
-0.027632864 0.11147409 0.092654146 -0.55672723 0.83064175 -0.0094413478 0
-0.02285585 0.11421973 0.092521392 -0.41735241 0.90860927 0.015685096 0
0.0037688434 0.11455186 0.092431776 0.43482977 0.90047473 0.008264848 0
0.0074644559 0.1125114 0.092489913 0.52879214 0.84874386 -0.0035677848 0
0.010521382 0.11039424 0.092040211 0.64229161 0.76641333 -0.0084896786 0
-0.020540794 0.11522716 0.092186667 -0.36019102 0.93246228 0.027864352 0
-0.017460404 0.11628132 0.092446722 -0.28099734 0.95958191 0.015590253 0
-0.012287336 0.11731895 0.092522167 -0.12178709 0.99255621 0.00023201763 0
-0.0075946199 0.11745303 0.092559233 0.062680215 0.99801219 -0.0065404503 0
-0.0024642572 0.11667109 0.092462622 0.22970967 0.97325653 -0.002286819 0
0.0015158824 0.11547914 0.092623837 0.34320423 0.93917793 0.012478644 0
-0.02602456 0.054973379 0.099638075 -0.37417477 -0.91496432 -0.15110777 0
-0.022136506 0.054075509 0.097532369 -0.43167543 -0.89410436 -0.1193049 0
-0.017338449 0.052775238 0.097557254 0.13392644 0.063703567 0.98894167 0
-0.012523046 0.05204799 0.097502075 -0.014747437 -0.14264436 0.98966414 0
-0.0074993079 0.051755324 0.097545788 -0.17755064 -0.56095523 0.80858207 0
-0.0025052985 0.052268911 0.09747538 0.28062573 -0.56633049 0.77493161 0
0.0021640356 0.053435568 0.097635791 0.4001205 -0.90234154 0.16026017 0
0.0061247209 0.054483932 0.098116912 0.39237386 -0.90581775 -0.15980279 0
-0.030921107 0.05922842 0.098044902 -0.63287681 -0.74130285 -0.22346579 0
-0.027493438 0.05729821 0.097641148 -0.50262153 -0.7803477 0.37206054 0
-0.022913903 0.057006657 0.096870877 0.13087824 0.27333629 0.95297331 0
-0.017537447 0.057706758 0.096330181 0.0092599932 0.017850393 0.99979776 0
-0.012421602 0.057735842 0.096325479 0.0069579049 -0.070427962 0.99749261 0
-0.0075934418 0.057503097 0.09629561 0.0096800895 -0.070711948 0.99744982 0
-0.0025336931 0.057406951 0.096226871 -0.0096786004 0.048983101 0.99875271 0
0.0028149874 0.057426747 0.096301682 -0.021048767 0.08658573 0.99602199 0
0.0076868818 0.056843143 0.097295515 -0.1918806 0.37080112 0.908674 0
0.011766736 0.05855082 0.097819731 0.62109423 -0.77023906 -0.14482319 0
-0.035580944 0.064151406 0.097735845 -0.75953281 -0.63336158 -0.14819923 0
-0.032897256 0.062189277 0.097632833 -0.0075992811 -0.041845348 0.99909514 0
-0.0273735 0.062594779 0.096400596 0.011991578 0.0068341121 0.99990481 0
-0.022503786 0.062534697 0.096451573 -0.028282769 -0.050395679 0.9983288 0
-0.01766564 0.062450919 0.096537642 0.0040662079 -0.022578012 0.99973673 0
-0.01238115 0.06241709 0.096429989 0.023954267 0.058827929 0.99798071 0
-0.0074459165 0.062311258 0.096378684 0.0051333862 0.056637436 0.99838161 0
-0.0024622509 0.062541828 0.096350037 0.0011726978 0.028702207 0.9995873 0
0.0023481427 0.062602617 0.096253753 0.03607801 -0.034096725 0.99876714 0
0.0072022118 0.062495612 0.09617658 0.0016131609 -0.0020614285 0.9999966 0
0.012973196 0.061937489 0.096741728 -0.12573044 0.19886875 0.97192746 0
0.016287873 0.063462891 0.097767584 0.71523815 -0.66187799 -0.22439229 0
-0.037379108 0.067502916 0.097726204 -0.69318205 -0.56404543 0.44872198 0
-0.032297473 0.067649335 0.096447282 0.029626057 0.024791781 0.99925363 0
-0.02741098 0.067629717 0.09658549 -0.045551151 -0.034144729 0.99837828 0
-0.022622168 0.067731775 0.096506141 0.041368347 0.046273019 0.99807185 0
-0.017530411 0.067466572 0.096172027 0.073193565 0.14642487 0.98651028 0
-0.012492124 0.067748286 0.095917918 0.0029480385 0.06988509 0.99755073 0
-0.0073051527 0.067382179 0.095979303 0.041465305 0.023833022 0.99885565 0
-0.0021918314 0.067362055 0.095990911 -0.025727984 0.081771076 0.99631906 0
0.0025550809 0.067579091 0.096149802 -0.032643165 0.060308091 0.99764585 0
0.0074416008 0.067100234 0.096240021 0.0047992566 0.00060201506 0.99998832 0
0.012452949 0.067465104 0.096178047 -0.0088531226 0.003801334 0.99995357 0
0.018135311 0.067254722 0.097427949 -0.30233446 0.10820632 0.94704026 0
0.020482419 0.069023341 0.097936697 0.89301997 -0.42085007 -0.15937534 0
-0.040746681 0.073076181 0.097336017 -0.95274222 -0.30261174 -0.02661489 0
-0.038228869 0.072236128 0.097401984 0.43613854 0.18849826 0.8799156 0
-0.032101974 0.072491705 0.096511073 -0.0022097814 -0.0032639888 0.99999225 0
-0.027584119 0.072973497 0.096521892 0.082051709 0.052299779 0.99525493 0
-0.022555316 0.07270579 0.09601061 0.080372892 0.081792407 0.99340332 0
-0.017373852 0.072651014 0.095783837 0.025236849 0.11037996 0.99356896 0
-0.01243002 0.072613642 0.096434481 -0.14480616 -0.23442869 0.96128792 0
-0.0075565339 0.072606795 0.096832655 -0.018270401 -0.21370281 0.97672784 0
-0.0022885227 0.072789222 0.096559234 0.072258212 -0.34559491 0.93559766 0
0.0022527769 0.07287316 0.095886953 0.027118409 -0.092638396 0.99533051 0
0.0075975042 0.072363682 0.09613803 -0.050401051 0.031387307 0.99823576 0
0.012471761 0.072378963 0.096208461 0.048885677 -0.026868384 0.99844295 0
0.017632179 0.072236806 0.09631896 -0.078922324 0.044465255 0.99588865 0
0.021462502 0.0727266 0.097738788 0.63273174 -0.24924836 0.73316151 0
-0.041346341 0.077591404 0.097946629 -0.93478841 -0.10762376 0.33850813 0
-0.037475325 0.077569008 0.096407041 -0.014306644 -0.0019361054 0.99989575 0
-0.032717153 0.077647679 0.096550137 -0.058780752 -0.021123128 0.99804741 0
-0.027565638 0.077525511 0.096297257 0.11863267 0.036056623 0.99228334 0
-0.02257473 0.07758522 0.095597334 0.15340866 0.097244255 0.98336631 0
-0.016965432 0.07742504 0.095655069 -0.3018339 -0.10076544 0.94802034 0
-0.012564836 0.077360205 0.096854486 -0.082897156 0.022968423 0.99629343 0
-0.0076074875 0.077205472 0.096147813 0.11881561 0.46401069 0.87782508 0
-0.0024739299 0.077168837 0.09675809 -0.20823154 0.40587574 0.88989013 0
0.0024338074 0.077412888 0.097521029 -0.099543311 -0.13865131 0.98532587 0
0.0074097938 0.077688068 0.096900344 0.19035244 -0.40139821 0.8959049 0
0.012490718 0.07738521 0.096266828 0.022268852 -0.0054711141 0.99973702 0
0.017431512 0.077759221 0.096175216 0.0022823983 0.0066334526 0.99997538 0
0.02262228 0.077467047 0.097420596 0.47085166 -0.16708943 0.86624461 0
-0.041770317 0.082449503 0.097679265 -0.76505303 0.13412261 0.62984514 0
-0.037536439 0.082567215 0.09639395 0.001764799 0.0029154189 0.99999422 0
-0.032526851 0.082273185 0.096606143 -0.043494374 0.0075340578 0.99902523 0
-0.027389919 0.082580589 0.096130855 0.10344486 0.010243704 0.99458247 0
-0.02261929 0.082542054 0.09547276 0.13033234 -0.019887142 0.9912709 0
-0.017273741 0.082555987 0.096386984 -0.53019482 -0.15764259 0.83309209 0
-0.012696795 0.082438558 0.096233606 0.32962844 0.1018642 0.93859941 0
-0.0077000195 0.082743637 0.095512353 0.014951073 -0.00074684049 0.99988794 0
-0.0024465327 0.082564071 0.095460579 -0.065842651 0.035758562 0.99718904 0
0.0026837382 0.082387999 0.096926346 -0.19436273 0.11473142 0.97419703 0
0.0074572125 0.082221732 0.097186938 -0.014439688 0.32864618 0.94434273 0
0.012594307 0.082469568 0.097141847 0.06252604 -0.029252207 0.99761456 0
0.017304044 0.082466431 0.096465923 0.1192994 -0.16449508 0.97913688 0
0.023019066 0.082491912 0.097413264 0.29223663 0.050088428 0.95503342 0
-0.04159265 0.087773219 0.097615771 -0.83368742 -0.2104739 0.51055455 0
-0.037352324 0.08754801 0.096354045 -0.0039957068 0.0081873732 0.99995852 0
-0.032676701 0.087323286 0.096583784 -0.060788509 0.0092232134 0.99810803 0
-0.027318517 0.087248705 0.096154153 0.062840842 -0.0091282465 0.99798179 0
-0.022376254 0.087288737 0.095694736 0.077879772 -0.054524131 0.99547064 0
-0.017769219 0.087364994 0.096640252 -0.38000855 -0.04761095 0.92375684 0
-0.012925908 0.087535843 0.096213564 0.4135704 -0.081867158 0.90678406 0
-0.0074088774 0.087331064 0.095467694 0.014906324 0.019816393 0.99969262 0
-0.0023156651 0.087665245 0.095498636 -0.079115286 -0.036602519 0.99619323 0
0.0023851525 0.087518312 0.096938133 -0.34812441 -0.12387944 0.92922723 0
0.0072852499 0.087244019 0.096521623 0.076158457 0.020205136 0.99689096 0
0.012647298 0.087489687 0.096482895 0.023322372 0.020804964 0.99951148 0
0.017539002 0.08733727 0.097060964 0.034876231 0.056729756 0.9977802 0
0.023001768 0.087294929 0.097447 0.77455652 0.26159695 0.57587254 0
-0.04102255 0.092242546 0.09782014 -0.96069592 0.24306192 -0.13410512 0
-0.037945714 0.092487969 0.096610911 0.18968062 -0.04952066 0.98059618 0
-0.03247029 0.092263602 0.096490942 -0.067026183 0.030585263 0.99728233 0
-0.027385956 0.092495285 0.096369796 0.10899586 -0.055073008 0.9925155 0
-0.022096468 0.092794143 0.095938608 0.014150379 0.0026685807 0.99989629 0
-0.017348751 0.092621461 0.096426792 -0.28041777 0.13945088 0.9496944 0
-0.012421566 0.092442311 0.096973412 0.13725787 -0.1677717 0.97622377 0
-0.0075820321 0.092774242 0.096339211 0.051259298 -0.47294447 0.87959987 0
-0.0025813915 0.092791475 0.096677519 -0.22097532 -0.50484592 0.83444619 0
0.0023008811 0.092399277 0.097116128 0.18249238 0.070905223 0.98064727 0
0.0074614491 0.092617653 0.09647283 -0.012890924 0.021365214 0.99968863 0
0.01253835 0.092540845 0.09643732 0.056790296 0.051521029 0.99705589 0
0.017624328 0.092666037 0.09696345 0.012043722 -0.0057510636 0.99991089 0
0.0220607 0.092384391 0.097495951 0.095216684 -0.075115368 0.9926185 0
-0.040406488 0.095726512 0.098307751 -0.91698956 0.31851816 -0.24015899 0
-0.038174171 0.097766906 0.09728194 -0.19683407 0.16599947 0.96628183 0
-0.032569554 0.097496159 0.096340708 -0.00054580945 0.0044078273 0.99999017 0
-0.027745454 0.097271092 0.096514001 0.022490913 0.00047049188 0.99974692 0
-0.02229085 0.097542413 0.096141487 0.10921588 -0.090693064 0.98987204 0
-0.017308839 0.097739637 0.096051455 0.054013208 0.052402206 0.99716425 0
-0.011965437 0.097114004 0.096233398 -0.10923538 0.24771152 0.96265596 0
-0.007471852 0.097238153 0.096923746 -0.13800415 0.3593123 0.92295694 0
-0.0024448375 0.097687997 0.097341508 -0.013654974 0.42316523 0.90594965 0
0.0025667979 0.097683243 0.09730082 0.0057705771 0.11698499 0.99311692 0
0.0074873986 0.097716361 0.097138837 0.040008545 0.046852227 0.99810028 0
0.012635061 0.097454794 0.097020172 -0.039369289 -0.071955748 0.99663049 0
0.017974664 0.097934283 0.097097941 -0.22452506 -0.072789721 0.97174591 0
0.020953277 0.096961088 0.097594894 0.9238739 0.38255894 0.010280001 0
-0.036568645 0.10219578 0.097602613 -0.83209163 0.55213797 -0.052604966 0
-0.032934882 0.10301095 0.096635908 0.13971733 -0.12003314 0.98288918 0
-0.02767255 0.10235826 0.096358322 -0.052811477 0.058838233 0.99686968 0
-0.022636954 0.10252292 0.096425392 0.018327976 -0.0080778068 0.99979943 0
-0.017495042 0.10265763 0.096252039 0.051215976 -0.074838772 0.99587953 0
-0.012531513 0.10255643 0.096023247 0.027794776 -0.11077733 0.99345654 0
-0.0076031955 0.10272128 0.096002772 -0.0045287032 -0.054978307 0.99847728 0
-0.0024437523 0.10234471 0.096034698 -0.043924045 -0.097968243 0.99421972 0
0.0027863451 0.1022884 0.096255593 -0.022996332 -0.021561254 0.99950302 0
0.0077816844 0.10242981 0.09619505 -0.0028641403 0.032215673 0.99947685 0
0.012559279 0.10255823 0.096186131 0.061261978 0.12539148 0.99021405 0
0.017452778 0.10247567 0.09735693 0.29291391 0.19942856 0.93510944 0
0.020169299 0.10039916 0.099257462 0.82529664 0.47794363 -0.30075812 0
-0.03512191 0.10551651 0.099469408 -0.71608543 0.59094959 -0.37148392 0
-0.032121621 0.10725659 0.097707644 -0.68805486 0.61657143 0.38264903 0
-0.027821628 0.10812094 0.096807346 0.18716338 -0.26503858 0.94589871 0
-0.022783436 0.10725082 0.096291043 -0.0032252998 0.020055588 0.99979365 0
-0.0174239 0.10785333 0.096290864 -0.017160419 0.078740865 0.99674749 0
-0.012354079 0.10756361 0.096329354 0.00080821518 0.034999497 0.99938703 0
-0.0077105477 0.10739924 0.096252464 0.01086212 0.072901703 0.99727994 0
-0.0023884517 0.10739791 0.096232787 0.0055803792 0.019196693 0.99980015 0
0.0024808829 0.10745654 0.096198522 0.0017445072 0.0083575174 0.99996352 0
0.0078251539 0.10748406 0.096223973 0.0067895548 -0.0086205825 0.9999398 0
0.012705677 0.1076778 0.097265594 0.16083609 0.056753162 0.98534805 0
0.015730932 0.10586129 0.098253027 0.71279222 0.56776053 -0.4117952 0
-0.030420644 0.11018275 0.099634618 -0.62325978 0.73421627 -0.26920938 0
-0.027082713 0.11159993 0.097614847 -0.53941315 0.84145391 -0.031442683 0
