# .PCD v0.7 - Point Cloud Data file format
VERSION 0.7
FIELDS x y z normal_x normal_y normal_z curvature
SIZE 4 4 4 4 4 4 4
TYPE F F F F F F F
COUNT 1 1 1 1 1 1 1
WIDTH 649
HEIGHT 1
VIEWPOINT 0 0 0 1 0 0 0
POINTS 649
DATA ascii
0.028166415 -0.04240169 0.097602919 0.89183539 -0.42069167 -0.16627714 0
-0.041898787 -0.036191184 0.097346902 -0.5236218 -0.85160911 0.024127327 0
-0.037739396 -0.038702141 0.097327881 -0.51347619 -0.85786438 0.020271385 0
0.029588886 -0.038726103 0.096859641 0.92467076 -0.33253676 -0.18548091 0
0.030529955 -0.036549099 0.09791559 0.93694931 -0.3036662 -0.1729531 0
-0.050677266 -0.030533267 0.096892759 -0.56884146 -0.82205141 0.025513304 0
-0.047098164 -0.032898672 0.097653508 -0.54235375 -0.83938819 0.035774525 0
-0.044455897 -0.0345673 0.098028339 -0.53662145 -0.84331292 0.02933694 0
0.031482544 -0.032505814 0.097596556 0.97282684 -0.14839311 -0.17772871 0
-0.056249775 -0.026090736 0.097405337 -0.68530446 -0.72768319 0.028896574 0
-0.053163741 -0.028664082 0.097755633 -0.61023217 -0.79110014 0.042157225 0
0.031307075 -0.027816363 0.097985603 0.95842683 0.2701543 -0.091840357 0
-0.060603175 -0.021018196 0.097891591 -0.88514793 -0.46447963 -0.027781703 0
-0.05871116 -0.023638779 0.097014591 -0.74075502 -0.67086321 0.034994278 0
0.027690314 -0.022053281 0.097625338 0.72533631 0.68831837 0.010243648 0
0.030039735 -0.024831103 0.097251207 0.8596682 0.50912869 -0.041935746 0
-0.061596807 -0.017371943 0.097431339 -0.98580939 -0.11432669 -0.12291952 0
0.019725563 -0.015056191 0.097846903 0.56243092 0.82616192 0.033583291 0
0.022705913 -0.017432544 0.097487673 0.64390892 0.76494467 0.015524809 0
0.025253795 -0.019670399 0.097898208 0.67652273 0.73586082 0.028734399 0
-0.061125644 -0.012223983 0.09742476 -0.95034879 0.24748662 -0.18864672 0
0.013710823 -0.010869102 0.09725526 0.56548131 0.82476103 5.3557178e-05 0
0.017441213 -0.013430154 0.097454749 0.56859612 0.82260805 0.0038021931 0
-0.060336605 -0.0090218978 0.098306663 -0.93360728 0.31258309 -0.17512628 0
-0.059385654 -0.0070060492 0.097244315 -0.91458565 0.35539991 -0.19293536 0
0.0047855708 -0.005157928 0.097976148 0.48319352 0.87499702 -0.030069796 0
0.0074802847 -0.0067749047 0.097565904 0.52254421 0.85259891 0.0047484022 0
0.011190792 -0.0090997033 0.096997343 0.56528419 0.82403582 0.037665013 0
-0.057319388 -0.0024641345 0.097299069 -0.87461585 0.4448545 -0.19274737 0
-0.0023775969 -0.0011420501 0.097344354 0.46182239 0.88672644 -0.020884799 0
0.0024957655 -0.003759095 0.097641349 0.50195652 0.86459601 -0.022656187 0
-0.055608954 0.0011113783 0.098198213 -0.84917098 0.49637419 -0.18033642 0
-0.053749833 0.0034954494 0.096984476 -0.78587419 0.58271229 -0.20699793 0
-0.016994081 0.0044407197 0.097081378 0.28481317 0.95845181 0.015859537 0
-0.012411905 0.0029900291 0.097303219 0.3072001 0.95147765 -0.017845307 0
-0.0072303466 0.0010868658 0.097119503 0.36905229 0.92911386 -0.023406129 0
-0.0048464509 8.316672e-05 0.096796095 0.46751416 0.88349617 0.029411694 0
-0.051720161 0.0058347615 0.097682737 -0.59721541 0.7893306 -0.14244661 0
-0.047347754 0.0077404743 0.097806156 -0.2010261 0.97888809 -0.036967844 0
-0.042628985 0.0080116997 0.097617671 0.025136983 0.99918389 0.031618495 0
-0.037554603 0.0077928542 0.097602688 0.065458216 0.9974097 0.029818268 0
-0.032648683 0.0074166553 0.097569734 0.069407403 0.99730176 0.023911014 0
-0.027303508 0.0068036858 0.097699568 0.16792291 0.98547959 0.025136944 0
-0.022211701 0.0058004339 0.097551309 0.22141591 0.97514081 0.0086798007 0
-0.019413672 0.0051104226 0.097801439 0.20855843 0.97800982 0.00053768331 0
-0.011980272 -0.050339233 0.10245887 -0.23179825 -0.97266567 0.013820403 0
-0.0074709328 -0.051277947 0.10284059 -0.18888706 -0.98175907 0.021697974 0
-0.0020734875 -0.05225604 0.10219104 -0.16543166 -0.98554194 0.036597367 0
0.0026373384 -0.052986365 0.10279153 -0.15085919 -0.98752457 0.045129675 0
0.0072434419 -0.053638544 0.10283217 -0.13261651 -0.99014771 0.044948813 0
0.012505054 -0.054253027 0.10257734 -0.085359648 -0.9955709 0.039398916 0
0.017773021 -0.054259647 0.10258344 0.15088308 -0.98849034 0.011003776 0
0.022607666 -0.05209773 0.10258473 0.62914479 -0.77542919 -0.053725883 0
-0.025982559 -0.045433767 0.10205558 -0.44618919 -0.89493835 0.00077613251 0
-0.02282846 -0.046853494 0.10241036 -0.38169295 -0.92427677 0.0048030736 0
-0.017432841 -0.048826933 0.10216442 -0.30397579 -0.95261973 0.010694276 0
-0.014138631 -0.049798302 0.10234169 -0.26531574 -0.96411055 0.0099232858 0
0.024950018 -0.049566165 0.1011778 0.83697021 -0.54298258 -0.068197131 0
0.026492983 -0.04691349 0.10229743 0.88540941 -0.46172133 -0.053512741 0
-0.035288461 -0.040105067 0.10225598 -0.5194515 -0.85440016 0.01305894 0
-0.032133244 -0.042024486 0.10258408 -0.5141747 -0.85767657 0.0038965261 0
-0.028234754 -0.044260997 0.10231051 -0.47430938 -0.88034856 0.0041249841 0
0.028675595 -0.042400364 0.10253868 0.90554267 -0.42389756 -0.017417114 0
-0.041706834 -0.036122326 0.10258153 -0.52586389 -0.85013455 0.027173029 0
-0.03774488 -0.038579725 0.10235664 -0.52698117 -0.84966862 0.018814597 0
0.029889327 -0.039769929 0.10342295 0.91653335 -0.3999556 0.0015238206 0
0.030948261 -0.036998205 0.10266338 0.94097096 -0.33427098 -0.053259756 0
-0.050552249 -0.030365175 0.10292247 -0.57937968 -0.81438619 0.033081945 0
-0.047575653 -0.032386381 0.1027538 -0.55397576 -0.83199543 0.029908782 0
-0.044359811 -0.034445532 0.10340062 -0.5302034 -0.84733993 0.029990181 0
0.032120626 -0.032552741 0.10264245 0.98886085 -0.13076182 -0.071102306 0
-0.055995088 -0.026059547 0.10239032 -0.67235804 -0.73936278 0.035741158 0
-0.053188186 -0.028389176 0.10246903 -0.61834407 -0.78495604 0.038661297 0
0.03165428 -0.027946481 0.10235833 0.94746459 0.31739917 -0.039606649 0
-0.060537804 -0.021164833 0.10281143 -0.8352052 -0.5495528 0.020591194 0
-0.058524776 -0.023585895 0.10222726 -0.72314382 -0.6898092 0.035018157 0
0.027843531 -0.022296416 0.10249487 0.71883219 0.69510013 0.01076907 0
0.030089159 -0.024758905 0.10191195 0.84722412 0.53120506 -0.0056882221 0
-0.061995089 -0.017401526 0.10259998 -0.97944194 -0.19932435 -0.031037753 0
0.019835819 -0.01514825 0.10188915 0.60868031 0.79333431 -0.011357677 0
0.022528663 -0.017372744 0.10258865 0.65305722 0.75730121 0.0033491924 0
0.025318027 -0.019831493 0.10266907 0.67384636 0.73884678 0.0060451906 0
-0.061866816 -0.012555567 0.10239168 -0.97589123 0.20682921 -0.06970036 0
0.013669725 -0.010813308 0.10217541 0.5553264 0.83117187 -0.027671922 0
0.017645057 -0.013543026 0.10267904 0.5804798 0.81415755 -0.013810114 0
-0.060558174 -0.008214361 0.1028438 -0.9320333 0.35911298 -0.048494332 0
-0.059705004 -0.0061467295 0.10220053 -0.9224996 0.38214549 -0.054399669 0
0.0049193273 -0.0051260856 0.10230631 0.53557628 0.84442723 0.010031768 0
0.0075071873 -0.0067594331 0.10250589 0.54229683 0.84012628 -0.010096285 0
0.011302228 -0.0092637083 0.1018903 0.5549885 0.83155358 -0.022503395 0
-0.058127381 -0.0026394955 0.10263765 -0.90239972 0.42901185 -0.04029265 0
-0.0019696529 -0.0012506451 0.1021806 0.45281836 0.89157724 -0.0067441859 0
0.0026685407 -0.0037920892 0.10238031 0.50662649 0.86216408 -0.0016135095 0
-0.056058329 0.0014346704 0.10250164 -0.86777753 0.48993373 -0.083229207 0
-0.054287735 0.0041375528 0.10214286 -0.78352797 0.61512285 -0.087794363 0
-0.016837187 0.0043881298 0.10254741 0.2834911 0.95883679 -0.016270116 0
-0.012620667 0.0031041186 0.10266482 0.30648887 0.95172626 -0.016781092 0
-0.0074573401 0.0012580109 0.10232645 0.37786046 0.9255662 -0.023425564 0
-0.0046410738 8.5929292e-05 0.10313211 0.40594354 0.91381228 -0.012526375 0
-0.051927097 0.0062552835 0.10319806 -0.53039831 0.84648579 -0.046254594 0
-0.047891311 0.0077243927 0.1027891 -0.15700065 0.9875856 -0.0050495542 0
-0.042192806 0.007873849 0.10253984 0.027248597 0.99947137 0.017735904 0
-0.037446406 0.0076736007 0.10219443 0.060284063 0.99802911 0.017423257 0
-0.032625694 0.0072891065 0.10247636 0.082430087 0.99648887 0.014669581 0
-0.027345456 0.0067312657 0.10262176 0.15152448 0.98842388 -0.0076559959 0
-0.022666603 0.0058667548 0.10238905 0.21393727 0.97682208 -0.0070253611 0
-0.019333756 0.0051152748 0.10205694 0.20152691 0.9790138 -0.030313389 0
-0.011281429 -0.05043171 0.10712413 -0.21647544 -0.97617835 0.014635369 0
-0.0073949522 -0.051200818 0.10759777 -0.1811343 -0.98335624 0.014171839 0
-0.0025315084 -0.052021924 0.10774295 -0.15622222 -0.98751354 0.020286892 0
0.0025711183 -0.052803792 0.10776341 -0.14632739 -0.98895752 0.02347721 0
0.0074017677 -0.053499706 0.10736249 -0.132282 -0.99093473 0.023447551 0
0.012430991 -0.054090336 0.10747081 -0.092797376 -0.99544346 0.021931371 0
0.017539984 -0.054182168 0.107385 0.1036574 -0.99426794 0.026199101 0
0.022651471 -0.052168921 0.10755087 0.60641402 -0.79471457 0.026284236 0
-0.025956269 -0.045436613 0.10729747 -0.4494966 -0.89328116 -0.0012456864 0
-0.022679089 -0.04689835 0.1074583 -0.38076133 -0.92467219 0.001443952 0
-0.017496619 -0.048769206 0.10711753 -0.29984388 -0.95398045 0.0038773727 0
-0.013953146 -0.049783353 0.10748628 -0.24759786 -0.96878451 0.01232251 0
0.024936229 -0.049864396 0.10904924 0.83288813 -0.55138302 0.047688581 0
0.026305314 -0.047410246 0.10749876 0.89347762 -0.44889471 0.013832067 0
-0.035178393 -0.040146567 0.10709281 -0.5442394 -0.83886623 0.010340772 0
-0.032530982 -0.041756775 0.10722514 -0.51792401 -0.85542256 0.0026365246 0
-0.028427616 -0.044150483 0.10761176 -0.47451621 -0.8802343 -0.0046783416 0
0.028609503 -0.042459246 0.10740568 0.90870696 -0.41742241 0.0031762389 0
-0.041792884 -0.035965409 0.10715578 -0.53356117 -0.84568292 0.011527323 0
-0.037630193 -0.038561385 0.10753759 -0.53377432 -0.84557873 0.0090347836 0
0.029911434 -0.039629631 0.10783632 0.91713333 -0.39857477 -0.002138671 0
0.03102318 -0.03701162 0.10727257 0.92958772 -0.36854649 0.0063285823 0
-0.050408062 -0.030322947 0.10699797 -0.58528715 -0.81044495 0.024859374 0
-0.047686994 -0.032162964 0.10735454 -0.55462873 -0.83170509 0.025563883 0
-0.044104524 -0.034492187 0.10771474 -0.53511798 -0.84462166 0.016215419 0
0.032247774 -0.032526135 0.10755817 0.99340063 -0.11333311 0.017629215 0
-0.055978794 -0.02585711 0.10745269 -0.66827667 -0.74348629 0.025186498 0
-0.052879605 -0.028423963 0.10768736 -0.61613858 -0.78723717 0.025119329 0
0.031472906 -0.027458545 0.10762405 0.924483 0.38058755 0.022007037 0
-0.060629677 -0.020818789 0.10748223 -0.83888417 -0.5433076 0.03301768 0
-0.058490243 -0.023396004 0.10730987 -0.72293359 -0.69039077 0.026974576 0
0.02772144 -0.022222383 0.10719024 0.72382718 0.68995786 0.0056897304 0
0.03013627 -0.02489496 0.10728408 0.8044585 0.59397787 0.0060676108 0
-0.061997555 -0.017378999 0.1073393 -0.97715914 -0.21029408 0.03060033 0
0.019870441 -0.015135061 0.10773832 0.62416422 0.78127509 -0.0053121876 0
0.022776399 -0.017582221 0.10742816 0.65553176 0.75514448 -0.0059110946 0
0.025210841 -0.01975101 0.10687705 0.67696339 0.7359817 -0.0071675642 0
-0.061947852 -0.012367663 0.10735105 -0.97504961 0.22042364 0.026298663 0
0.013722486 -0.010695886 0.10786086 0.55876499 0.82920879 -0.013945529 0
0.017470269 -0.013334315 0.10746372 0.5909766 0.80648082 -0.018312363 0
-0.060662564 -0.008407169 0.10795135 -0.92768699 0.3728351 0.019772565 0
-0.059565805 -0.005777285 0.10760374 -0.9175061 0.39749035 0.013564132 0
0.004971127 -0.0050630756 0.10715327 0.4841589 0.87489706 0.012050392 0
0.007770922 -0.0067953686 0.1071822 0.53339273 0.84537709 -0.02880713 0
0.011294676 -0.0090703135 0.10758603 0.55382377 0.83260334 -0.0071401685 0
-0.058020428 -0.00236038 0.10755301 -0.90995926 0.41458297 0.0097540636 0
-0.0022476783 -0.0010539641 0.10752062 0.45090285 0.89240438 -0.017351806 0
0.0024509772 -0.0035849598 0.1075391 0.48906851 0.87168932 -0.031138873 0
-0.055981021 0.0018595465 0.10736889 -0.87371147 0.48630297 0.011731337 0
-0.05443145 0.0042889616 0.10739671 -0.78207839 0.62307382 0.011509627 0
-0.01697083 0.0045039728 0.1069911 0.28660202 0.95774537 -0.024148792 0
-0.012455706 0.0031451508 0.10763917 0.30567977 0.95194161 -0.019159619 0
-0.0073530739 0.0012914706 0.10739643 0.38223955 0.92397606 -0.012691109 0
-0.0046537723 0.00012593671 0.10786926 0.42036298 0.90731382 0.0087519055 0
-0.052148983 0.0061888639 0.10800379 -0.52448726 0.85115772 0.021060141 0
-0.047633775 0.0077553694 0.1073051 -0.12354641 0.99233198 0.0036675257 0
-0.042488176 0.007829885 0.10777669 0.022702571 0.99973834 -0.0028072544 0
-0.03741987 0.0076444428 0.10784515 0.054226242 0.99851835 -0.0045436025 0
-0.032482851 0.0072504794 0.10776173 0.091193497 0.99575359 -0.012590822 0
-0.027351456 0.0067418371 0.10755283 0.12770118 0.99181265 0.00018703224 0
-0.022052117 0.0058044065 0.10746122 0.22051553 0.97534925 -0.0081670312 0
-0.019361649 0.0051698205 0.10787017 0.2567178 0.96643704 -0.0097634718 0
-0.011557702 -0.050335553 0.11263686 -0.2172287 -0.97610724 -0.0051341499 0
-0.0077294051 -0.051106289 0.11280175 -0.18285753 -0.98313338 -0.0034484987 0
-0.0025400054 -0.051975887 0.11225357 -0.15552607 -0.98782855 -0.0025269443 0
0.0022517869 -0.052707821 0.11244258 -0.14507285 -0.98940998 -0.0046492671 0
0.0073011657 -0.053433064 0.1125677 -0.13426961 -0.990933 -0.0048364219 0
0.012211614 -0.054017197 0.11242758 -0.089289449 -0.99600446 0.0016072693 0
0.017352043 -0.054070625 0.11256673 0.12342171 -0.99170399 0.035921428 0
0.022409735 -0.051931046 0.11249671 0.61707467 -0.7804088 0.10090003 0
-0.026189826 -0.045350131 0.11270614 -0.44423941 -0.89585114 -0.01010943 0
-0.022764893 -0.046866842 0.11280417 -0.38038915 -0.92478114 -0.009163429 0
-0.017479559 -0.048775051 0.112392 -0.29776523 -0.95463067 -0.0040151118 0
-0.013825127 -0.049804863 0.11226847 -0.24293542 -0.97003925 -0.0025011669 0
0.024838187 -0.049438164 0.11286196 0.84019291 -0.53114456 0.10936814 0
0.02625815 -0.047062445 0.11228349 0.87677115 -0.47314325 0.086069062 0
-0.035137497 -0.040149201 0.11213907 -0.53127187 -0.84718651 -0.0050348723 0
-0.032258242 -0.041941565 0.11240275 -0.52210987 -0.85281903 -0.010046664 0
-0.02833214 -0.044240002 0.11251843 -0.47416461 -0.88041037 -0.0067389878 0
0.028419575 -0.042672791 0.11290206 0.90105021 -0.42788127 0.070894651 0
-0.041633599 -0.036011193 0.11223073 -0.53682721 -0.84368753 0.0027950946 0
-0.037663054 -0.038536169 0.11237007 -0.53703785 -0.8435294 -0.0069674812 0
0.029820902 -0.039527252 0.11321631 0.92828864 -0.35848877 0.098823279 0
0.030782266 -0.037021916 0.11265709 0.94280922 -0.31806111 0.099739634 0
-0.050289828 -0.030272882 0.11205124 -0.58240849 -0.81267852 0.018815661 0
-0.047391921 -0.032247938 0.11254909 -0.55930001 -0.82892799 0.0078621972 0
-0.044130351 -0.034410447 0.11219678 -0.54440868 -0.83878881 0.0072417911 0
0.03181228 -0.032909226 0.11290208 0.98203301 -0.14279552 0.12337159 0
-0.055776726 -0.025858872 0.11269387 -0.66816109 -0.74358696 0.025281888 0
-0.052963685 -0.028219918 0.1125242 -0.62254882 -0.78241724 0.016007762 0
0.031194683 -0.027254527 0.11241202 0.92685348 0.37004331 0.063329227 0
-0.060463823 -0.020638896 0.11293753 -0.85034001 -0.52291125 0.059040505 0
-0.058552891 -0.023097577 0.11228508 -0.74288297 -0.66876537 0.029629121 0
0.028009288 -0.022562781 0.11255736 0.73784339 0.67496741 0.0024897705 0
0.030093141 -0.024928862 0.11121674 0.84745234 0.53033727 0.023810381 0
-0.061677452 -0.017227268 0.11255202 -0.97620082 -0.19111656 0.10250092 0
0.019862566 -0.015052369 0.11205389 0.6105265 0.79189324 -0.012748512 0
0.022917181 -0.017631318 0.11269721 0.65944284 0.75154901 -0.017584328 0
0.025428174 -0.019897012 0.11263558 0.69238114 0.7213648 -0.015530139 0
-0.061506867 -0.012413255 0.11303395 -0.97163159 0.1967582 0.13121878 0
0.014047593 -0.010776259 0.11279248 0.5618211 0.82664835 -0.031771138 0
0.017380808 -0.013157018 0.11257852 0.59268165 0.80530697 -0.014461403 0
-0.060497094 -0.0085832002 0.11234696 -0.93962568 0.32811251 0.097189091 0
-0.059514251 -0.0061146338 0.11284231 -0.92217529 0.3779594 0.082093611 0
0.0075526321 -0.0065143281 0.11238316 0.53160101 0.84648764 -0.029308682 0
0.0115633 -0.0091226157 0.11249579 0.55369514 0.83211023 -0.031846188 0
-0.05808669 -0.0028383736 0.11239687 -0.90394479 0.42134994 0.073129855 0
-0.002066917 -0.0010298596 0.1121323 0.45463824 0.89009643 -0.032131966 0
0.0025371155 -0.0035033128 0.11236722 0.49443445 0.86909908 -0.014193415 0
0.0050801323 -0.0049730977 0.11306777 0.5072664 0.86053717 -0.046438202 0
-0.055969637 0.0013460733 0.11236125 -0.86565566 0.48943096 0.10534512 0
-0.054323874 0.0038295717 0.11272627 -0.79121006 0.60031068 0.11667769 0
-0.016740693 0.004556065 0.11232196 0.27261367 0.96194249 -0.018666105 0
-0.012262594 0.0031816575 0.11217824 0.31448603 0.94897896 -0.023182502 0
-0.0073931022 0.0014250044 0.11268144 0.37178025 0.92794502 -0.026408777 0
-0.0044644717 0.00019224017 0.1129692 0.42942256 0.90246999 -0.033825658 0
-0.051775943 0.0061943717 0.11234554 -0.52660412 0.84664047 0.076734006 0
-0.047384989 0.0077140061 0.11235592 -0.14920439 0.98866153 0.016926136 0
-0.042318419 0.0078803375 0.11238984 0.03014948 0.99937075 -0.018684262 0
-0.037638657 0.007705227 0.11247224 0.053802356 0.99844784 -0.014393004 0
-0.032658026 0.007343791 0.11263139 0.088209346 0.99597579 -0.015852509 0
-0.027363051 0.0067854356 0.11250915 0.12389225 0.99223429 -0.011039699 0
-0.02234973 0.005933017 0.1124381 0.20437036 0.97873509 -0.01761828 0
-0.019215612 0.0052445848 0.11302167 0.24368337 0.96943521 -0.028525611 0
-0.011314342 -0.050456058 0.11763708 -0.21256059 -0.97695231 -0.019546917 0
-0.0076314323 -0.051191945 0.11741975 -0.18322441 -0.98267549 -0.027886068 0
-0.0026269564 -0.052057914 0.11769976 -0.15682916 -0.98714775 -0.030722855 0
0.0027740817 -0.052897006 0.11793938 -0.14508876 -0.98880088 -0.034959026 0
0.0077393004 -0.053582028 0.1174236 -0.12948361 -0.99112856 -0.029968869 0
0.012356664 -0.054066397 0.11713058 -0.06248248 -0.99797589 -0.011839142 0
0.017702166 -0.053706866 0.11743505 0.25868532 -0.96168715 0.09077207 0
0.022115448 -0.051353842 0.11743779 0.64789486 -0.73696756 0.19264242 0
-0.026284197 -0.045386408 0.11765026 -0.43682736 -0.89934182 -0.019135902 0
-0.022432607 -0.047077548 0.11778171 -0.37197983 -0.92801809 -0.020334275 0
-0.01761389 -0.048782345 0.11730254 -0.30044481 -0.95363331 -0.01778833 0
-0.014065935 -0.049795412 0.11723989 -0.24053866 -0.97045958 -0.01868562 0
0.024313089 -0.048536263 0.11797297 0.82032257 -0.52020019 0.23761864 0
0.02584595 -0.046273351 0.11728773 0.84918177 -0.48415828 0.21090519 0
-0.035211775 -0.040213589 0.11732889 -0.5417524 -0.83969462 -0.037646558 0
-0.032629836 -0.041844208 0.11761012 -0.52118474 -0.85281008 -0.032884225 0
-0.028551823 -0.044230144 0.11792562 -0.47322485 -0.88053715 -0.026693372 0
0.027704636 -0.042701103 0.11729351 0.87924266 -0.42660004 0.21200161 0
-0.041789308 -0.035993852 0.11760602 -0.54693741 -0.83684683 -0.023385838 0
-0.037622172 -0.038663328 0.11737205 -0.54041767 -0.84073937 -0.033256818 0
0.0293718 -0.03828235 0.1181003 0.92075688 -0.31079623 0.23582301 0
0.030387815 -0.036324114 0.11655395 0.93701905 -0.28128478 0.20706092 0
-0.050244965 -0.030235643 0.11732586 -0.60253835 -0.79806703 -0.00604166 0
-0.047442157 -0.032217506 0.11759746 -0.56692439 -0.82371551 -0.00945831 0
-0.044298317 -0.034336124 0.11731558 -0.55608523 -0.8309238 -0.018299548 0
0.031040575 -0.032518096 0.1176049 0.96270257 -0.14897394 0.22585502 0
-0.055786647 -0.025757803 0.11719911 -0.67724061 -0.73571175 0.0085701197 0
-0.052610446 -0.028443934 0.11774312 -0.61983484 -0.78473133 0.0011896627 0
0.029899985 -0.025210597 0.1178351 0.88660562 0.45402133 0.088290542 0
0.030754862 -0.027397467 0.11745422 0.94651914 0.29287454 0.13537353 0
-0.060309518 -0.020246657 0.11667419 -0.90205127 -0.41743276 0.10978802 0
-0.058270577 -0.02306932 0.11804838 -0.78469568 -0.61769384 0.05202882 0
0.027577354 -0.022107253 0.11728725 0.75427586 0.65654469 0.0041342215 0
-0.060883109 -0.017760664 0.11752032 -0.96690702 -0.18173912 0.17905781 0
0.022424707 -0.01708555 0.11728042 0.660721 0.75020218 -0.025386166 0
0.025328459 -0.019692494 0.1182919 0.69847655 0.71548653 -0.014480065 0
-0.060771942 -0.012531848 0.11726651 -0.95307469 0.20595905 0.22187731 0
-0.05987208 -0.011197907 0.11959573 -0.91378599 0.28217208 0.29218826 0
0.01405366 -0.010604849 0.11716008 0.56722707 0.82243627 -0.043034751 0
0.017584873 -0.013136567 0.11732376 0.59538615 0.80238324 -0.04118875 0
0.020138312 -0.014981278 0.11963122 0.63137877 0.77466798 -0.035361718 0
-0.060194373 -0.0097897481 0.11671188 -0.93468052 0.29257548 0.20192079 0
-0.059040848 -0.0072713494 0.11783032 -0.9143585 0.33498722 0.22744684 0
0.0077801924 -0.0064304671 0.11734773 0.52985269 0.84725362 -0.037650175 0
0.011671205 -0.0089794099 0.1174484 0.55146348 0.83293915 -0.04583076 0
-0.057149228 -0.0025761824 0.11725608 -0.87356317 0.43791476 0.21240988 0
-0.0017683732 -0.0009743658 0.11735355 0.45039415 0.89179718 -0.042929139 0
0.0025591415 -0.003311296 0.11762654 0.49383953 0.86838436 -0.045067616 0
0.0051669404 -0.0048030266 0.11761402 0.49889287 0.86418903 -0.065446369 0
-0.055486768 0.00063982932 0.11711381 -0.85065389 0.47907263 0.21651189 0
-0.053572308 0.003381324 0.11750632 -0.77627069 0.58974504 0.22272086 0
-0.016584078 0.0046647335 0.1173353 0.27038172 0.96197969 -0.038583007 0
-0.012204328 0.003323114 0.11745533 0.31050491 0.94978988 -0.038546745 0
-0.0076110349 0.001677505 0.11747615 0.36614344 0.92992771 -0.034256265 0
-0.0043628979 0.00031784465 0.11738211 0.41940942 0.90660375 -0.046534996 0
-0.051077757 0.0058554551 0.11790086 -0.56538844 0.80512834 0.17917663 0
-0.047501963 0.0075407452 0.11756617 -0.26235622 0.9622038 0.073027559 0
-0.042526025 0.0080168042 0.11760189 0.02208906 0.99920905 -0.033064485 0
-0.037558373 0.0078099477 0.11713306 0.050263483 0.99816263 -0.033838026 0
-0.032330509 0.0074345008 0.11749931 0.095590159 0.99487889 -0.032844331 0
-0.027479401 0.0069183344 0.11773971 0.11853914 0.99258846 -0.026770895 0
-0.022417696 0.0060848664 0.1172256 0.19996215 0.97937596 -0.028945154 0
-0.018930217 0.0053061196 0.11721356 0.24894182 0.96798313 -0.032196634 0
-0.012028283 -0.050478034 0.12247514 -0.23686826 -0.97035831 -0.04793863 0
-0.0076008835 -0.051406637 0.12223914 -0.1859435 -0.98088086 -0.057425868 0
-0.0026419321 -0.052287567 0.1225511 -0.15806691 -0.98546779 -0.062193919 0
0.0025420899 -0.053078081 0.12233684 -0.14720063 -0.98712081 -0.062645614 0
0.0072339321 -0.053756256 0.12259492 -0.12290225 -0.99059796 -0.06009018 0
0.012464268 -0.054092981 0.1223437 0.030044405 -0.99933785 0.020523161 0
0.017303701 -0.052910566 0.12316949 0.41380164 -0.88199776 0.22549537 0
0.021024544 -0.050781652 0.12228668 0.67254341 -0.67388642 0.30587986 0
-0.026241256 -0.045596965 0.12317542 -0.42781535 -0.90286171 -0.042600241 0
-0.022728892 -0.04710567 0.12255391 -0.37843859 -0.92489797 -0.036714319 0
-0.017678445 -0.048918437 0.12268118 -0.30199748 -0.95240372 -0.041530136 0
-0.0142623 -0.049955055 0.12322164 -0.27288812 -0.96073353 -0.050231282 0
0.023229992 -0.047626119 0.12252053 0.79320502 -0.50462872 0.34084547 0
0.025412373 -0.045312483 0.12065031 0.81981945 -0.48923799 0.29756036 0
-0.035401694 -0.040385216 0.12267434 -0.53502733 -0.84261543 -0.061195582 0
-0.032524385 -0.042135768 0.12232376 -0.5119639 -0.85757077 -0.04965378 0
-0.028625922 -0.044366471 0.12255007 -0.4630903 -0.88541615 -0.039820526 0
0.024495993 -0.044273883 0.12419153 0.80323327 -0.44747701 0.39316744 0
0.026646934 -0.041633017 0.12223256 0.84799749 -0.40511611 0.34173262 0
-0.042002272 -0.036107663 0.12279107 -0.55156559 -0.83227992 -0.055548541 0
-0.037964545 -0.038741589 0.12272198 -0.54245937 -0.83811432 -0.057465408 0
0.028274024 -0.037344802 0.12243208 0.89257157 -0.28880739 0.34627488 0
-0.05037621 -0.030246623 0.12253018 -0.59594703 -0.80244184 -0.030566137 0
-0.047576841 -0.032264229 0.12246926 -0.57839912 -0.81479627 -0.039516427 0
-0.044430766 -0.034473695 0.12274066 -0.56753594 -0.82165736 -0.052745767 0
0.029331017 -0.032696843 0.12298156 0.91599625 -0.19684558 0.34957507 0
0.030337803 -0.031584669 0.12082242 0.94018185 -0.14868653 0.30651328 0
-0.055839516 -0.025690718 0.12188886 -0.71059382 -0.70350903 0.011465407 0
-0.052753255 -0.028393403 0.1221548 -0.62470663 -0.78052449 -0.022871876 0
0.029434312 -0.027127376 0.12320212 0.94664419 0.1790189 0.26798686 0
0.030291663 -0.02864236 0.12135854 0.96310717 0.092063099 0.25288135 0
-0.05820173 -0.022557599 0.12237607 -0.86259294 -0.48713666 0.13649644 0
0.027578747 -0.022304257 0.12232544 0.82096076 0.5659793 0.075437434 0
-0.060271945 -0.016729269 0.12100118 -0.96672964 -0.042693544 0.25221235 0
-0.059553638 -0.018043714 0.12303234 -0.95029348 -0.10831666 0.29190719 0
0.022597123 -0.017029112 0.12259827 0.67056686 0.74101424 -0.035184104 0
0.025414051 -0.019654682 0.12245142 0.71888638 0.69501328 -0.012607789 0
-0.060176987 -0.013815613 0.12058964 -0.93041807 0.20763707 0.30200833 0
-0.059057686 -0.012318524 0.12267052 -0.91016787 0.2250357 0.3477836 0
0.014392522 -0.010538122 0.12213626 0.58258712 0.81101787 -0.05331099 0
0.017533522 -0.01281381 0.12254541 0.60057807 0.79814953 -0.047573049 0
0.020209484 -0.014824826 0.12398461 0.62800211 0.77771866 -0.027696239 0
-0.057609357 -0.0075184437 0.12264753 -0.88450873 0.31975931 0.3397032 0
0.0079963375 -0.0062410752 0.12232932 0.54062039 0.83884215 -0.063823827 0
0.011712688 -0.008705575 0.1224268 0.56043804 0.82617503 -0.057828207 0
-0.05598091 -0.0030627188 0.12182883 -0.83953762 0.43232831 0.32904243 0
-0.054393969 -0.0011580065 0.12322671 -0.81197792 0.45918724 0.36033171 0
-0.0012249033 -0.00097475795 0.12240944 0.44860676 0.89224845 -0.051426906 0
0.0025812206 -0.003016162 0.12255374 0.48483151 0.87212241 -0.065885603 0
0.0056317686 -0.0046956083 0.12330449 0.52909428 0.84717149 -0.048576277 0
-0.05245449 0.0024420477 0.12243538 -0.76636928 0.54951954 0.33272564 0
-0.049419899 0.0048897699 0.12483769 -0.6548304 0.66076761 0.36685595 0
-0.016118167 0.0047889594 0.12229487 0.29019263 0.95533669 -0.055858448 0
-0.01238938 0.0036262181 0.12219767 0.30808559 0.949866 -0.05326999 0
-0.0076911603 0.0019490677 0.12239155 0.37747943 0.92462331 -0.050803676 0
-0.0042427513 0.00048036769 0.1224203 0.41685268 0.90744209 -0.052750096 0
-0.050408658 0.005685736 0.12058393 -0.57711166 0.78402817 0.22856528 0
-0.047771581 0.0066305068 0.12264662 -0.44208801 0.87051493 0.21624516 0
-0.042060696 0.0080979625 0.12239978 -0.058881275 0.99816275 0.014288472 0
-0.037263725 0.0080168284 0.12260951 0.054109823 0.99751961 -0.045019586 0
-0.032734107 0.0076564364 0.12208485 0.098129235 0.99410963 -0.046007238 0
-0.027293863 0.0070878291 0.12283991 0.11865368 0.99164546 -0.050602522 0
-0.022488758 0.0063403598 0.12288816 0.18771031 0.98067552 -0.055138405 0
-0.01804091 0.0053462777 0.12297838 0.24371555 0.96796626 -0.060365744 0
-0.015179194 -0.050049346 0.12908331 -0.29451185 -0.95423722 -0.051905364 0
-0.012763808 -0.050593201 0.12755574 -0.24531987 -0.96722889 -0.065471366 0
-0.0076082549 -0.051741522 0.12744294 -0.19432604 -0.97861135 -0.067507304 0
-0.0027835499 -0.052608278 0.12739602 -0.16260555 -0.98365414 -0.077356212 0
0.002460354 -0.053448595 0.12745041 -0.14878599 -0.98552209 -0.081295528 0
0.0078002163 -0.053999033 0.12765744 -0.03089885 -0.99949574 0.0073155868 0
0.01251893 -0.053529259 0.12773383 0.24769175 -0.94430572 0.21664579 0
0.017156603 -0.051680829 0.12701651 0.52886951 -0.77353317 0.34920409 0
-0.026494052 -0.045739289 0.12775706 -0.42550477 -0.90336615 -0.053621262 0
-0.022431713 -0.047492202 0.12772943 -0.3680239 -0.92819297 -0.054919243 0
-0.017133337 -0.049345784 0.1275436 -0.29973084 -0.95248997 -0.054075867 0
-0.014860761 -0.049958166 0.12643576 -0.27776322 -0.95854777 -0.06351129 0
0.019390181 -0.048474077 0.12859227 0.71311581 -0.51152235 0.4793857 0
0.021393206 -0.046796449 0.12714592 0.75861412 -0.4787975 0.44187963 0
-0.035811186 -0.040527534 0.1275793 -0.5328877 -0.84285629 -0.074993446 0
-0.032315571 -0.0426085 0.12724854 -0.50072223 -0.86302453 -0.066827446 0
-0.028900571 -0.044505809 0.12734635 -0.4638316 -0.88373631 -0.062211547 0
0.023451148 -0.042562418 0.12779622 0.78738213 -0.41193286 0.45862919 0
0.025442664 -0.040994581 0.12562224 0.81964433 -0.39698398 0.41302171 0
-0.042198274 -0.036352865 0.12754551 -0.5582186 -0.82646608 -0.073115729 0
-0.038049892 -0.039064355 0.12723242 -0.54040492 -0.83783787 -0.07739646 0
0.024595615 -0.038608875 0.12910302 0.80641532 -0.34603694 0.47953376 0
0.026104828 -0.037334722 0.12720779 0.84450752 -0.29534119 0.44674465 0
-0.050621249 -0.030373121 0.12787227 -0.6156882 -0.78640574 -0.049940813 0
-0.047633123 -0.032544482 0.12744066 -0.58361393 -0.80958712 -0.062955804 0
-0.044645172 -0.034657396 0.12727425 -0.57403678 -0.81578237 -0.070575595 0
0.02714528 -0.032519102 0.12781367 0.86573565 -0.19690959 0.46013945 0
-0.055482592 -0.025662092 0.12706015 -0.795569 -0.59139842 0.13159743 0
-0.053016152 -0.02825043 0.12747231 -0.69079143 -0.72269034 0.02293073 0
0.027911447 -0.027712464 0.12762709 0.90793467 -0.00072355353 0.41911116 0
-0.057181466 -0.022201933 0.12735195 -0.89985681 -0.3186805 0.29782623 0
0.026952548 -0.022681346 0.12709488 0.88292503 0.4083648 0.23169267 0
-0.057866886 -0.017454688 0.12737843 -0.90179873 0.049325615 0.42933196 0
0.02294849 -0.017217968 0.12737946 0.71030074 0.70385057 0.0081942342 0
0.025098741 -0.019587385 0.12753692 0.80790824 0.57477462 0.13007069 0
-0.056692574 -0.012444781 0.12788053 -0.86237055 0.21760605 0.4571265 0
0.014602909 -0.010349615 0.12678961 0.5831449 0.81018043 -0.059579667 0
0.017699638 -0.012613406 0.12765561 0.61850703 0.78468633 -0.041429613 0
0.020250918 -0.014770445 0.12643871 0.65065765 0.7585097 -0.036162686 0
-0.055856727 -0.0081281699 0.12702684 -0.84508443 0.30154511 0.44147795 0
-0.054401636 -0.0069840783 0.1288705 -0.80623776 0.34286985 0.48210064 0
0.0082121156 -0.0059492481 0.1277381 0.54048294 0.83839065 -0.070563704 0
0.012064099 -0.0085300822 0.12774286 0.56354725 0.82364857 -0.063384138 0
-0.055118822 -0.0046792245 0.12569593 -0.81729591 0.40122342 0.41357848 0
-0.052689265 -0.0023976006 0.12782672 -0.77352834 0.43872297 0.45735779 0
-0.0012352737 -0.00063450047 0.12733355 0.44307706 0.89393938 -0.067492165 0
0.0024638618 -0.0025386948 0.12772691 0.48099479 0.87390429 -0.070251644 0
0.0059414548 -0.0045684478 0.12730487 0.51344532 0.85498357 -0.073328376 0
-0.050883729 0.0015199853 0.12682319 -0.74398458 0.5080018 0.43407497 0
-0.048737738 0.0033030524 0.12811528 -0.68567985 0.56721032 0.45619696 0
-0.015649065 0.0049746311 0.12739852 0.27220729 0.96021372 -0.062392086 0
-0.012283736 0.0039337813 0.12736243 0.30808833 0.9493317 -0.062055867 0
-0.0073077264 0.0021324723 0.12757823 0.36890391 0.9270311 -0.067255862 0
-0.0036913205 0.0006041489 0.12760678 0.42550194 0.90277708 -0.06278234 0
-0.046417184 0.0058961241 0.1273116 -0.48324278 0.81051457 0.33097214 0
-0.04264088 0.0074806991 0.12753254 -0.27251118 0.93963325 0.20694679 0
-0.037707034 0.0081612617 0.12747832 -0.01449074 0.9996717 0.021133071 0
-0.032670353 0.0078973137 0.12729892 0.10310409 0.99334955 -0.051246867 0
-0.027512763 0.0072997743 0.12713538 0.11975291 0.9919191 -0.041900754 0
-0.0225583 0.0066254986 0.12778488 0.17148514 0.98384428 -0.051412728 0
-0.017829182 0.0055715339 0.12734018 0.2522673 0.96564114 -0.062436469 0
-0.015462477 -0.050144676 0.13300323 -0.28351733 -0.95756251 -0.051884856 0
-0.012271188 -0.051005345 0.13252604 -0.24953139 -0.96715355 -0.048457727 0
-0.0074751466 -0.052117575 0.13262956 -0.20548606 -0.9768188 -0.060004298 0
-0.00252512 -0.053080283 0.13250251 -0.16734853 -0.98108524 -0.097294636 0
0.0026634892 -0.053662959 0.13275205 -0.044056948 -0.9978407 0.048713449 0
0.0073650293 -0.053386994 0.13283336 0.16804223 -0.94940013 0.26533249 0
0.012333638 -0.05187561 0.13240859 0.42135903 -0.7968145 0.43306276 0
0.015770715 -0.050689906 0.13085057 0.55195802 -0.6853407 0.4750267 0
-0.026728859 -0.045879748 0.13253959 -0.4188849 -0.9071275 -0.040683869 0
-0.022619626 -0.047631312 0.13228078 -0.36995363 -0.92833513 -0.036443535 0
-0.018067302 -0.049303565 0.13291043 -0.31319872 -0.94848955 -0.047688302 0
0.014159768 -0.049109276 0.13435738 0.58535963 -0.54822594 0.59732944 0
0.017381648 -0.047521636 0.13214028 0.6689918 -0.49360368 0.55570251 0
0.020383574 -0.045438081 0.13013059 0.74426728 -0.44660124 0.49660197 0
-0.036102735 -0.040716559 0.13208838 -0.52333301 -0.84971887 -0.064035527 0
-0.032673977 -0.042745676 0.13213328 -0.49467307 -0.86738813 -0.054189187 0
-0.029380916 -0.044589981 0.13282156 -0.46774307 -0.8828584 -0.042159885 0
0.018960075 -0.043344028 0.13361061 0.69601232 -0.41324499 0.58719283 0
0.021126619 -0.041994464 0.13179682 0.74253678 -0.39471814 0.54114395 0
-0.045205396 -0.03506951 0.13447046 -0.57447231 -0.79206079 -0.20644957 0
-0.042547386 -0.036580116 0.13256653 -0.55492395 -0.82754201 -0.085051231 0
-0.038723763 -0.039115634 0.13264129 -0.53807962 -0.83951795 -0.075365752 0
0.019953085 -0.039628711 0.13483629 0.71081901 -0.36242455 0.60281408 0
0.022798998 -0.037533142 0.13239487 0.77261275 -0.30701029 0.55571055 0
0.025000347 -0.035919122 0.13002481 0.83059406 -0.24466769 0.50025117 0
-0.050485831 -0.030507758 0.13209076 -0.68230301 -0.72828543 0.063740902 0
-0.047758024 -0.032857299 0.1326101 -0.62769479 -0.777062 -0.046625707 0
-0.044779409 -0.034863543 0.13060381 -0.57874191 -0.8116833 -0.07891845 0
0.023677308 -0.033112995 0.13314739 0.79233617 -0.20221527 0.57559747 0
0.02553441 -0.031840179 0.13090242 0.82663286 -0.18163948 0.53262109 0
-0.055058002 -0.025284067 0.13006878 -0.83617491 -0.45900488 0.30021021 0
-0.052482225 -0.02778836 0.13276957 -0.79795247 -0.5424186 0.26278135 0
0.024247078 -0.027784387 0.1338186 0.80301881 -0.10598108 0.58645445 0
0.025781251 -0.027858913 0.13157676 0.83699995 -0.089514971 0.53983146 0
-0.05557121 -0.021800658 0.13143271 -0.87860149 -0.15931095 0.45019925 0
-0.054061223 -0.022986522 0.13377072 -0.85034508 -0.16508609 0.49965966 0
0.024271805 -0.021858286 0.13316385 0.85341454 0.25290549 0.45576578 0
0.025628906 -0.023655629 0.13162848 0.87758392 0.18036242 0.4442023 0
-0.055894878 -0.017845886 0.13113141 -0.84536946 0.10282585 0.52419204 0
-0.054126933 -0.016819715 0.1335264 -0.80422682 0.13444276 0.57891655 0
0.022538949 -0.017640162 0.13256735 0.80851513 0.52833116 0.2591708 0
-0.055282895 -0.013052846 0.13067639 -0.83794361 0.19811758 0.50852716 0
-0.053529918 -0.012300829 0.13294058 -0.79092455 0.22296855 0.56984508 0
0.014772614 -0.010149191 0.13141786 0.58264399 0.81030172 -0.062746882 0
0.017564591 -0.012223437 0.13257779 0.64566958 0.76247275 -0.041785646 0
0.020444233 -0.014781906 0.13153934 0.71119374 0.69994038 0.06547451 0
-0.052236632 -0.0076597724 0.13249092 -0.76407063 0.31840998 0.56108034 0
-0.049627446 -0.0055065108 0.13455641 -0.70443934 0.37220055 0.60434413 0
0.0086789066 -0.0058767563 0.1325001 0.5462302 0.83535242 -0.06179747 0
0.012579404 -0.0085116541 0.13250193 0.56666666 0.82036966 -0.076697558 0
-0.050874583 -0.0034263134 0.13151701 -0.73895305 0.4104349 0.5343141 0
-0.048474405 -0.0019254383 0.13341361 -0.68631721 0.44177166 0.57775992 0
-0.00078668137 -0.00053667446 0.13178156 0.45294937 0.88990879 -0.053844295 0
0.0024897077 -0.00222464 0.13229886 0.47455281 0.87873125 -0.051293891 0
0.0062784948 -0.0043629855 0.13251133 0.51694775 0.8543908 -0.052739196 0
-0.046634763 0.0020284366 0.13226061 -0.65035504 0.51837391 0.5552718 0
-0.04350346 0.0037993768 0.13397302 -0.5581193 0.59912694 0.5740642 0
-0.012463837 0.004317739 0.13245697 0.31132492 0.94891149 -0.051417243 0
-0.0072041871 0.002405287 0.13248047 0.37598759 0.92554742 -0.044669807 0
-0.0033287641 0.00073776057 0.13280702 0.41884992 0.90694571 -0.044880506 0
-0.042085595 0.0061495039 0.13199972 -0.41480654 0.80838341 0.41767436 0
-0.037590042 0.0075069289 0.13240191 -0.19486447 0.94646013 0.25737327 0
-0.032250181 0.0079503385 0.13265561 0.0034788107 0.99698913 0.077462897 0
-0.027241336 0.0075861951 0.13249661 0.12943582 0.98713583 -0.093857087 0
-0.02255941 0.0068296753 0.13218237 0.17067532 0.98393989 -0.052270707 0
-0.017466195 0.00576651 0.13256542 0.24657506 0.96817017 -0.042978846 0
-0.01470436 0.005082353 0.13371167 0.27204362 0.96175689 -0.031874556 0
-0.015889032 -0.050321218 0.1376981 -0.32193574 -0.92439926 -0.20455627 0
-0.012518534 -0.051534452 0.13783592 -0.29941198 -0.91400975 -0.27374926 0
-0.0074006552 -0.05287331 0.13752793 -0.16999675 -0.97469842 -0.14513472 0
-0.0021970372 -0.053143431 0.13733955 0.042206477 -0.97971672 0.1958921 0
0.0026195731 -0.052587401 0.13744086 0.16183712 -0.90412253 0.39543799 0
0.0070946366 -0.051566206 0.13711236 0.32663554 -0.78875268 0.52074796 0
0.011089831 -0.050414015 0.13585573 0.49562398 -0.65578526 0.56947559 0
-0.027109932 -0.045882124 0.13756183 -0.42402148 -0.90515894 -0.029884381 0
-0.022575151 -0.047841571 0.13761657 -0.37234935 -0.92764533 -0.02881125 0
-0.018347979 -0.049414691 0.13721669 -0.33242205 -0.93892074 -0.089013174 0
0.0086423224 -0.049018569 0.13895972 0.4616062 -0.557289 0.69018024 0
0.012385506 -0.047206074 0.13740441 0.56020153 -0.49138391 0.66687036 0
0.015876276 -0.045499843 0.13549145 0.63006067 -0.4581373 0.62700379 0
-0.036977295 -0.04099898 0.13786566 -0.435251 -0.84027946 -0.32324436 0
-0.032749001 -0.043083988 0.13782237 -0.44631717 -0.87818754 -0.17201036 0
-0.029433798 -0.04475328 0.13737883 -0.44108787 -0.89699489 -0.029013457 0
0.013750646 -0.04330948 0.13883811 0.58389068 -0.40745014 0.70217949 0
0.016915075 -0.042059965 0.13664971 0.64951169 -0.38475084 0.65582108 0
-0.045257371 -0.035379529 0.13702297 -0.76139009 -0.62199944 0.18276134 0
-0.042450801 -0.037585743 0.13778028 -0.61318123 -0.78331113 -0.10213907 0
-0.038943905 -0.039385851 0.13644719 -0.48790088 -0.84998167 -0.1987053 0
0.014769708 -0.039591148 0.13995205 0.58772808 -0.35313365 0.72792333 0
0.017784679 -0.037810147 0.13802464 0.66037643 -0.31735617 0.68057919 0
0.020819133 -0.036188681 0.13563244 0.7242645 -0.27986509 0.63017184 0
-0.047326479 -0.032586433 0.13718456 -0.75236291 -0.58190465 0.30876699 0
-0.044720877 -0.034790341 0.13946205 -0.75126052 -0.49385959 0.43784747 0
0.018811131 -0.032860164 0.13889997 0.69409984 -0.18761897 0.69499969 0
0.021380996 -0.032669067 0.13620114 0.74318421 -0.19700849 0.6394254 0
-0.050915655 -0.027246924 0.13673159 -0.79791278 -0.34175733 0.49652496 0
-0.049172983 -0.027667765 0.13901162 -0.75842649 -0.2808437 0.58814639 0
0.01943987 -0.027956536 0.13929798 0.69442177 -0.10067406 0.7124908 0
0.022001902 -0.02756281 0.13662502 0.75007719 -0.096926503 0.65420908 0
-0.051712316 -0.022514703 0.13713895 -0.76779413 -0.031972829 0.6398983 0
-0.049566317 -0.022404457 0.13949235 -0.70354182 0.018626601 0.71040982 0
0.019520069 -0.022059558 0.13960034 0.70407498 0.030309502 0.70947856 0
0.021865074 -0.022435274 0.13696674 0.7736485 0.075816438 0.62906271 0
-0.051582653 -0.017635085 0.13685815 -0.74461192 0.11692137 0.65717769 0
-0.049199179 -0.017215261 0.13931923 -0.69850999 0.12006488 0.70545602 0
0.019070541 -0.016962474 0.13864467 0.75918615 0.34317395 0.55305326 0
0.020910101 -0.018090496 0.13668959 0.79863703 0.35185871 0.48823595 0
-0.051225558 -0.012667079 0.13603388 -0.73913109 0.21089146 0.63969529 0
-0.048744787 -0.012629202 0.13866332 -0.6874131 0.21101525 0.6949358 0
0.014525027 -0.010351904 0.13959086 0.75795436 0.50505096 0.41283011 0
0.017079107 -0.012702226 0.137659 0.75957286 0.54300445 0.3580437 0
-0.050491873 -0.0089079188 0.13541545 -0.7208674 0.30151764 0.62404907 0
-0.04758789 -0.007284292 0.13764295 -0.65993911 0.33651361 0.67174309 0
-0.044505704 -0.0055673011 0.13963372 -0.58506733 0.35645726 0.72844654 0
0.0091706524 -0.0057687578 0.13633911 0.47946239 0.83829492 -0.25957164 0
0.012598424 -0.0076217712 0.13751669 0.63592631 0.76935893 -0.060700886 0
0.015262027 -0.0097226491 0.13642977 0.70134377 0.71090287 0.052287187 0
-0.046478577 -0.0026379074 0.13609803 -0.64057928 0.42468679 0.63976502 0
-0.042984001 -0.0018948202 0.13876283 -0.56581926 0.43124855 0.70276117 0
-0.00082057843 -0.00023497778 0.13730226 0.43768206 0.89331865 -0.10205975 0
0.0024868413 -0.0018011354 0.13779387 0.43628886 0.87461299 -0.21143347 0
0.0067210034 -0.0039322427 0.13769369 0.4152022 0.8401323 -0.34897682 0
0.010340339 -0.0049741613 0.13966882 0.61449397 0.78849071 -0.026068438 0
-0.045199711 0.00034023856 0.13531101 -0.62235844 0.4732832 0.62343645 0
-0.042231761 0.0021398184 0.1365582 -0.55160737 0.53130919 0.64299291 0
-0.03824288 0.0032352323 0.13871548 -0.45459267 0.57513303 0.68012309 0
-0.034343764 0.0046019652 0.13991261 -0.33144748 0.70793933 0.6236701 0
-0.01224298 0.0045004026 0.13731907 0.32446 0.93552899 -0.13968267 0
-0.006944038 0.0024910877 0.13696849 0.37978297 0.92322946 -0.058414638 0
-0.0033044307 0.00095805037 0.13762173 0.40849653 0.90651619 -0.10657854 0
-0.037465088 0.0058965604 0.13628696 -0.34989989 0.78454316 0.51192003 0
-0.032850318 0.0065406822 0.13758798 -0.20146379 0.8787939 0.43258956 0
-0.027067503 0.0074370475 0.13769785 -0.10795859 0.95430553 0.27864999 0
-0.022418473 0.0074466034 0.13755096 0.092448317 0.99562591 -0.013508303 0
-0.017260499 0.0062279222 0.13733719 0.29197416 0.91306746 -0.28470832 0
-0.014055442 0.0055403444 0.13859253 0.32927257 0.80572897 -0.49232155 0
-0.021455053 -0.050452497 0.14269392 -0.33051059 -0.93376774 -0.13726071 0
-0.017456891 -0.051297076 0.14206629 -0.27452525 -0.95164531 -0.13786595 0
-0.012525137 -0.051913928 0.14265166 -0.025116257 -0.92720073 0.37372172 0
-0.0079665128 -0.051636986 0.14265017 0.11617693 -0.83821869 0.53281552 0
-0.0021714184 -0.051193923 0.14177752 0.17408413 -0.82258075 0.54134613 0
0.0019219765 -0.050874624 0.14079453 0.24400908 -0.75850731 0.60425675 0
-0.031409264 -0.045874514 0.14243926 -0.46559429 -0.86912507 -0.16686386 0
-0.027616229 -0.047481388 0.14224732 -0.37523234 -0.84085476 -0.390082 0
-0.023153128 -0.049083851 0.1416925 -0.3272149 -0.75006324 -0.57474822 0
-0.0052351728 -0.04960037 0.14494008 0.20765749 -0.7238242 0.65799457 0
-0.0014172115 -0.049172316 0.14396755 0.28038764 -0.66160202 0.69546068 0
0.0028348528 -0.047687341 0.14319743 0.37579414 -0.5524233 0.74404782 0
0.0068946276 -0.047163323 0.14134358 0.44807276 -0.49287802 0.74585652 0
0.010030569 -0.045127861 0.14063725 0.52117109 -0.44167879 0.73027432 0
-0.040225163 -0.040203046 0.14063431 -0.66794896 -0.55929607 0.49095029 0
-0.037257776 -0.041809756 0.1423724 -0.6486972 -0.66894519 0.36291072 0
-0.033431511 -0.04420292 0.14240327 -0.52005124 -0.85193467 -0.061268501 0
0.0045239166 -0.044419799 0.14449394 0.45668933 -0.48534369 0.74557114 0
0.007782883 -0.042857122 0.14334682 0.50208068 -0.41885686 0.75662005 0
0.011588836 -0.041960359 0.14121735 0.54557317 -0.37730983 0.74832284 0
-0.041460581 -0.037265953 0.1417769 -0.70317692 -0.5036341 0.50189137 0
-0.038879193 -0.038671922 0.14378096 -0.65949172 -0.49310139 0.5673815 0
0.009455706 -0.03836485 0.14449023 0.57988304 -0.37133041 0.72515464 0
0.012625908 -0.037668955 0.142409 0.57653016 -0.31125566 0.75546861 0
0.015570611 -0.036526233 0.14059146 0.60678774 -0.28857416 0.74063057 0
-0.046048701 -0.031357214 0.14084829 -0.71684664 -0.42751551 0.55078256 0
-0.043224484 -0.032802958 0.14305933 -0.69074523 -0.36247861 0.62568378 0
0.013537494 -0.032781564 0.14345387 0.62003827 -0.21708301 0.75394136 0
0.016399954 -0.032413606 0.14119101 0.63466734 -0.18552676 0.75018477 0
-0.046737365 -0.027493471 0.14168334 -0.67733467 -0.16019569 0.71802163 0
-0.044106867 -0.027148813 0.14403726 -0.64617491 -0.094105035 0.75736529 0
0.01396408 -0.027962586 0.14410751 0.65826851 -0.10932112 0.74480295 0
0.016775457 -0.027422395 0.14175974 0.64717591 -0.088039041 0.75724 0
-0.047095142 -0.022395218 0.14171398 -0.6478616 0.023044417 0.7614094 0
-0.044059027 -0.022019984 0.14423241 -0.65643722 0.037030511 0.75347126 0
0.014402513 -0.02226254 0.14409596 0.65979451 0.013781605 0.75131977 0
0.016896153 -0.022317406 0.14194678 0.65613192 0.0079978695 0.7546038 0
-0.046660803 -0.01776287 0.14165701 -0.64047468 0.10718582 0.76046264 0
-0.043782849 -0.017405866 0.14397535 -0.63831794 0.12729275 0.75917506 0
0.014017015 -0.017163176 0.1439601 0.66616201 0.13229682 0.7339794 0
0.016530719 -0.017704686 0.14180319 0.67630625 0.16924345 0.71691459 0
-0.04616566 -0.012652121 0.14101085 -0.62633073 0.20754932 0.75142074 0
-0.043112695 -0.012123711 0.14329468 -0.60740167 0.23920423 0.75752527 0
0.01310548 -0.01221748 0.14298388 0.69825053 0.37187928 0.61167961 0
0.01594107 -0.013403958 0.14045075 0.72623879 0.43870273 0.52926093 0
-0.045556877 -0.0090332171 0.14033742 -0.60539544 0.29728973 0.7383191 0
-0.042480484 -0.0075629875 0.14205202 -0.55867863 0.32880071 0.76142526 0
-0.039049834 -0.0068701212 0.1442368 -0.56575078 0.38912395 0.72698593 0
0.0089460965 -0.0065627159 0.1435869 0.65729064 0.50710112 0.55750996 0
0.01154536 -0.008119124 0.14168221 0.70857465 0.49502653 0.50286251 0
-0.041215371 -0.0032081534 0.14089151 -0.53305161 0.4012973 0.74486005 0
-0.037844129 -0.0026498178 0.14282574 -0.48889565 0.42922658 0.75943774 0
-0.034026861 -0.00083450013 0.14406101 -0.44482717 0.50009143 0.7429921 0
0.0035661801 -0.00097771327 0.14264676 0.5492838 0.82629287 0.12460929 0
0.0071538421 -0.0032156636 0.14205711 0.64672166 0.70283049 0.29627734 0
0.010010322 -0.0048086443 0.14035414 0.69398803 0.59952772 0.39868185 0
-0.036661938 0.0015924458 0.14096892 -0.43741316 0.50721747 0.74256319 0
-0.032416351 0.0026046748 0.14247373 -0.35584512 0.58431536 0.72934896 0
-0.027714515 0.0036933904 0.14360815 -0.26645544 0.68651438 0.67653501 0
-0.023110993 0.0044505345 0.14433104 -0.1754705 0.76999396 0.6134488 0
-0.01813864 0.0048817368 0.14478238 -0.060179833 0.81529838 0.57590526 0
-0.01163847 0.0048527527 0.14403354 0.11808904 0.88260317 0.45504579 0
-0.0069908518 0.0041067237 0.14213537 0.35048664 0.90996289 -0.22164549 0
-0.0024183819 0.0024174463 0.1421167 0.38539639 0.8879016 -0.25119767 0
0.0014576364 0.00078320288 0.14245428 0.49109188 0.87081748 0.022486867 0
-0.030848622 0.005511587 0.14036903 -0.2229041 0.79122889 0.5694477 0
-0.027329139 0.005835596 0.14107646 -0.17830719 0.83298576 0.52377599 0
-0.022479802 0.0062150965 0.14190502 -0.13709608 0.84636706 0.51465285 0
-0.017224161 0.006441996 0.1424277 -0.024301216 0.88258511 0.46952432 0
-0.012299803 0.0060525904 0.14236397 0.18317778 0.96367776 0.19434805 0
-0.0089127012 0.0053211763 0.14212659 0.31939998 0.93850189 -0.13113984 0
-0.020113746 -0.050085783 0.14501055 -0.17144231 -0.78738952 0.5921362 0
-0.016553005 -0.050263684 0.14538033 -0.069689237 -0.8049913 0.5891794 0
-0.012619908 -0.05022781 0.14549975 0.04514933 -0.80948216 0.58540601 0
-0.0090284245 -0.05012827 0.14518104 0.097008668 -0.81336778 0.57360446 0
-0.030601593 -0.045566645 0.14512341 -0.45568886 -0.65306795 0.6048553 0
-0.026945703 -0.04647113 0.14650236 -0.35792503 -0.71361744 0.6021958 0
-0.022631958 -0.047447167 0.14747067 -0.2464003 -0.75262249 0.61061144 0
-0.01755677 -0.048401564 0.14768505 -0.094947204 -0.78462029 0.61266297 0
-0.012421298 -0.048340343 0.14791885 0.05580746 -0.78072637 0.62237597 0
-0.0074870144 -0.047569379 0.14780875 0.20160101 -0.73552388 0.64680868 0
-0.0028625482 -0.046944484 0.14660297 0.32941794 -0.65378022 0.68121606 0
0.0011280859 -0.045655325 0.14563139 0.40068379 -0.56657904 0.72002822 0
-0.035684623 -0.040632378 0.14553821 -0.59903443 -0.53061825 0.5996682 0
-0.032285064 -0.042157933 0.14722489 -0.52167332 -0.58944654 0.61677355 0
-0.028236158 -0.043940242 0.14851664 -0.41664168 -0.66025078 0.62488294 0
-0.024326589 -0.044801526 0.1498962 -0.31283891 -0.7121008 0.6285255 0
-0.0019353855 -0.043849334 0.14912219 0.40148395 -0.6502232 0.6449964 0
0.0026967761 -0.042159565 0.14741175 0.50652683 -0.54452759 0.66852093 0
0.00579374 -0.041289076 0.14565486 0.54031199 -0.45546937 0.70753843 0
-0.036959872 -0.037170522 0.14698657 -0.63636011 -0.44240534 0.63192034 0
-0.033965129 -0.038539946 0.14889674 -0.59022689 -0.49507791 0.63759708 0
0.004206425 -0.038618017 0.14890486 0.595245 -0.47713789 0.64654678 0
0.0071668667 -0.037397809 0.14697255 0.62042332 -0.39690852 0.67641592 0
