# .PCD v0.7 - Point Cloud Data file format
VERSION 0.7
FIELDS x y z normal_x normal_y normal_z curvature
SIZE 4 4 4 4 4 4 4
TYPE F F F F F F F
COUNT 1 1 1 1 1 1 1
WIDTH 620
HEIGHT 1
VIEWPOINT 0 0 0 1 0 0 0
POINTS 620
DATA ascii
0.0076400498 -0.042564083 -0.0025435076 0.34759843 -0.21319409 -0.91308469 0
0.010558049 -0.0411635 -0.0010274459 0.87346727 -0.4420478 -0.20408043 0
-0.065214366 -0.035648309 -0.0010429769 -0.92463636 -0.27758327 -0.2607587 0
-0.062854148 -0.037545055 -0.002250944 -0.48936725 -0.2004333 -0.84873211 0
-0.057775155 -0.03766124 -0.0015627427 0.54393011 0.25517306 -0.79939151 0
-0.052578956 -0.037690315 -0.00070282456 -0.10885563 -0.064540289 -0.99196017 0
-0.047486249 -0.037514292 -0.00030727548 0.087007716 0.087599427 -0.99234873 0
-0.043215726 -0.0379025 -0.0001981649 0.089896426 0.019438805 -0.99576133 0
-0.039377257 -0.039992742 -2.7437067e-05 0.064936236 0.099053271 -0.99296111 0
-0.011499136 -0.038956977 -0.00016585398 -0.12221104 0.13075152 -0.98385388 0
-0.0072937165 -0.037706796 -0.00034067244 -0.041898571 0.050605483 -0.99783945 0
-0.0024835353 -0.037478317 -0.00081158732 -0.12546757 0.087783746 -0.98820645 0
0.0028826445 -0.037532594 -0.00074106501 -0.055400562 0.032160822 -0.99794614 0
0.0073906779 -0.037321951 -0.002565955 -0.32057387 0.15430823 -0.93457013 0
0.011622465 -0.037482012 -0.0019359112 0.74478424 -0.30218622 -0.59496218 0
-0.065987304 -0.032402024 -0.0012839721 -0.87786841 -0.23740055 -0.41591823 0
-0.062352084 -0.032387007 -0.0026670378 0.19002022 0.058077831 -0.98006082 0
-0.057195637 -0.032680869 -0.00076744444 0.059736647 0.036465872 -0.99754792 0
-0.052422222 -0.032444071 -0.000563571 0.17905629 0.065716878 -0.98164153 0
-0.047788505 -0.032426275 -0.00018619307 0.021937264 -0.00046931097 -0.99975926 0
-0.044155665 -0.034852106 -0.00015294309 0.23468128 0.30581355 -0.92271489 0
-0.0064278925 -0.033197444 -0.00019244858 -0.14885604 0.081096269 -0.98552787 0
-0.0022201783 -0.032593157 -0.00048083454 -0.1196143 0.054165073 -0.99134183 0
0.0026051945 -0.032159444 -0.00088350085 0.10718364 -0.035505127 -0.99360502 0
0.0075616799 -0.032599829 -0.0016864699 -0.47513333 0.15664436 -0.86585844 0
0.012504207 -0.032445878 -0.0022887834 0.54298854 -0.14568388 -0.8270064 0
-0.066560842 -0.027413858 -0.0018176995 -0.74816024 -0.10304753 -0.65546739 0
-0.062257648 -0.027527608 -0.0021350465 0.42440325 0.067224979 -0.90297431 0
-0.056980342 -0.027357209 -0.00065137562 -0.15847509 -0.040794339 -0.98651993 0
-0.052570414 -0.027482465 -0.0003552243 0.14779526 0.025908498 -0.98867851 0
-0.048609346 -0.027576635 -0.00021502419 0.062946111 0.014701775 -0.99790865 0
-0.0066571576 -0.028085748 -8.5137697e-05 -0.1072653 0.064295575 -0.99214935 0
-0.0021792979 -0.027656604 -0.00031851314 -0.047604628 0.023954351 -0.99857897 0
0.002450963 -0.027527967 -0.00086160551 -0.063823357 0.013348104 -0.99787194 0
0.0076849177 -0.027396871 -0.0010772288 -0.48344478 0.073144235 -0.87231362 0
0.012861893 -0.027606541 -0.0024758175 0.40843022 -0.069544829 -0.9101364 0
0.01507702 -0.025861161 -0.0010794789 0.9877826 -0.088175386 -0.12849404 0
-0.066854469 -0.02251113 -0.0018677268 -0.70244879 -0.00772883 -0.71169233 0
-0.062346306 -0.022500932 -0.0020279021 0.474154 -0.0066430415 -0.88041687 0
-0.056965251 -0.022480041 -0.00070183823 -0.13690546 -0.01742821 -0.99043083 0
-0.0525323 -0.022446629 -0.00029553904 0.12803216 0.017977612 -0.99160713 0
-0.049033217 -0.022328114 -0.00019458331 0.10377881 -0.006081528 -0.99458182 0
-0.0022668035 -0.022484316 -0.00026170004 -0.094889551 -0.0049629807 -0.99547547 0
0.0025339462 -0.022164615 -0.00087964936 -0.1293326 -0.0073625692 -0.99157393 0
0.0078170504 -0.022561843 -0.0010082209 -0.40644538 0.019081684 -0.91347581 0
0.012467721 -0.022424465 -0.0029216439 0.10461977 0.0058237757 -0.99449527 0
0.015237156 -0.022577982 -0.00088857557 0.9866305 -0.01712814 -0.16207077 0
-0.066773579 -0.017530572 -0.0017703694 -0.81447685 0.10294879 -0.57098955 0
-0.062050529 -0.017641226 -0.0020743541 0.54869246 -0.055425897 -0.83418494 0
-0.056995455 -0.017275153 -0.00063828117 -0.21636038 0.032741126 -0.97576439 0
-0.052296963 -0.017662371 -0.00034097829 0.1091316 -0.026900044 -0.99366325 0
-0.048642974 -0.017319709 -0.00020621208 0.1094382 -0.049208861 -0.99277478 0
-0.0052139917 -0.015379118 -5.7532525e-05 -0.24031942 -0.11898672 -0.9633736 0
-0.0026360538 -0.017463934 -0.00027469994 -0.089144476 -0.016434787 -0.99588311 0
0.002560003 -0.017647306 -0.00091191207 -0.051187709 -0.0049941512 -0.99867654 0
0.0078054038 -0.017287407 -0.0011274668 -0.44126984 -0.063420132 -0.89513063 0
0.012913664 -0.017492326 -0.0025614165 0.39411178 0.0620474 -0.91696566 0
0.015185338 -0.018785527 -0.00063572597 0.97024745 0.078604527 -0.22900067 0
-0.066026896 -0.012561681 -0.0015836143 -0.86778963 0.21439283 -0.44830444 0
-0.062235825 -0.012778016 -0.0025419951 0.30542174 -0.075995557 -0.94917977 0
-0.05757669 -0.012547429 -0.00065926934 0.10136928 -0.046632871 -0.99375534 0
-0.052508332 -0.012553113 -0.00056746736 0.15852135 -0.078567736 -0.98422462 0
-0.047691323 -0.012146882 -0.00021413015 0.058426898 -0.026918544 -0.99792874 0
-0.044723146 -0.010469043 -8.0980477e-05 0.26958019 -0.080833673 -0.95957929 0
-0.0060631544 -0.011667028 -0.00020284286 -0.17318752 -0.064227261 -0.98279244 0
-0.0024577449 -0.012619118 -0.00040097118 -0.085159279 -0.030432608 -0.99590248 0
0.0025829307 -0.012386291 -0.00090590335 0.090123266 0.023843983 -0.99564517 0
0.0075857304 -0.012506085 -0.0015418542 -0.4459025 -0.14317204 -0.88355696 0
0.012842306 -0.012487925 -0.0021352884 0.61805111 0.14428945 -0.77278292 0
-0.065354653 -0.0091237789 -0.0011136736 -0.90201646 0.31860688 -0.29130036 0
-0.062909178 -0.0074781617 -0.002439006 -0.41003913 0.16191761 -0.89758044 0
-0.057707395 -0.0074511897 -0.0013219827 0.50615704 -0.23250476 -0.83050978 0
-0.052455649 -0.0076715727 -0.00083244184 -0.035954077 0.0047711842 -0.99934202 0
-0.04728074 -0.0075590629 -0.00033241702 0.062814288 -0.04585075 -0.99697143 0
-0.043151934 -0.0063593052 -0.00022299221 0.10351339 -0.092619196 -0.99030638 0
-0.03995195 -0.0050893575 -0.00011173515 0.19391283 -0.31525454 -0.92898458 0
-0.011370321 -0.0055902735 -9.6059717e-05 -0.13457341 -0.17199092 -0.97586322 0
-0.0073932139 -0.0073161153 -0.00028824271 -0.067126453 -0.066841774 -0.99550295 0
-0.0025372237 -0.0074070445 -0.00069689879 -0.14824219 -0.09305378 -0.98456353 0
0.0026493443 -0.0072036921 -0.00070567726 -0.0076189633 -0.0034836933 -0.99996489 0
0.0072441092 -0.0076549309 -0.0023382821 -0.38783872 -0.16130801 -0.90750247 0
0.011873841 -0.0077289934 -0.0019489155 0.70879877 0.26363438 -0.65429443 0
-0.061839022 -0.0025795395 -0.0018555222 -0.68666047 0.38236058 -0.61830235 0
-0.05711126 -0.0025278577 -0.002353637 0.33571067 -0.21860442 -0.91624802 0
-0.052365232 -0.0022809044 -0.00074707234 0.062155809 -0.051095877 -0.99675769 0
-0.047475908 -0.0026184486 -0.00078907481 0.074957252 -0.071578026 -0.99461448 0
-0.042461414 -0.0024137062 -0.00034292639 0.047308121 -0.055281445 -0.99734944 0
-0.037890822 -0.0019799266 -0.00024764275 0.05134419 -0.074601032 -0.99589074 0
-0.032829292 -0.00072867732 -0.00018962267 0.059180584 -0.1413094 -0.98819494 0
-0.027295403 -0.00036772527 -8.6270673e-05 0.037712384 -0.25942203 -0.96502745 0
-0.021864178 -0.0004202151 -0.00016836397 -0.033680409 -0.21019349 -0.97707951 0
-0.016853968 -0.0015619319 -0.00023960216 -0.073909961 -0.14142533 -0.98718601 0
-0.012388146 -0.0023787795 -0.00031694144 -0.041858833 -0.068423092 -0.99677783 0
-0.0074887061 -0.0023343728 -0.00062163005 -0.11236709 -0.13481677 -0.98447859 0
-0.0023163124 -0.0023666066 -0.00077727175 0.11109102 0.097350843 -0.98903066 0
0.0025668514 -0.0026242065 -0.0014062939 -0.43832275 -0.29672071 -0.84842795 0
0.0077993427 -0.0025539382 -0.0026425906 0.23330207 0.15292704 -0.96030384 0
0.010809693 -0.0038024124 -0.0012593415 0.81840485 0.40695894 -0.40570655 0
-0.060481772 0.00072636828 -0.0012035959 -0.78719914 0.51021099 -0.34641349 0
-0.057625286 0.0024792666 -0.0022727353 -0.40923932 0.31178883 -0.85750276 0
-0.052503493 0.0025057769 -0.0020952139 0.35520884 -0.35600984 -0.86434001 0
-0.047522917 0.0025691492 -0.00066865416 0.0037314284 -0.012749317 -0.99991179 0
-0.042499859 0.002555547 -0.00085652742 -0.0014145464 -0.013554377 -0.99990714 0
-0.037499275 0.0022362282 -0.00054916181 0.054577816 -0.12654497 -0.99045831 0
-0.032557007 0.0026412068 -0.00038579971 0.011254036 -0.094026133 -0.99550605 0
-0.027692713 0.0025561561 -0.00037207978 -0.017496865 -0.08667545 -0.99608296 0
-0.022506328 0.0025418832 -0.00042044965 -0.0042500785 -0.067132883 -0.99773496 0
-0.017520141 0.0024958425 -0.00047750521 -0.027030811 -0.1156915 -0.9929173 0
-0.012577256 0.0024967643 -0.00080525433 -0.080397576 -0.14031373 -0.98683751 0
-0.0075794258 0.0025732899 -0.00081752718 0.13341713 0.17252584 -0.97592759 0
-0.0024405683 0.0027492018 -0.0012367523 -0.35054514 -0.35265517 -0.86761308 0
0.0027370283 0.0026028175 -0.0027543714 -0.053202312 -0.054627288 -0.99708843 0
0.0066214493 0.0020283572 -0.0019348973 0.61716837 0.44710541 -0.64745653 0
-0.056022041 0.0061004255 -0.0012612189 -0.63853502 0.63055199 -0.4412224 0
-0.052512702 0.0076636462 -0.0022775258 -0.3388997 0.3823235 -0.8596369 0
-0.047361385 0.0074085533 -0.0022905625 0.22588782 -0.31124359 -0.92309374 0
-0.04269401 0.0079082493 -0.0011312827 0.22055468 -0.39675233 -0.8910349 0
-0.037733536 0.0077055325 -0.0006629508 -0.026793763 0.067471065 -0.99736142 0
-0.032869607 0.007397389 -0.00087991834 -0.018109949 0.076685168 -0.99689084 0
-0.0273581 0.0076249545 -0.00089869526 0.0081315693 0.0028653236 -0.99996287 0
-0.022472326 0.0074381805 -0.00087051757 0.010910773 0.052097231 -0.99858236 0
-0.01747106 0.0074452707 -0.00079982646 0.022774963 0.11243667 -0.99339783 0
-0.012423917 0.00752356 -0.00078555342 -0.0040111747 -0.026737353 -0.99963444 0
-0.0073244413 0.0077109141 -0.0017037343 -0.29986927 -0.46562272 -0.83263069 0
-0.0026483655 0.0076624518 -0.0027631945 -0.054473292 -0.067619972 -0.99622297 0
0.0022303544 0.0071409009 -0.0017785698 0.53625119 0.58468789 -0.6087485 0
0.0051184283 0.0052667242 -0.00054868468 0.74866122 0.64787525 -0.14058495 0
-0.050974462 0.01073953 -0.0011853481 -0.56559968 0.74497664 -0.35370448 0
-0.04717768 0.01235139 -0.001966774 -0.3596997 0.60131556 -0.71346736 0
-0.042666636 0.012685141 -0.0027175667 -0.071794473 0.12343248 -0.98975247 0
-0.037731454 0.012282417 -0.0023224 0.14939982 -0.40053794 -0.90401828 0
-0.032511279 0.012522306 -0.0015831931 0.097110346 -0.45501503 -0.88517278 0
-0.027618367 0.012730323 -0.001451102 0.023004597 -0.44058082 -0.89741814 0
-0.022438722 0.012474795 -0.0014243743 -0.061712574 -0.47849292 -0.87592018 0
-0.017529786 0.01229162 -0.0018482617 -0.13765252 -0.54047078 -0.83002603 0
-0.012532849 0.012205886 -0.0026182551 -0.12147986 -0.29338282 -0.94824529 0
-0.0073837759 0.012720013 -0.0024241181 0.2135804 0.38099334 -0.89957076 0
-0.0028336409 0.011408962 -0.0017136326 0.49061361 0.66982871 -0.55733991 0
-0.042051956 0.015744083 -0.0014338212 -0.35173762 0.8240574 -0.44408336 0
-0.037276492 0.016722361 -0.0020486526 -0.18598168 0.67808253 -0.71106607 0
-0.032427378 0.017479649 -0.0021122708 -0.10183486 0.59541696 -0.79693681 0
-0.02793918 0.017596548 -0.0024313331 -0.022672188 0.46765935 -0.88361794 0
-0.022492817 0.017732952 -0.002186687 0.064196147 0.60951108 -0.79017407 0
-0.0173962 0.017061545 -0.0021848793 0.12194753 0.59427434 -0.79496342 0
-0.012853927 0.016468845 -0.0017956558 0.26586637 0.77321637 -0.57571822 0
-0.00913171 0.015493897 -0.0011350955 0.38726017 0.85008538 -0.35690945 0
-0.042164698 -0.060805555 0.0024466652 -0.3673833 -0.92772758 -0.065962009 0
-0.037481043 -0.062384233 0.0026444995 -0.27630132 -0.95528764 -0.10527665 0
-0.032533627 -0.063508712 0.0024170689 -0.16531831 -0.98270881 -0.083385937 0
-0.027451862 -0.06408447 0.0024422435 -0.042649567 -0.99339491 -0.10652544 0
-0.022648737 -0.063913822 0.0024625275 0.10593194 -0.98932028 -0.10011849 0
-0.017394174 -0.063098088 0.0025158839 0.20451604 -0.97443581 -0.092995554 0
-0.012602853 -0.061787579 0.002502688 0.32183018 -0.9443208 -0.068436153 0
-0.008979287 -0.060397852 0.0023918857 0.39892045 -0.91172618 -0.098071016 0
-0.051091924 -0.05581997 0.0025329203 -0.59317404 -0.79569113 -0.12255675 0
-0.047521256 -0.058173031 0.0022965998 -0.50265324 -0.85779226 -0.10738798 0
-0.044570461 -0.059759919 0.0022637744 -0.42261323 -0.90264344 -0.081442557 0
-0.033397272 -0.055031199 3.8817227e-05 0.048989557 0.045620129 -0.9977569 0
-0.027969014 -0.055824377 1.5039031e-05 0.0069480496 -0.19968736 -0.97983503 0
-0.021986868 -0.05543996 5.0624196e-05 0.008286342 0.047441375 -0.99883968 0
-0.019556142 -0.055102121 0.00017675229 0.19447438 -0.31588858 -0.92865175 0
-0.0065241875 -0.059182137 0.0023567339 0.47006285 -0.87926471 -0.077035181 0
-0.0022744492 -0.056566201 0.0024542387 0.56676608 -0.81938654 -0.085918143 0
-0.056199323 -0.051347092 0.0025838432 -0.72285211 -0.68685848 -0.075566471 0
-0.053585444 -0.053786851 0.0022446411 -0.65105671 -0.75180906 -0.1044426 0
-0.037689619 -0.054045204 6.5105181e-05 0.04191209 0.27069166 -0.96175325 0
-0.033345211 -0.054977633 4.5952947e-05 0.044504706 -0.043084145 -0.99807972 0
-0.017421773 -0.054515697 8.4127154e-05 -0.016234213 -0.012267407 -0.99979293 0
-0.012309059 -0.052716911 8.9258647e-05 0.050130997 -0.1163769 -0.99193913 0
-0.00031953576 -0.054788414 0.00019548887 0.58845675 -0.67771673 -0.44092926 0
0.0025519023 -0.052719794 0.0025748254 0.6784215 -0.73203075 -0.06225124 0
0.0051977406 -0.050133351 0.0030890743 0.74913096 -0.66230458 -0.012464315 0
-0.060660869 -0.045825623 0.0023414639 -0.81756663 -0.56349838 -0.11855134 0
-0.058804065 -0.048308939 0.002364035 -0.77597845 -0.61326605 -0.14752071 0
-0.050087351 -0.045754202 6.1603831e-05 0.32717505 0.22314285 -0.91823947 0
-0.047333136 -0.048101399 7.7591227e-05 -0.021800118 -0.012292865 -0.99968678 0
-0.0035544957 -0.046640672 8.7749053e-05 0.18788457 -0.2696535 -0.94445032 0
0.0071984008 -0.047555171 0.0025124217 0.80049706 -0.59526926 -0.069706894 0
-0.062638223 -0.042568758 0.0025591757 -0.86958832 -0.48210469 -0.10673024 0
-0.053012025 -0.042112198 3.7502436e-05 -0.018894807 0.02383134 -0.99953741 0
-0.036435138 -0.041110486 0.00021534177 0.073404782 0.21144159 -0.97463024 0
-0.032498617 -0.041651253 0.00035313648 0.01852669 0.13082457 -0.99123245 0
-0.027281178 -0.042014685 0.00033647846 0.0030492712 0.089979216 -0.99593896 0
-0.022632474 -0.041958723 0.00031166972 -0.040391013 0.096163087 -0.99454576 0
-0.017983746 -0.040986177 0.00026836942 -0.07491868 0.16605389 -0.98326665 0
-0.014768086 -0.040164448 0.00013048449 -0.22100969 0.30101657 -0.92765498 0
-0.00045081161 -0.043598983 3.4006811e-05 0.089735329 0.10658901 -0.99024552 0
0.0011338475 -0.041646142 2.3192408e-05 -0.17784049 0.12674932 -0.97586232 0
0.0094682965 -0.044152666 0.0021859817 0.86614299 -0.49113089 -0.092665166 0
0.010849566 -0.041569512 0.0026316012 0.89390486 -0.44254512 -0.071329616 0
-0.065516517 -0.036417302 0.0027340734 -0.93573147 -0.34322074 -0.08127825 0
-0.064482383 -0.038910359 0.0024568615 -0.9119252 -0.40230373 -0.080895551 0
-0.056316223 -0.036841605 0.00019420033 -0.12534723 -0.025549721 -0.99178386 0
-0.054488156 -0.039585222 0.00010961955 -0.3357923 -0.28552252 -0.89761931 0
-0.041266277 -0.036973372 0.00032549322 0.20395072 0.2005645 -0.95821607 0
-0.037527755 -0.037575498 0.00044916407 0.024214946 0.041833524 -0.99883115 0
-0.032459304 -0.037262384 0.00056947756 0.037443344 0.10374385 -0.99389899 0
-0.027434964 -0.037380181 0.00062452973 0.0030580652 0.12906936 -0.99163085 0
-0.022936821 -0.037409149 0.00052716851 -0.043486118 0.12056659 -0.99175239 0
-0.017706214 -0.037608381 0.0003137188 -0.025146522 0.022866942 -0.99942213 0
-0.012899037 -0.03712064 0.00026442131 -0.08123707 0.085698731 -0.99300367 0
-0.0096661663 -0.035718136 0.00012309979 -0.22875132 0.18294501 -0.9561401 0
0.0042052353 -0.036641102 3.1533746e-05 0.12732773 -0.14163685 -0.98169583 0
0.012772121 -0.037494786 0.0025268088 0.914074 -0.39797893 -0.077983223 0
-0.066615298 -0.03260294 0.0024617452 -0.96942949 -0.23576584 -0.067976095 0
-0.057872653 -0.033002075 0.00012425218 -0.081378624 -0.048000589 -0.99552679 0
-0.051160298 -0.031543624 1.9404422e-05 -0.24237224 -0.018834257 -0.97000051 0
-0.045704961 -0.031601626 0.00030529549 0.42888552 0.18987054 -0.88317978 0
-0.04234574 -0.03254829 0.00053396448 -0.00074675767 0.015868315 -0.99987382 0
-0.037589263 -0.032412834 0.00070730993 0.092104979 0.089475632 -0.99172109 0
-0.032613855 -0.032551073 0.00098475697 0.013880373 0.026197216 -0.99956042 0
-0.027672268 -0.032637239 0.00099040277 -0.0042455606 0.020776764 -0.99977505 0
-0.022378681 -0.032655496 0.00091683905 -0.019622292 0.016874924 -0.99966502 0
-0.017216554 -0.032512598 0.00074921531 -0.095165685 0.11049978 -0.98930949 0
-0.012569428 -0.032557137 0.00030596793 -0.037239168 0.028215121 -0.99890798 0
-0.0084562367 -0.031878073 0.00030401902 -0.090010002 0.047844529 -0.99479097 0
0.0057300823 -0.032658674 1.8548561e-05 -0.22149926 0.060409356 -0.97328758 0
0.014466648 -0.032577731 0.0021011773 0.95402515 -0.25696313 -0.15429164 0
0.015072983 -0.030473849 0.0032056675 0.9849025 -0.17297836 -0.006743582 0
-0.067567259 -0.02742007 0.0026983973 -0.98975974 -0.13853331 -0.034412928 0
-0.060169324 -0.025516437 7.4783464e-05 0.59761047 -0.01376028 -0.80166841 0
-0.059336301 -0.027111806 0.00014279314 0.033191893 -0.0072694975 -0.99942261 0
-0.046266504 -0.027183192 0.00059057999 0.24548307 0.052759081 -0.96796411 0
-0.042470325 -0.027350765 0.00052952324 0.034274228 0.011125748 -0.99935055 0
-0.037675828 -0.027492855 0.0010390644 0.055142719 0.023303004 -0.9982065 0
-0.032496896 -0.027750388 0.0010567678 0.0043410752 -0.00033577232 -0.99999052 0
-0.02745943 -0.027387328 0.0010562127 -0.0017117856 0.013258173 -0.99991071 0
-0.022400143 -0.02773286 0.0010218784 -0.015978925 0.00027637577 -0.99987227 0
-0.017588282 -0.027475711 0.00091468048 -0.02199173 0.0074741766 -0.99973023 0
-0.012549484 -0.027769638 0.00056220981 -0.097856164 0.045679122 -0.99415171 0
-0.0076132468 -0.027549276 0.00027510163 -0.034102581 0.0056145894 -0.99940252 0
-0.0049533108 -0.025984412 4.9302216e-05 -0.29037103 0.044166137 -0.95589441 0
0.0065398407 -0.028352765 1.8347471e-05 0.087644383 -0.030343229 -0.99568957 0
0.014841728 -0.029112771 0.00015784291 0.95757157 -0.15429546 -0.24341241 0
0.015508392 -0.027239595 0.002446498 0.98130596 -0.1569235 -0.11141598 0
-0.068019755 -0.022549048 0.002448733 -0.99591041 -0.045229226 -0.078209952 0
-0.060203515 -0.022145892 0.00010571801 0.42107412 -0.0051259045 -0.90701175 0
-0.059413243 -0.022473553 0.0001121017 -0.2612386 -0.015617262 -0.96514785 0
-0.053088799 -0.02010189 7.1772429e-06 0.73088992 -0.17508885 -0.65965444 0
-0.046538323 -0.022496762 0.00052935741 0.11746497 0.0026235823 -0.99307352 0
-0.042338099 -0.022474905 0.00063916884 0.093437605 -0.0025912432 -0.9956218 0
-0.037378453 -0.022683807 0.0010339586 -0.013619924 -0.0036153146 -0.99990076 0
-0.032332983 -0.022641072 0.0010765007 0.0051015331 -0.0057327044 -0.99997056 0
-0.027380584 -0.022621119 0.0010592068 -0.0087950658 -0.0024442847 -0.99995828 0
-0.02263126 -0.022396823 0.0010248056 -0.0017899327 0.0072456123 -0.99997211 0
-0.01754914 -0.022503117 0.00094069913 -0.024542321 0.017282836 -0.99954945 0
-0.012410871 -0.022278171 0.00070489908 -0.1513869 0.011361694 -0.98840928 0
-0.0074444669 -0.022407062 0.0003193134 0.013829879 0.0095667886 -0.99985856 0
-0.0047181854 -0.022063451 0.00010781889 -0.31230214 0.0038407927 -0.94997507 0
0.0075474302 -0.021566192 2.6423828e-05 0.20877843 -0.010757656 -0.97790372 0
0.015903687 -0.022526192 0.002257745 0.99515754 -0.0073207994 -0.098020233 0
-0.067763805 -0.01742843 0.0025682386 -0.98709035 0.13772413 -0.081759296 0
-0.060113817 -0.018443659 6.3898115e-05 0.42486671 -0.037180725 -0.90449208 0
-0.059312016 -0.017863432 0.00012544265 -0.16076563 0.054784112 -0.98547107 0
-0.05274985 -0.019885065 1.1433866e-05 -0.20670316 -0.19252655 -0.95927441 0
-0.046261225 -0.017543685 0.00052546384 0.21307354 -0.05326663 -0.97558308 0
-0.042583488 -0.01750917 0.0004893 0.082296655 -0.036127049 -0.99595279 0
-0.037521243 -0.017570052 0.0010116753 0.0029979625 -0.017464859 -0.999843 0
-0.03225242 -0.017648092 0.0010199981 0.0043059788 -0.019481795 -0.99980092 0
-0.027457517 -0.017438155 0.0010185535 -0.0079786582 -0.022095608 -0.99972403 0
-0.022402294 -0.017681237 0.0010084379 0.0010607156 -0.014839058 -0.99988931 0
-0.017296491 -0.017619243 0.00092635333 -0.019931832 -0.017719524 -0.99964428 0
-0.012489603 -0.017549703 0.00066787872 -0.14350644 -0.038861774 -0.98888612 0
-0.0074532302 -0.017334206 0.00030493742 -0.01623093 0.0048219953 -0.99985659 0
-0.0047605191 -0.019189736 7.2727373e-05 -0.26382926 -0.053211603 -0.96310061 0
0.015648343 -0.017559474 0.0025117463 0.98861837 0.10174867 -0.11081956 0
-0.066809028 -0.012377553 0.0023335924 -0.96994036 0.22310778 -0.097152531 0
-0.058387436 -0.012687043 0.00015626485 -0.022112736 0.0073574823 -0.99972838 0
-0.045431279 -0.013687264 0.00032421798 0.31494489 -0.10204619 -0.94360811 0
-0.042520497 -0.012502012 0.00038889755 0.0037622049 -0.019674314 -0.99979937 0
-0.037375357 -0.012580723 0.00068604574 0.13425802 -0.14149949 -0.98079187 0
-0.032642238 -0.012481226 0.00090609299 0.009362679 -0.024404354 -0.99965829 0
-0.027278153 -0.012620827 0.00091399468 -0.0044538663 -0.013396049 -0.99990034 0
-0.022471366 -0.012347909 0.00090660842 -0.0026510332 -0.0081096049 -0.99996358 0
-0.017526545 -0.012610547 0.00085164112 -0.033478331 -0.045853477 -0.9983871 0
-0.012501337 -0.01283724 0.00042276096 -0.052617751 -0.041974057 -0.99773222 0
-0.0082589453 -0.012703466 0.00030516364 -0.12699558 -0.075217292 -0.98904723 0
0.005392577 -0.011298639 2.8882238e-05 -0.1298026 0.12670837 -0.98341054 0
0.014578504 -0.011752986 0.0023286131 0.95621991 0.25714305 -0.13971715 0
0.015234217 -0.014151127 0.0028042591 0.97693563 0.20119084 -0.071546942 0
-0.065671332 -0.0082940534 0.0027243223 -0.94482493 0.32634383 -0.028381508 0
-0.064694449 -0.0059381803 0.0021710508 -0.91490805 0.39392427 -0.088129707 0
-0.056289684 -0.0073780715 0.00011236542 0.0027570522 -0.059243824 -0.99823976 0
-0.054863125 -0.0053814189 6.2416315e-05 -0.3880865 0.21304967 -0.89665979 0
-0.045075897 -0.0096833669 2.9561601e-05 -0.093122743 0.19750899 -0.97586805 0
-0.041819889 -0.0084704086 0.00024766207 0.13963485 -0.11874168 -0.9830578 0
-0.037635323 -0.0073921103 0.0003263574 -0.0082452456 -0.019689385 -0.99977219 0
-0.032541234 -0.0073861624 0.00042293733 0.028722268 -0.067656972 -0.99729514 0
-0.027249165 -0.007539548 0.00060853758 0.021325639 -0.10953284 -0.99375439 0
-0.022387229 -0.0078330887 0.00061033003 -0.031216444 -0.12753275 -0.99134296 0
-0.01743531 -0.0073796003 0.00034636224 -0.024080183 -0.027730983 -0.99932528 0
-0.01266308 -0.0077796062 0.0003146152 -0.042077135 -0.0616429 -0.99721092 0
-0.0092854304 -0.0093841897 0.00016340088 -0.20968068 -0.17896877 -0.96125132 0
0.013152948 -0.0074820542 0.0023586359 0.93065017 0.35663688 -0.081856638 0
-0.062917367 -0.0022213776 0.0024756503 -0.88055003 0.47099239 -0.052895058 0
-0.053712521 -0.0034229259 6.4120555e-05 -0.043782156 0.01764559 -0.99888521 0
-0.036285724 -0.0039006781 0.00021984194 0.11134557 -0.20898019 -0.9715603 0
-0.032374982 -0.00318079 0.00030061943 0.017205941 -0.089465357 -0.99584126 0
-0.027626248 -0.0027621172 0.00026841354 -0.0045920475 -0.03647837 -0.9993239 0
-0.022612734 -0.002933607 0.00026726013 -0.014145195 -0.070510566 -0.99741071 0
-0.017747618 -0.0035899903 0.00026994935 -0.063339621 -0.16481361 -0.98428881 0
-0.014448752 -0.0047743376 0.00025749803 -0.23243876 -0.30605239 -0.92320323 0
-0.00068228837 -0.00095882372 4.8865295e-05 0.36538547 0.25835633 -0.8942849 0
0.0096934028 -0.00054125465 0.0019121141 0.8395046 0.53287208 -0.1062046 0
0.011131667 -0.0029381269 0.0024618246 0.87641108 0.47713673 -0.06514848 0
-0.06082046 0.0012884528 0.0026544228 -0.8282823 0.5586822 -0.042692441 0
-0.059060443 0.0036752063 0.0022359879 -0.78942376 0.61214209 -0.045740869 0
-0.048839696 0.0027820412 3.8785365e-05 0.11156987 -0.17358454 -0.97847867 0
-0.0060199304 0.0040324619 6.8941357e-05 0.15522784 0.25406292 -0.95464981 0
-0.0039852154 0.0025749693 5.3374493e-05 0.0055976594 -0.065564126 -0.9978326 0
0.0076393774 0.0024971992 0.002535651 0.80700928 0.58963531 -0.032653872 0
-0.056532122 0.0066828257 0.002408338 -0.73316681 0.67672473 -0.067157395 0
-0.054023627 0.0091953045 0.0027754649 -0.66889012 0.74165291 -0.050368588 0
-0.043774489 0.0060788225 5.31242e-05 -0.13918681 0.10197361 -0.98500174 0
-0.012071636 0.0082325637 4.9231643e-05 -0.010364185 -0.088587321 -0.99601454 0
-0.0076238969 0.005436419 9.3847535e-05 0.027233781 0.034371246 -0.99903798 0
0.0028982651 0.0081049195 0.0027342546 0.69524819 0.71730071 -0.045931961 0
0.0053588916 0.0054441844 0.0022596761 0.77663106 0.62382054 -0.087704867 0
-0.051639985 0.011114494 0.0021958633 -0.59810901 0.79594779 -0.093449138 0
-0.048027754 0.013590601 0.0026796581 -0.5184806 0.8520124 -0.072475173 0
-0.032332499 0.010532172 7.4082027e-06 -0.062863454 0.37928957 -0.92314011 0
-0.026911965 0.011180218 4.2301155e-05 0.017352886 0.024509942 -0.99954897 0
-0.022169402 0.011170066 2.1023772e-05 -0.08023566 -0.21687697 -0.97289598 0
-0.019061103 0.010493619 2.885353e-05 0.0069565759 0.1711646 -0.98521787 0
-0.0057984022 0.014518386 0.00261488 0.46665192 0.88344073 -0.042054199 0
-0.0025877096 0.012534645 0.0024774617 0.55567306 0.82827735 -0.07200034 0
0.00047344912 0.010313001 0.0025572011 0.64720672 0.75884676 -0.072629303 0
-0.045210477 0.01520009 0.0026216789 -0.45755649 0.88687778 -0.063952774 0
-0.042565119 0.016348807 0.0024394316 -0.37891984 0.92300403 -0.066956796 0
-0.037294604 0.018156771 0.0026097836 -0.2679137 0.96079391 -0.071396045 0
-0.032649584 0.019151926 0.0025899592 -0.14771299 0.98809677 -0.042960208 0
-0.027456412 0.019642372 0.0024834848 -0.057740476 0.9972679 -0.046073098 0
-0.022567879 0.019580927 0.0027387461 0.081510589 0.99445724 -0.066414431 0
-0.017535686 0.018809635 0.0024606136 0.21922667 0.97407323 -0.055865493 0
-0.012572068 0.017398722 0.0026041889 0.31710652 0.94728565 -0.04575406 0
-0.0082786502 0.015734319 0.0022331886 0.41219625 0.91014814 -0.041528974 0
-0.04211304 -0.060855735 0.0072855824 -0.38212126 -0.92397469 0.015940234 0
-0.037577994 -0.062455896 0.0073786094 -0.27939007 -0.9601773 -0.0008974066 0
-0.032395367 -0.063579358 0.007597581 -0.14647925 -0.98912328 0.013374356 0
-0.027519114 -0.064144678 0.0077409195 -0.071000688 -0.9974677 0.0041296892 0
-0.022333656 -0.063981764 0.0074054589 0.11585381 -0.99310088 -0.018126791 0
-0.017214492 -0.063143685 0.0074080401 0.20987023 -0.97772539 -0.0027488044 0
-0.012253524 -0.061718434 0.0074107391 0.33562809 -0.94199234 -0.0020287074 0
-0.0090287849 -0.060477681 0.0076320218 0.39844784 -0.91719103 0.00014240414 0
-0.051214352 -0.055866946 0.0077827368 -0.59839183 -0.8011564 0.0086993324 0
-0.047601432 -0.058195651 0.0073580211 -0.49460787 -0.86904883 0.010826517 0
-0.044470523 -0.059832856 0.0073824557 -0.41454473 -0.90953988 0.029832277 0
-0.0064352062 -0.059214946 0.0077803796 0.4712308 -0.88199705 0.0047855228 0
-0.0026156362 -0.056884244 0.0076058912 0.56241924 -0.82684785 0.002689372 0
1.1343168e-05 -0.055002637 0.0065747588 0.61858851 -0.78564405 -0.010573683 0
-0.056198034 -0.051449869 0.0072926721 -0.7214886 -0.6923545 -0.0099718934 0
-0.053636305 -0.053887468 0.0074130734 -0.65828437 -0.75266647 -0.012447885 0
0.0023980041 -0.052922845 0.0075182924 0.66828102 -0.74390411 0.0026735598 0
0.0051861517 -0.050283313 0.0078775175 0.79030657 -0.61268806 0.005381451 0
-0.060618978 -0.046006825 0.0074666408 -0.82151723 -0.57018137 -0.0016240294 0
-0.058724407 -0.048550874 0.0075813672 -0.7856496 -0.61866677 -0.00245493 0
0.0071619023 -0.047749646 0.0075140907 0.79982412 -0.60023445 -4.0505773e-05 0
-0.062839545 -0.04239662 0.0074053071 -0.87514693 -0.48382974 -0.005152944 0
0.0095850294 -0.044211239 0.0073082331 0.85486215 -0.51879799 -0.0076986947 0
0.010895438 -0.041814685 0.007712095 0.8919729 -0.45189518 -0.013234976 0
-0.065564148 -0.036469072 0.0077686301 -0.93698555 -0.3493602 0.0023527367 0
-0.064514428 -0.039074879 0.007458563 -0.91548234 -0.40235749 -0.00072615838 0
0.012891278 -0.037465844 0.0073231799 0.92338979 -0.38379908 -0.0070331125 0
-0.066651396 -0.032651212 0.0074808327 -0.97545362 -0.2201938 0.0022206574 0
0.014498224 -0.033060528 0.0073540825 0.96105963 -0.27627069 -0.0062416526 0
0.015102531 -0.030566785 0.0075936452 0.98489368 -0.17312579 -0.0034510477 0
-0.06761051 -0.027365481 0.0074162357 -0.9914999 -0.12997316 -0.0059051793 0
0.015531951 -0.027406046 0.0074700504 0.99168938 -0.12844576 -0.0073352256 0
-0.0680153 -0.022665793 0.0073885266 -0.9993071 -0.037221882 3.9849067e-05 0
0.015928155 -0.02250218 0.0074453424 0.99974161 -0.022005985 0.0056896284 0
-0.067843221 -0.017544335 0.0075704353 -0.99485236 0.10102098 -0.0079766754 0
0.015778951 -0.017745038 0.0074579092 0.99627435 0.086133443 -0.004302274 0
-0.066967249 -0.01262986 0.0074499426 -0.9710601 0.2387902 -0.0046598185 0
0.014636241 -0.011257399 0.0076616812 0.9650616 0.26141328 -0.017865514 0
0.015299006 -0.014032939 0.0077253296 0.97931993 0.20214149 -0.0084433993 0
-0.065665536 -0.0081263557 0.007562249 -0.94212317 0.33526158 -0.0019098612 0
-0.064694703 -0.0057139364 0.0072647226 -0.90429461 0.42628673 -0.023041578 0
0.01329452 -0.0075132363 0.007717554 0.92569101 0.37796694 -0.015400831 0
-0.062957548 -0.0022673823 0.0077208467 -0.88290137 0.46955717 -0.0011208617 0
0.0097193811 -0.00042157705 0.0073530595 0.83789247 0.54582059 -0.0040148795 0
0.011196519 -0.0029324854 0.0074027753 0.882397 0.47042704 0.0086027626 0
-0.060903136 0.0012592683 0.0074495752 -0.83412284 0.55156988 -0.0031073671 0
-0.059119813 0.003740787 0.0072631151 -0.78438193 0.62012988 -0.01355858 0
0.0075965077 0.0026210316 0.0073950272 0.80502975 0.59319019 -0.0072480156 0
-0.056576252 0.0066806157 0.0076049194 -0.7181046 0.69591141 0.0057522589 0
-0.054016631 0.0091714803 0.0076908926 -0.68483496 0.72859877 0.012036292 0
0.0029814581 0.0080686454 0.0073776762 0.7080369 0.70615596 0.0052461666 0
0.0053842603 0.0054695951 0.0076413704 0.76130986 0.64838797 0.00051026797 0
-0.051569823 0.011210372 0.0075916806 -0.60702264 0.79468083 0.0024282208 0
-0.04796565 0.013693105 0.0073355087 -0.51353872 0.85806441 -0.0018610455 0
-0.0058541293 0.014524496 0.0075942706 0.45499256 0.89046842 0.0069163824 0
-0.0022105987 0.012405305 0.0074266549 0.54618263 0.83765244 -0.004786477 0
0.00046327303 0.010482965 0.0072597284 0.6791532 0.73371619 -0.020284666 0
-0.045294184 0.015169042 0.0079573896 -0.46392047 0.88584608 0.0073890723 0
-0.042703871 0.016323172 0.0074477117 -0.38626418 0.92238516 -0.0023695522 0
-0.037485749 0.018170372 0.007497347 -0.26722771 0.96363217 0.0015584454 0
-0.032351766 0.019222554 0.0075339326 -0.1468111 0.98915863 0.0034170821 0
-0.027525155 0.019710863 0.0075532417 -0.050692704 0.99867004 -0.0094064297 0
-0.022474166 0.019654196 0.0079322951 0.090397172 0.99590415 -0.0018075961 0
-0.017355088 0.018801562 0.007489162 0.22803544 0.97365278 0.00031819948 0
-0.012637383 0.017434511 0.0076078759 0.32675636 0.94510823 0.00083724078 0
-0.0082566077 0.015694587 0.0073310002 0.42144582 0.90681434 0.0084426561 0
-0.042168457 -0.060790688 0.012419984 -0.38680661 -0.9221608 0.00010979707 0
-0.037402626 -0.062513396 0.012196854 -0.28107527 -0.95968175 0.0027534827 0
-0.0325514 -0.063540727 0.012490704 -0.14821923 -0.98892069 -0.0081762811 0
-0.027337424 -0.064166099 0.012393872 -0.073586293 -0.99725968 -0.0076255854 0
-0.022432167 -0.06403628 0.012568036 0.11599258 -0.99324626 0.0027349663 0
-0.01747565 -0.063244633 0.012649634 0.20476308 -0.97880274 -0.0041552624 0
-0.012738095 -0.061901554 0.012593903 0.33138195 -0.94349498 0.0018379474 0
-0.0091006067 -0.06047529 0.012549926 0.3955178 -0.91844827 0.0042913551 0
-0.051048636 -0.055972867 0.012370823 -0.5804233 -0.81431478 -0.00052748021 0
-0.047480259 -0.058191042 0.01264811 -0.4917576 -0.8706997 0.0075107813 0
-0.044461962 -0.059779961 0.012581846 -0.42513022 -0.90512508 -0.003585906 0
-0.0063334061 -0.059132576 0.012456411 0.46513897 -0.88523668 0.0013273538 0
-0.0023989563 -0.056737565 0.012361526 0.56213158 -0.82701606 -0.0072489982 0
1.3584995e-05 -0.055005968 0.014431666 0.62852895 -0.77735054 -0.02602811 0
-0.056037877 -0.051569302 0.012618477 -0.72657174 -0.68694007 0.014381108 0
-0.053775787 -0.053776558 0.01240188 -0.66601586 -0.7459048 0.0069873156 0
0.0026500844 -0.052707579 0.012490984 0.67512017 -0.73769045 -0.005058757 0
0.0052217259 -0.050238464 0.012773377 0.71078622 -0.70340651 0.0014770741 0
-0.060644303 -0.046016935 0.012367515 -0.8266291 -0.56272811 -0.0046252599 0
-0.058742922 -0.048514269 0.01241875 -0.77206987 -0.63553351 0.002311755 0
0.0073299683 -0.047496628 0.012556248 0.81275308 -0.58252412 0.0099026002 0
-0.062728405 -0.042662129 0.012345282 -0.87113845 -0.49100739 -0.0054297629 0
0.0095525077 -0.044177663 0.01238728 0.85851431 -0.51269692 0.0097460989 0
0.010934391 -0.041730914 0.012808692 0.87951291 -0.47582209 -0.0070978254 0
-0.065521881 -0.03652598 0.0125386 -0.9405359 -0.339665 0.0044681723 0
-0.064502291 -0.039115071 0.012292081 -0.91608679 -0.40097544 -0.0019066284 0
0.012987191 -0.037384551 0.012353918 0.92758846 -0.37347865 -0.0096679293 0
-0.066609144 -0.032778036 0.012429838 -0.97207147 -0.23468491 -0.00024618063 0
0.014516932 -0.032898247 0.012506686 0.96606529 -0.25811243 -0.0097851353 0
0.015109878 -0.030458601 0.012359074 0.97751415 -0.21069461 -0.0085994089 0
-0.06765113 -0.027314965 0.012802533 -0.99159783 -0.12925445 -0.0052010776 0
0.015537856 -0.027511355 0.012462166 0.9918741 -0.12713671 -0.0046984563 0
-0.06802278 -0.022488244 0.012476412 -0.99971634 -0.023731783 0.0020209949 0
0.015938858 -0.022368273 0.012421181 0.99983412 -0.017102301 -0.0062718345 0
-0.067871921 -0.017588954 0.012693264 -0.9960025 0.089322142 -0.00073181494 0
0.015777651 -0.01750676 0.012550526 0.99629325 0.085871309 -0.00509329 0
-0.066982307 -0.012615948 0.012568525 -0.9693954 0.24550426 -0.00055216387 0
0.014678038 -0.01128879 0.012665108 0.9630813 0.26910433 -0.0075587193 0
0.01525744 -0.01370632 0.012763337 0.98164058 0.19067486 -0.004991245 0
-0.065709688 -0.0082732234 0.012524678 -0.94240528 0.33429843 0.01081057 0
-0.0647166 -0.0057284487 0.012442986 -0.9121576 0.40954682 0.015490163 0
0.013392266 -0.0076355943 0.012468555 0.92843562 0.37137306 -0.0094450191 0
-0.063097462 -0.0024975494 0.012350857 -0.88157946 0.47202525 -0.0031301568 0
0.0097031565 -0.0003864266 0.012364611 0.853966 0.52031654 -0.0035681531 0
0.011245645 -0.0030672415 0.012233098 0.87829322 0.47811574 -0.0025472254 0
-0.06089361 0.0012862018 0.012477431 -0.83995348 0.54264474 0.0038516817 0
-0.058999546 0.0038850729 0.012329979 -0.78316361 0.62179846 0.0046260506 0
0.0076567074 0.0025923715 0.012663812 0.80617213 0.59163892 -0.0070638563 0
-0.056491449 0.0067500547 0.012361497 -0.71728522 0.69677925 0.00077624666 0
-0.054018676 0.0091427118 0.012256527 -0.68365693 0.72978908 -0.0046018902 0
0.0032206767 0.0078297099 0.012530047 0.7172479 0.69680023 -0.0049847849 0
0.0053286557 0.0055600046 0.012900682 0.75523037 0.65543056 -0.006156404 0
-0.051350534 0.011377944 0.012569008 -0.61298966 0.79008919 0.0016711021 0
-0.047917426 0.013730888 0.012555742 -0.51318747 0.85827571 -0.0011800828 0
-0.0059510339 0.014554032 0.012336943 0.45038545 0.89283097 -0.0023964809 0
-0.0024497332 0.012588175 0.012389498 0.53632271 0.84399867 -0.0049214708 0
0.00054060342 0.010413354 0.012177213 0.66914707 0.74302381 0.012557766 0
-0.045320485 0.015164115 0.012501095 -0.45061597 0.89265156 -0.010883783 0
-0.042660587 0.016352095 0.012410326 -0.38751304 0.92186099 -0.0024202017 0
-0.037576642 0.018133435 0.012572062 -0.2692087 0.96308124 -0.0010882328 0
-0.03252079 0.019201279 0.012413691 -0.14889716 0.98884761 -0.0031650721 0
-0.027482959 0.019791337 0.012380859 -0.072276369 0.99731916 -0.011425821 0
-0.02258428 0.019679787 0.012301786 0.10609241 0.99432647 -0.0076959915 0
-0.017475246 0.018820342 0.012497025 0.21454856 0.97671223 -0.0014351354 0
-0.012592155 0.017429071 0.012580539 0.33264148 0.94301933 -0.0080113364 0
-0.0083141057 0.015695672 0.012614294 0.41833895 0.90828663 -0.0028115017 0
-0.041955698 -0.060906135 0.017455164 -0.38177401 -0.92423779 -0.0057572671 0
-0.037279502 -0.06255722 0.017559694 -0.27353275 -0.96185988 0.0023316711 0
-0.032543663 -0.063597813 0.017500151 -0.16323261 -0.98657513 -0.0049650255 0
-0.027547508 -0.064168736 0.017360387 -0.06615898 -0.99780893 -0.00042480417 0
-0.022186087 -0.063985169 0.017541489 0.11861806 -0.99293965 0.0007868355 0
-0.01768267 -0.063297324 0.017590391 0.19814031 -0.98017353 -0.00054665341 0
-0.012508016 -0.061823204 0.017412568 0.33476692 -0.94229811 -0.002332544 0
-0.00903631 -0.060456287 0.0175019 0.41695461 -0.90892214 -0.0030621195 0
-0.051027291 -0.055927265 0.017344633 -0.59515882 -0.80347192 0.014793837 0
-0.04775501 -0.058049057 0.017513312 -0.50435156 -0.86349034 -0.003741781 0
-0.044537712 -0.059762899 0.017409591 -0.43809327 -0.89892656 -0.0023107284 0
-0.0064444533 -0.05919129 0.017314587 0.46108437 -0.88735378 -0.0020887782 0
-0.0023623842 -0.056730978 0.017552195 0.56128538 -0.82762045 0.0017582849 0
-0.05626867 -0.051224589 0.017546907 -0.7238341 -0.68988508 0.011086363 0
-0.053602125 -0.053815439 0.017320475 -0.66467339 -0.74699783 0.014263079 0
0.0024394281 -0.052907396 0.017813146 0.66773891 -0.74439442 -0.0012916224 0
0.0052329046 -0.050234169 0.017284786 0.77964747 -0.62621748 -0.0012019943 0
-0.060744382 -0.045913234 0.017491935 -0.83350295 -0.55244786 -0.0086117126 0
-0.058611739 -0.048621897 0.017543731 -0.75840533 -0.65168327 0.011411579 0
0.0072642262 -0.047601413 0.017596928 0.80277735 -0.59617764 -0.010990876 0
-0.062837996 -0.042493071 0.017432276 -0.87558639 -0.48306149 -0.00013401978 0
0.009596834 -0.044211302 0.017509991 0.85478079 -0.51874411 0.015950568 0
0.011018064 -0.04171332 0.017835032 0.88320345 -0.46898991 0.00038273106 0
-0.065499544 -0.036596678 0.017446272 -0.94283688 -0.33323202 -0.0038760481 0
-0.064556874 -0.039020173 0.017762624 -0.91617912 -0.40075836 0.0029384147 0
0.012876756 -0.037761971 0.017631011 0.92316401 -0.38405535 -0.016420832 0
-0.066684194 -0.032509316 0.017399807 -0.97227591 -0.23381838 -0.002924449 0
0.014502428 -0.033126034 0.017594468 0.9653036 -0.26107043 -0.005584748 0
0.01512503 -0.030521 0.017342947 0.97880656 -0.20478444 0.0010770571 0
-0.067638837 -0.027344966 0.017387917 -0.99169111 -0.12853239 0.005306887 0
0.015564698 -0.027457776 0.017830916 0.99265516 -0.12089619 -0.0044633122 0
-0.067999959 -0.022615857 0.01757976 -0.99969983 -0.023840977 0.0056436374 0
0.015961858 -0.022437522 0.017412528 0.99981606 -0.019033186 -0.0023971444 0
-0.067859389 -0.017631128 0.017507369 -0.99497646 0.10010828 0.00017734201 0
0.015786223 -0.017388193 0.017267263 0.99544996 0.095044665 -0.0067776637 0
-0.066951565 -0.012568318 0.017577853 -0.96973765 0.24404332 0.0071927621 0
0.01468397 -0.011128098 0.017474853 0.96213371 0.27257752 -0.00030892424 0
0.015264978 -0.013643035 0.017287973 0.98268473 0.18525775 -0.0032022314 0
-0.065702297 -0.008411902 0.017751541 -0.94187438 0.33592266 0.0053409948 0
-0.064653538 -0.0057177921 0.017561998 -0.92356217 0.3834486 0.00038169339 0
0.01336817 -0.0074819848 0.017502295 0.92337132 0.38378695 -0.0096459324 0
-0.063070282 -0.0024461336 0.017391117 -0.88371652 0.46802211 -0.00059788732 0
0.0097007733 -0.00034146427 0.017036324 0.84814709 0.52971679 -0.0068210755 0
0.011164451 -0.0028532967 0.017309302 0.87537253 0.48336145 -0.0092002042 0
-0.060792644 0.0014080162 0.017681522 -0.83208328 0.55465066 -0.00037155888 0
-0.059089776 0.0037161238 0.017300572 -0.78686923 0.61711925 0.00087113481 0
0.007692765 0.0026028834 0.017639382 0.81023878 0.58603078 -0.0090113161 0
-0.056545239 0.0066761058 0.017693371 -0.72752231 0.68607664 0.0031888259 0
-0.054007381 0.0091662332 0.017547755 -0.66755503 0.7445603 0.00048829499 0
0.0030306128 0.008017798 0.01729307 0.70868784 0.70551884 0.002163368 0
0.0054369057 0.0055031353 0.017683366 0.75105959 0.65977448 -0.024642 0
-0.051281121 0.011406422 0.017314753 -0.61024886 0.7922042 0.0029621092 0
-0.047904901 0.013742355 0.017465124 -0.52641821 0.85021567 0.0041423966 0
-0.0058577824 0.014606375 0.017640907 0.43538293 0.89984077 -0.026988514 0
-0.0025648547 0.012685275 0.017538354 0.55451089 0.83217597 -0.00083384308 0
0.00047545927 0.010415397 0.017856522 0.64689273 0.76248401 0.012160041 0
-0.045382746 0.015222442 0.017785002 -0.4106369 0.91176683 0.0076508955 0
-0.042332426 0.016528457 0.017541086 -0.37112814 0.92857862 -0.0023768388 0
-0.037305787 0.018223032 0.017460803 -0.27120167 0.96252036 -0.0020702661 0
-0.032387093 0.019278662 0.017359573 -0.15754072 0.98736155 -0.017266896 0
-0.027788205 0.019826325 0.017666837 -0.074702285 0.99714625 -0.010903569 0
-0.022570852 0.019678794 0.017800771 0.12207741 0.99251515 -0.0032924784 0
-0.017496334 0.018858561 0.017392404 0.21649455 0.97627997 -0.0027285651 0
-0.012505208 0.017449921 0.017341398 0.32741082 0.94478422 -0.013601056 0
-0.0084359925 0.015812455 0.01759454 0.41112909 0.91145837 -0.014716577 0
-0.025335848 0.020009749 0.018263297 -0.016017493 0.99954122 -0.025707208 0
-0.024912827 0.020023765 0.016681351 0.16637731 0.98606074 0.0016833668 0
-0.041928489 -0.060927816 0.022462219 -0.37447801 -0.92722964 0.0033705637 0
-0.037582621 -0.062465746 0.022714067 -0.29012036 -0.95697498 -0.0053880019 0
-0.032564092 -0.063622013 0.022612968 -0.156748 -0.98762161 -0.0057997969 0
-0.0275419 -0.06415163 0.022349196 -0.038869489 -0.9992286 0.0055974997 0
-0.022613971 -0.064025588 0.022577012 0.092010327 -0.99575794 0.00052050938 0
-0.017464003 -0.063256212 0.022413392 0.2075218 -0.97822207 0.0040193973 0
-0.012432592 -0.061825003 0.022249022 0.3323679 -0.94314104 -0.0040839082 0
-0.0089921486 -0.060456403 0.022233717 0.42399904 -0.90565705 -0.0031812019 0
-0.050962422 -0.055904515 0.022434566 -0.60934174 -0.79290676 -0.0011994309 0
-0.047341462 -0.058270529 0.022477197 -0.49913824 -0.86651897 0.0024086942 0
-0.044629168 -0.059737869 0.022391297 -0.43288329 -0.90137136 -0.011906691 0
-0.0065495116 -0.059252776 0.022530722 0.46753511 -0.883973 0.0016321255 0
-0.0025221843 -0.056813087 0.022442317 0.5613814 -0.82750249 0.0095191561 0
4.3398114e-07 -0.055032004 0.020230502 0.64743352 -0.76203889 0.011250665 0
-0.056158498 -0.051265877 0.022123409 -0.72883737 -0.68437791 0.020564495 0
-0.053580578 -0.053756658 0.022273716 -0.65748179 -0.75346082 0.0037968745 0
0.0024926767 -0.052823737 0.022499815 0.67559475 -0.73725271 0.0054867682 0
0.0051651639 -0.050201911 0.022915293 0.77483779 -0.63216007 -0.00022005597 0
-0.06069345 -0.045946755 0.022712529 -0.81330204 -0.58139765 0.02273071 0
-0.058529045 -0.048635241 0.022245185 -0.75561923 -0.65480423 0.016463121 0
0.0073475479 -0.047503293 0.022661084 0.79829174 -0.60227066 -0.00071268401 0
-0.062740229 -0.042605795 0.02243758 -0.8742348 -0.48543233 0.0083030807 0
0.0095876902 -0.044296883 0.022523144 0.85462779 -0.5191707 -0.0085457321 0
0.011017368 -0.04174893 0.02243471 0.88324529 -0.46880823 -0.0098335743 0
-0.065575652 -0.036439437 0.02240888 -0.94092613 -0.33857721 0.0048400303 0
-0.064580217 -0.03896717 0.022430254 -0.90928411 -0.41606635 0.0095457518 0
0.012912874 -0.037692741 0.022547845 0.92460483 -0.38092086 0.002294153 0
-0.066706084 -0.032480605 0.022427879 -0.97324646 -0.22975096 0.0024109026 0
0.014521944 -0.033044655 0.022562165 0.96457934 -0.26347116 0.013023708 0
0.01511973 -0.030573519 0.022460587 0.97909522 -0.20331278 0.0060434607 0
-0.067645319 -0.027334584 0.022474956 -0.99235308 -0.12330107 -0.0056811729 0
0.015581897 -0.027661031 0.022529483 0.98985475 -0.14178059 -0.0092763845 0
-0.067985371 -0.022342745 0.022340665 -0.99981582 -0.01911252 0.0017863988 0
0.016001362 -0.022689074 0.022499697 0.99959612 -0.02464712 -0.014146367 0
-0.067824326 -0.017579298 0.022580955 -0.99587286 0.090202607 0.010034638 0
0.015845332 -0.017533971 0.022819454 0.99581313 0.091196626 -0.0062674461 0
-0.066861421 -0.012396874 0.022643471 -0.96661645 0.25605956 0.0092805214 0
0.014734098 -0.011176407 0.022475978 0.9677906 0.2513943 -0.013499025 0
0.015270763 -0.013505905 0.022675794 0.9798187 0.19956854 -0.011302519 0
-0.065625779 -0.0082743932 0.022261601 -0.94252783 0.33412737 0.000317336 0
-0.064685538 -0.0058142855 0.022619868 -0.92547429 0.37876374 0.0059537948 0
0.013385094 -0.0074069058 0.022465253 0.92189121 0.38741952 -0.0047746291 0
-0.062985204 -0.0023058634 0.022259185 -0.88344365 0.46852687 0.0031442686 0
0.0097982306 -0.00041353388 0.02269027 0.8644762 0.50267088 -0.00168977 0
0.011132606 -0.0027174032 0.022191955 0.87604141 0.48223355 -0.0015077072 0
-0.06092925 0.0012122078 0.022583636 -0.83134621 0.55569428 0.0082111033 0
-0.058954626 0.0038974171 0.022424797 -0.77710658 0.62936383 0.0025656545 0
0.0077731581 0.0025858718 0.022534337 0.80942726 0.58719128 -0.0058196359 0
-0.056564815 0.0066436203 0.02250581 -0.72892278 0.68459558 0.00068701274 0
-0.054080952 0.0091030747 0.022463152 -0.67309213 0.73955262 -0.0029740946 0
0.0028779493 0.0081938636 0.022475315 0.68439931 0.72909689 -0.0039125318 0
0.0054531074 0.0055768988 0.022252394 0.76995188 0.63810128 0.00088963588 0
-0.051522605 0.01122193 0.022332717 -0.61140919 0.79130059 -0.0047008782 0
-0.04789586 0.013699681 0.0225471 -0.51573396 0.85666412 0.012042724 0
-0.0056689125 0.014580459 0.022136683 0.46510673 0.88525444 -0.00054212083 0
-0.0023116337 0.012457943 0.022578273 0.57366002 0.81903321 0.0099352514 0
0.00042320348 0.010389378 0.022284428 0.64371276 0.76526093 0.0030921581 0
-0.04525866 0.015205338 0.022730539 -0.45706302 0.88935024 0.012226809 0
-0.042670731 0.016383845 0.022525143 -0.39269811 0.91966623 0.0015326752 0
-0.037609294 0.01815005 0.022453299 -0.26766622 0.96349323 -0.0059694764 0
-0.032550294 0.019286202 0.022574695 -0.16415519 0.98643285 0.001804987 0
-0.027616911 0.019841375 0.022384297 -0.065254889 0.99782389 0.0094445273 0
-0.022343896 0.019675614 0.022362441 0.11538826 0.9932816 -0.0087847579 0
-0.01769351 0.018937396 0.022631599 0.20373756 0.97897178 -0.010254323 0
-0.012449533 0.017483348 0.022449221 0.322074 0.94671404 0.0009652226 0
-0.0081962198 0.015787279 0.02237764 0.40899187 0.91242123 -0.014599817 0
-0.026065355 0.020012273 0.020425644 -0.033602409 0.99902374 -0.028677771 0
-0.045267567 -0.060181756 0.029387208 -0.4491145 -0.88973778 0.081625938 0
-0.042249944 -0.060865477 0.028075345 -0.40165493 -0.86704379 0.29480216 0
-0.037347279 -0.062215429 0.027872384 -0.23761222 -0.80533141 0.54312211 0
-0.032596271 -0.062914796 0.027825084 -0.040518031 -0.48991936 0.87082565 0
-0.027442483 -0.06338264 0.027825976 -0.065095149 -0.50752085 0.85917705 0
-0.022498228 -0.063242301 0.02789586 0.044880711 -0.3919836 0.91887683 0
-0.017711297 -0.062695466 0.027716482 0.15358475 -0.61820501 0.77086598 0
-0.012543255 -0.061668795 0.028096884 0.14845061 -0.62642413 0.76521581 0
-0.0085533671 -0.060591843 0.028108276 0.41171062 -0.90577674 -0.10031419 0
-0.05117378 -0.055995367 0.028224213 -0.59126687 -0.80623972 0.019520376 0
-0.047413185 -0.057782531 0.027903212 -0.28819716 -0.51408505 0.80787307 0
-0.042695418 -0.05789721 0.027405968 0.061578952 0.14327516 0.98776525 0
-0.037614606 -0.057424996 0.027083008 0.013885977 0.059632059 0.99812388 0
-0.032589387 -0.057533 0.02698379 0.024291296 0.12108643 0.99234474 0
-0.027415503 -0.057827059 0.026981575 6.4964384e-05 0.16188496 0.98680961 0
-0.022208827 -0.057554677 0.027007135 -0.013627704 0.094598167 0.99542224 0
-0.017519351 -0.057790268 0.027112614 -0.016744653 0.082741521 0.99643034 0
-0.012534806 -0.057427727 0.02715694 -0.06408646 0.15869707 0.98524523 0
