# .PCD v0.7 - Point Cloud Data file format
VERSION 0.7
FIELDS x y z normal_x normal_y normal_z curvature
SIZE 4 4 4 4 4 4 4
TYPE F F F F F F F
COUNT 1 1 1 1 1 1 1
WIDTH 631
HEIGHT 1
VIEWPOINT 0 0 0 1 0 0 0
POINTS 631
DATA ascii
-0.0026086748 0.0025930842 -0.00025615955 0.0057753036 0.0082698092 -0.99994916 0
0.0024920432 0.0024736824 -0.00021519129 0.012087693 0.0068507451 -0.99990344 0
0.0076525812 0.002288372 -0.00015148017 0.010589626 0.00023318404 -0.99994391 0
0.010436469 0.0016380133 -0.00010670953 0.21834481 0.047647022 -0.97470778 0
-0.041192863 0.0074376888 -2.2456305e-05 -0.024032608 0.0013242551 -0.99971026 0
-0.037531853 0.0074757356 -0.00010669606 -0.022528596 0.0017171032 -0.99974465 0
-0.032391887 0.0076508406 -0.00019568943 -0.012602545 0.0048963814 -0.99990857 0
-0.027615946 0.0074224523 -0.00024425195 -0.0072863116 0.0038306643 -0.99996608 0
-0.022443699 0.0074926503 -0.00027002909 0.0015831434 -0.0027493346 -0.99999493 0
-0.017469715 0.0074737286 -0.00025919452 -0.0016797557 -0.00012170656 -0.99999857 0
-0.012709282 0.0076566101 -0.00026221221 0.0011441914 0.00015226955 -0.99999934 0
-0.0074824006 0.0076105576 -0.00024979119 0.0038636473 0.0012693809 -0.99999171 0
-0.0025275454 0.0077059497 -0.0002214471 0.0064482284 0.0029240518 -0.99997491 0
0.0022546663 0.0074660485 -0.00018514463 0.011285523 0.0053783394 -0.99992186 0
0.0073803295 0.0073902635 -0.00013083188 0.041549478 0.012612971 -0.99905682 0
-0.040969208 0.011456781 -1.264051e-05 -0.022468014 0.0091244597 -0.99970597 0
-0.037438158 0.012224586 -7.7306235e-05 -0.019284535 0.011019466 -0.9997533 0
-0.032275446 0.012531473 -0.00015514446 -0.01281059 0.012812229 -0.99983585 0
-0.027340412 0.012716033 -0.0002107872 -0.020012239 0.0083729606 -0.99976462 0
-0.022611469 0.012353712 -0.00024850946 0.0072791828 0.0098110847 -0.99992543 0
-0.017304502 0.012553141 -0.00025347035 -0.001692034 0.0057389885 -0.99998212 0
-0.012543748 0.012417309 -0.00025764082 0.00015661187 0.0038862911 -0.99999249 0
-0.0076741632 0.012324977 -0.00024415337 0.0053441501 0.0020957948 -0.99998349 0
-0.0026185736 0.012692955 -0.0002090241 0.0082953889 0.0052554393 -0.99995184 0
0.0026640994 0.012396108 -0.00015239287 0.013538609 0.0062020691 -0.99988908 0
0.006545573 0.012070981 -0.00011793958 0.051688038 0.014659268 -0.99855578 0
-0.036929142 0.017198611 -3.6108388e-05 -0.020335963 0.013040627 -0.99970818 0
-0.032542616 0.017626606 -9.219101e-05 -0.011255817 0.011717697 -0.99986792 0
-0.027620208 0.017546078 -0.00015018063 -0.0093865721 0.015003948 -0.99984342 0
-0.022326067 0.017570145 -0.00017236447 -0.0016932951 0.019314561 -0.99981195 0
-0.017378246 0.017499534 -0.00019746758 -0.0054750065 0.015467511 -0.99986535 0
-0.01248041 0.017245423 -0.00021771884 -0.00069012522 0.012050699 -0.9999271 0
-0.0075272466 0.01765714 -0.00020238209 0.0048214183 0.01356165 -0.99989641 0
-0.0025380079 0.017711639 -0.0001639657 0.010563731 0.01266464 -0.99986398 0
0.0027951291 0.01761736 -0.00010082798 0.0084202047 0.01296541 -0.99988049 0
0.0061120712 0.017298199 -8.4004168e-05 0.079340629 0.031546634 -0.9963482 0
-0.035671424 0.020460846 -7.4182421e-06 -0.022159543 0.03239717 -0.99922943 0
-0.032311086 0.021024095 -4.0566185e-05 -0.011567472 0.02481672 -0.99962509 0
-0.027324129 0.02229177 -7.7332799e-05 -0.010080045 0.021281153 -0.99972266 0
-0.022420499 0.022356162 -9.1304581e-05 -0.0027767669 0.019981021 -0.99979645 0
-0.017346768 0.022514021 -0.00010806745 -0.0050196634 0.020208701 -0.9997831 0
-0.012599865 0.022701893 -0.00012993097 -0.0030371682 0.021070998 -0.99977338 0
-0.0074482523 0.022477522 -0.00012955008 0.0033332771 0.016609011 -0.99985647 0
-0.0026708683 0.022557531 -0.0001007865 0.0095790662 0.013578095 -0.99986202 0
0.0025850364 0.022599842 -4.5415069e-05 0.0018221567 0.0086040981 -0.99996132 0
0.0054071397 0.021559447 -5.2708056e-05 0.088925943 0.030824343 -0.99556124 0
-0.027411941 0.026309453 -9.8917762e-06 -0.0068750856 0.013077612 -0.99989086 0
-0.022198753 0.025554257 -1.4443197e-05 -0.0032787654 0.02869367 -0.99958295 0
-0.017334875 0.025937537 -2.5527323e-05 -0.0060345219 0.028736996 -0.99956876 0
-0.012315323 0.0263336 -4.3258053e-05 -0.005181131 0.029025391 -0.99956524 0
-0.0075042145 0.026648857 -4.7883779e-05 -0.00086704054 0.026022626 -0.99966097 0
-0.002618857 0.026819082 -3.58904e-05 0.0050770147 0.018168425 -0.99982202 0
0.0020460696 0.026321264 -1.6219325e-05 0.021320963 0.014793594 -0.99966323 0
-0.047148202 -0.056819148 0.0025727793 -0.57713163 -0.81556189 -0.042164017 0
-0.042503521 -0.056579761 0.0025471682 0.23148413 -0.95727128 -0.17333987 0
-0.038005278 -0.055523369 0.002846776 0.23669492 -0.95631748 -0.17155863 0
-0.048976872 -0.052403104 0.002471657 -0.96032166 -0.27863479 -0.012042309 0
-0.036254968 -0.054704111 0.0010695708 0.22590163 -0.88710457 -0.40250975 0
-0.032710746 -0.054121446 0.0024914355 0.23926699 -0.93898529 -0.24709915 0
-0.027508181 -0.052752428 0.0023571441 0.22706629 -0.91532594 -0.33259487 0
-0.022680121 -0.051451121 0.0020208543 0.21683604 -0.88179994 -0.41882089 0
-0.017731275 -0.050612118 0.0029997297 0.23009346 -0.95610714 -0.18142815 0
-0.014546216 -0.05009453 0.0044957213 0.2199356 -0.96489024 -0.14357963 0
-0.05042829 -0.046573352 0.0024470657 -0.97265273 -0.22988693 -0.033145107 0
-0.04979473 -0.049081404 0.002672116 -0.97137421 -0.23655373 -0.021783464 0
-0.020981815 -0.049725063 8.7199485e-05 0.089029379 -0.30146432 -0.94931191 0
-0.016718913 -0.049374901 0.00062029576 0.16410916 -0.60215312 -0.78133208 0
-0.012339865 -0.04877181 0.0020179993 0.20982976 -0.8520174 -0.47962248 0
-0.00755378 -0.047543697 0.0019549634 0.20336428 -0.82117039 -0.53321868 0
-0.0026169252 -0.046583731 0.0022480695 0.2241205 -0.86482757 -0.44926974 0
0.002175577 -0.045748305 0.003032855 0.23156823 -0.93943065 -0.25267801 0
0.0058363597 -0.045178831 0.0043336423 0.19831418 -0.95713913 -0.21108353 0
-0.051349211 -0.042478833 0.0023260931 -0.96932739 -0.22973615 -0.087325089 0
-0.0067304634 -0.043955997 3.7076872e-05 0.022758506 -0.026982019 -0.99937683 0
-0.0025603618 -0.043071873 0.00010616213 0.030485591 -0.073456399 -0.99683237 0
0.0025734422 -0.042562377 0.00035224122 0.057472687 -0.20047624 -0.97801131 0
0.007637722 -0.043239474 0.0016861408 0.18197122 -0.69630438 -0.69429588 0
0.012349574 -0.0423996 0.0019324404 0.19066484 -0.74489528 -0.63935745 0
0.017353239 -0.041714769 0.0025200453 0.21251063 -0.86553353 -0.45353171 0
0.020821508 -0.040801264 0.0031557844 0.71877354 -0.66379362 -0.20674275 0
-0.052190956 -0.037487075 0.0017855889 -0.8888334 -0.20415007 -0.41024125 0
-0.04909391 -0.037146244 5.1886491e-05 -0.027905684 0.015784124 -0.99948597 0
0.0033030228 -0.039539892 4.4945231e-05 0.026997341 -0.064840816 -0.9975304 0
0.0075642043 -0.038531188 9.876999e-05 0.026978498 -0.065541968 -0.99748504 0
0.012628677 -0.037777036 0.00017046442 0.019137012 -0.060208432 -0.99800241 0
0.017722908 -0.037507363 0.00021864424 0.042976577 -0.092970684 -0.99474096 0
0.021013234 -0.037645537 0.0024352716 0.95598716 0.10622057 -0.27350655 0
-0.052869633 -0.032574084 0.0014498968 -0.77023017 -0.1669697 -0.61552137 0
-0.047987271 -0.032381374 6.0653179e-05 -0.035666898 0.0078397579 -0.9993329 0
0.013698652 -0.034777559 1.5863445e-05 0.016020434 -0.058734015 -0.9981451 0
0.018993815 -0.032191996 0.0012697717 0.76697302 0.20311183 -0.60868555 0
0.020328479 -0.033352811 0.0029969153 0.97153544 0.22457501 -0.075399265 0
-0.055254143 -0.026341328 0.0025317194 -0.9715097 -0.23546052 -0.026968591 0
-0.053159986 -0.027952451 0.00094892859 -0.4068611 -0.085473001 -0.90948254 0
-0.047406398 -0.027396673 7.4795324e-05 -0.037204869 -0.00061067467 -0.99930745 0
0.018670384 -0.027536402 0.0025794988 0.95238739 0.22938818 -0.20084631 0
-0.055983488 -0.022547923 0.0024532508 -0.95302176 -0.22055405 -0.20761846 0
-0.052360911 -0.022318391 0.00028986562 -0.036567625 0.011337501 -0.99926686 0
-0.047382098 -0.02250177 8.8110079e-05 -0.038541708 0.0075272257 -0.9992286 0
-0.044728294 -0.020412464 3.0965025e-06 -0.027493913 0.0045855595 -0.99961144 0
0.017401503 -0.022420252 0.0025821286 0.95439768 0.23907585 -0.17879552 0
-0.056814998 -0.017600996 0.0019385291 -0.82573664 -0.18680955 -0.53222275 0
-0.052513279 -0.017693333 0.00034418466 -0.040593211 0.009462269 -0.99913096 0
-0.047489185 -0.017553182 0.00012603222 -0.039326098 0.0073367022 -0.99919945 0
-0.044477768 -0.016802298 2.1705862e-05 -0.032282226 0.0085760495 -0.99944204 0
0.014992812 -0.01547409 0.00016050485 0.72166693 0.22387524 -0.65503955 0
0.016194347 -0.017563459 0.0024193418 0.95660454 0.2345656 -0.17287749 0
-0.057713661 -0.012382867 0.0017933026 -0.75690717 -0.17215972 -0.63043839 0
-0.052357264 -0.012549919 0.0003703789 -0.048418704 0.0032903233 -0.99882168 0
-0.047676489 -0.012471305 0.00016603175 -0.039203607 0.0065853093 -0.99920952 0
-0.044163533 -0.01208719 4.2884894e-05 -0.03260063 0.0052822931 -0.99945456 0
0.014618028 -0.011552434 0.0020268841 0.94210786 0.21687192 -0.25573301 0
0.015363932 -0.013595563 0.0032386673 0.97092998 0.23192352 -0.05921524 0
-0.06016507 -0.0056600207 0.0031746714 -0.97519803 -0.22049844 -0.019214528 0
-0.058053803 -0.0078286678 0.0014834054 -0.54833955 -0.11778747 -0.82791901 0
-0.052520301 -0.0075315605 0.00038742117 -0.044771664 0.0020835139 -0.99899513 0
-0.047538362 -0.0076251361 0.00017963869 -0.039097469 0.0026084587 -0.99923199 0
-0.043850005 -0.0071080648 4.6700734e-05 -0.034869749 0.0038890876 -0.99938434 0
0.0138166 -0.0075063366 0.0025575387 0.96347111 0.22179107 -0.15010676 0
-0.060846057 -0.0022930622 0.0027772547 -0.96122158 -0.21556215 -0.17200564 0
-0.057487786 -0.0026914601 0.00057096238 -0.046168368 -0.016551239 -0.99879658 0
-0.052587438 -0.0023567807 0.00037366871 -0.039763547 -0.012189979 -0.99913478 0
-0.047554769 -0.002622724 0.0001939409 -0.036536511 -0.0001259843 -0.99933231 0
-0.043351423 -0.0024531092 5.1226791e-05 -0.031211779 0.0035334064 -0.99950659 0
0.012702038 -0.0026268745 0.002575875 0.96279895 0.21617086 -0.16213708 0
-0.061614923 0.0027646194 0.002213561 -0.85538024 -0.19507807 -0.47986382 0
-0.05754086 0.0024383904 0.00055090792 -0.033538982 0.004021673 -0.99942935 0
-0.052514825 0.0027153892 0.00034206061 -0.040734414 0.0077391481 -0.99914008 0
-0.047524426 0.0023222619 0.00016105412 -0.031893604 -0.0046950663 -0.99948031 0
-0.043572478 0.0024870441 4.8767033e-05 -0.023755617 -0.0079147415 -0.99968642 0
0.011535538 0.0021638973 0.0021839484 0.9446581 0.2129606 -0.24953742 0
-0.062479727 0.0077895951 0.0021937846 -0.78294045 -0.18022947 -0.5954172 0
-0.05762247 0.0075912848 0.00058314455 -0.046216108 0.0092917643 -0.99888819 0
-0.052376587 0.0072751017 0.00034321824 -0.041035999 0.003678934 -0.99915093 0
-0.047659032 0.007548817 0.00017003489 -0.033100825 0.0014352128 -0.99945104 0
-0.043580078 0.0074376008 4.2213451e-05 -0.028974334 -0.00048999075 -0.99957997 0
0.0096904403 0.0088405674 0.00089388841 0.88437831 0.22213341 -0.41052616 0
0.010596849 0.0069293138 0.0028411811 0.96632892 0.22018887 -0.13313641 0
-0.065080948 0.014690992 0.0035267475 -0.97030294 -0.2385971 -0.039795224 0
-0.063212879 0.012556959 0.0017838228 -0.63330072 -0.13481966 -0.76207209 0
-0.057439681 0.012496266 0.00063192449 -0.052662089 0.014085618 -0.99851292 0
-0.052531041 0.012525939 0.00039458554 -0.043093953 0.014661243 -0.99896342 0
-0.047610275 0.012475541 0.00020343272 -0.035271913 0.01263865 -0.99929786 0
-0.042924099 0.01275987 5.5100791e-05 -0.028382123 0.012155728 -0.99952328 0
0.0092179505 0.01278042 0.002439128 0.94662488 0.20872059 -0.24563581 0
0.010065377 0.010237263 0.0032092603 0.97954631 0.19676891 -0.042084284 0
-0.065676622 0.0177029 0.0030126451 -0.95291495 -0.22168376 -0.20690437 0
-0.06230839 0.017387388 0.00096232211 -0.096032329 -0.0080717839 -0.99534547 0
-0.057730041 0.017546123 0.0007379356 -0.048857585 0.016649073 -0.99866694 0
-0.052647982 0.017548645 0.00050190522 -0.042220693 0.023719743 -0.99882674 0
-0.047524992 0.017445555 0.00029247525 -0.039151728 0.025276186 -0.99891353 0
-0.042517804 0.017725168 0.00012377974 -0.030603534 0.022337925 -0.999282 0
-0.038719121 0.018279362 2.2519629e-05 -0.025656531 0.018146757 -0.99950612 0
0.0080256276 0.017579528 0.0021690449 0.92034078 0.20561348 -0.33271006 0
-0.066533983 0.022598097 0.0026810456 -0.89122242 -0.13353388 -0.43346426 0
-0.062488921 0.022546701 0.0009427552 -0.050175115 0.023804672 -0.99845672 0
-0.057691034 0.022447558 0.00075489731 -0.035691515 0.015489905 -0.99924284 0
-0.052617643 0.022468476 0.00057784608 -0.031968407 0.014827004 -0.99937886 0
-0.047694936 0.022456596 0.00041184359 -0.032536812 0.017767575 -0.99931264 0
-0.042624831 0.022521242 0.00024393434 -0.031489957 0.019869814 -0.99930656 0
-0.037589632 0.022609711 0.0001007748 -0.025329225 0.023358723 -0.99940628 0
-0.032903288 0.023653764 3.8674207e-05 -0.013351042 0.026659943 -0.99955541 0
-0.029206324 0.024546258 1.5304877e-05 -0.016452871 0.024643146 -0.99956095 0
0.0069745509 0.022514962 0.0023488668 0.92448676 0.20823672 -0.31931463 0
-0.066222563 0.025920447 0.0032054884 -0.42663074 0.88144696 -0.20257699 0
-0.062505342 0.02647022 0.0027318632 -0.20322987 0.87445182 -0.44049025 0
-0.057437319 0.027152274 0.0021876518 -0.18150671 0.75440985 -0.63080996 0
-0.05234364 0.028190782 0.0021538776 -0.18731788 0.7576369 -0.62521857 0
-0.0475666 0.02794838 0.0010525573 -0.10807955 0.37056282 -0.92249775 0
-0.042516656 0.027585786 0.000474609 -0.032872315 0.10310242 -0.99412739 0
-0.037419204 0.027452238 0.0003190258 -0.040360305 0.07931415 -0.99603224 0
-0.032566972 0.02753862 0.0001698983 -0.026757393 0.075516522 -0.99678546 0
-0.027423004 0.027900359 6.7826993e-05 -0.014786672 0.054260086 -0.99841726 0
-0.022596711 0.028116105 4.3484808e-05 -0.00021958778 0.022058012 -0.99975663 0
-0.017469238 0.028392842 3.5124736e-05 -0.0016705524 0.01388271 -0.99990225 0
-0.012822977 0.028956002 2.9557968e-05 -0.0025386547 0.019019086 -0.99981588 0
-0.0074540223 0.028988222 2.432781e-05 -0.002381315 0.030388076 -0.99953532 0
-0.0021351937 0.029265501 1.6113581e-05 0.0014328877 0.023663221 -0.99971896 0
0.0023166803 0.028540527 6.6722401e-05 0.10174714 0.035511263 -0.99417627 0
0.0060068932 0.027369339 0.0026047726 0.94900936 0.21396841 -0.23151411 0
-0.04690342 0.0303478 0.0032036453 -0.22569835 0.953574 -0.1993912 0
-0.042722262 0.03113647 0.0027073603 -0.22078402 0.91315478 -0.342641 0
-0.037305009 0.032133061 0.0023866277 -0.20043938 0.84789944 -0.49080601 0
-0.032194104 0.032750957 0.0018391116 -0.16937259 0.68145585 -0.71199083 0
-0.027685989 0.032927029 0.0010612898 -0.11887009 0.46073115 -0.87954348 0
-0.022520926 0.032293141 0.00030234994 -0.036491208 0.11286917 -0.99293959 0
-0.017233225 0.032905824 0.0001856763 -0.020702649 0.068131618 -0.9974615 0
-0.012568886 0.03265278 0.00010511936 -0.0069968142 0.039104052 -0.9992106 0
-0.007443537 0.032350205 7.3383111e-05 -0.0018403728 0.017527319 -0.99984467 0
-0.0025905576 0.032494366 6.6637556e-05 -0.0024062947 0.010927173 -0.99993742 0
0.0032149358 0.032710224 0.00093999662 0.52277392 0.12414979 -0.84338266 0
0.0053330134 0.031346299 0.003323853 0.97042561 0.21197498 -0.11550219 0
-0.026432399 0.035234932 0.0034607158 -0.23699118 0.95726418 -0.16577245 0
-0.02236448 0.036023423 0.0026542908 -0.23026454 0.93027776 -0.28558969 0
-0.017289603 0.037008218 0.0023568757 -0.21683663 0.87563539 -0.43156067 0
-0.012567212 0.037781864 0.0019653169 -0.1983078 0.78942382 -0.58093375 0
-0.0079980707 0.038036276 0.001263608 -0.13547473 0.54764915 -0.82566762 0
-0.0023549958 0.037612673 0.00025713642 -0.025230065 0.10351537 -0.99430776 0
0.0028560481 0.037429251 0.0017608199 0.73999536 0.20752005 -0.63979858 0
-0.0061297421 0.040272299 0.0032822567 -0.24804038 0.96161008 -0.11739716 0
-0.0022347774 0.041078154 0.0028217109 -0.23488304 0.93897682 -0.25130153 0
0.0018559651 0.041279085 0.0025935047 0.48075634 0.81954664 -0.31179583 0
-0.046825394 -0.056553513 0.0072222534 -0.71319932 -0.68291771 0.15801898 0
-0.042424947 -0.057467241 0.0073834616 0.18270753 -0.96299052 -0.19815964 0
-0.037442949 -0.056281954 0.0073144902 0.22258851 -0.95579213 -0.19213453 0
-0.033107698 -0.055458631 0.0080983872 0.22915159 -0.9580645 -0.17205249 0
-0.048690502 -0.052690942 0.0075663002 -0.96117961 -0.27427545 0.030111279 0
-0.031610008 -0.054679915 0.0065335911 0.2318128 -0.9487313 -0.21487606 0
-0.027580114 -0.053948261 0.007381984 0.22330914 -0.94982886 -0.21899362 0
-0.022399779 -0.052715965 0.0074432646 0.22024234 -0.9565298 -0.19116493 0
-0.017370708 -0.051586315 0.0076898756 0.22670679 -0.95209914 -0.20521 0
-0.012705731 -0.050614838 0.0079217162 0.23192322 -0.95604032 -0.17943954 0
-0.0094610276 -0.050130486 0.0085791787 0.20428054 -0.97527969 -0.084256239 0
-0.050269168 -0.046348106 0.0072555663 -0.97197288 -0.23225938 0.036391098 0
-0.049694534 -0.048612308 0.0077789999 -0.9694398 -0.24263468 0.036262777 0
-0.011430829 -0.049582373 0.0059822164 0.20101497 -0.93172556 -0.30245739 0
-0.0071625859 -0.049123719 0.0072760931 0.22597274 -0.94378799 -0.24124798 0
-0.0025881387 -0.048083153 0.0074764006 0.21765682 -0.94146049 -0.25744423 0
0.0024555591 -0.046947338 0.0075036706 0.22598933 -0.9384504 -0.26122716 0
0.0074397819 -0.045939185 0.0076709618 0.20028421 -0.9451555 -0.2580066 0
0.011735953 -0.045388527 0.0085346317 0.20057476 -0.96003407 -0.19520345 0
-0.051140763 -0.04264462 0.0075758034 -0.97241342 -0.23082675 0.033632338 0
0.0089819655 -0.04468954 0.0057542375 0.20074101 -0.94806248 -0.24673997 0
0.012922309 -0.044133462 0.0066808076 0.23410077 -0.90471238 -0.35593873 0
0.017945003 -0.043322563 0.0076886793 0.45259556 -0.8423183 -0.29267234 0
0.020597432 -0.041044291 0.0073021972 0.82951707 -0.54283422 0.13127241 0
-0.052327219 -0.037611697 0.0076828259 -0.9723534 -0.23066919 0.036340043 0
0.021047194 -0.037586428 0.0075538573 0.99039125 0.12696026 0.054829318 0
-0.053492814 -0.032720938 0.0074510379 -0.97213179 -0.23169792 0.035718635 0
0.019715855 -0.031734925 0.0078921383 0.96915233 0.24079388 0.052554745 0
0.020277882 -0.033825342 0.0071075642 0.96997553 0.23652574 0.05659467 0
-0.055199344 -0.025793191 0.0070537408 -0.97001123 -0.24200696 0.022601794 0
-0.054582834 -0.02822648 0.007417988 -0.97010231 -0.24144661 0.024598517 0
0.018685697 -0.027536962 0.0073537272 0.96770984 0.24610093 0.054516926 0
-0.055997606 -0.022559009 0.0072879898 -0.9707194 -0.23962893 0.016783657 0
0.01741232 -0.022541719 0.0074533815 0.96768528 0.24553859 0.057410333 0
-0.057228338 -0.017582668 0.0074872109 -0.97003931 -0.24275087 0.0097832903 0
0.016105724 -0.017416565 0.007694148 0.96843457 0.24131717 0.062452942 0
-0.058465224 -0.012606947 0.0075236931 -0.97106147 -0.23866963 0.0087407585 0
0.014631854 -0.011496489 0.0077833892 0.96973765 0.23337197 0.071738757 0
0.015241771 -0.013695078 0.0068648318 0.96763563 0.24190125 0.071868382 0
-0.060138997 -0.0057261619 0.0074573476 -0.97195518 -0.23515132 -0.002620229 0
-0.059552681 -0.0081594149 0.0073687294 -0.97222215 -0.23405702 0.0011996446 0
0.013701886 -0.007427929 0.0074533466 0.97159082 0.22259523 0.080390431 0
-0.060920645 -0.0024981962 0.0075277467 -0.97176814 -0.23579557 -0.0081888633 0
0.012535089 -0.0022417128 0.0075590182 0.97378689 0.21440841 0.075947925 0
-0.062100496 0.002394761 0.0075030052 -0.97196597 -0.23440994 -0.018279918 0
0.011548734 0.0024018253 0.0074149258 0.97747076 0.19913027 0.06998539 0
-0.063336276 0.0074334377 0.007452257 -0.96992368 -0.242532 -0.020646831 0
0.0099080959 0.0097215455 0.0088922484 0.98339671 0.17247313 0.056425627 0
0.010493902 0.00719852 0.007541724 0.97284752 0.22536486 0.05271098 0
-0.065156102 0.014600396 0.0080764955 -0.97067612 -0.23938648 -0.021952279 0
-0.064500786 0.012043816 0.0074533806 -0.96901935 -0.24593976 -0.022698291 0
0.009384715 0.012723245 0.0076067951 0.97949255 0.19801164 0.03722629 0
0.010011591 0.010103302 0.0055374289 0.97892481 0.19826357 0.048967455 0
-0.065809011 0.017254896 0.0075840564 -0.97040164 -0.24054268 -0.02144222 0
0.0084221223 0.017346231 0.0076744333 0.97752756 0.20926911 0.025419114 0
-0.066952661 0.022721952 0.0074205864 -0.99717188 -0.073596597 0.015222772 0
0.0073652896 0.022374686 0.0076900646 0.97782117 0.20921606 0.0097192638 0
-0.066233873 0.025986295 0.0074186609 -0.76131886 0.63425165 0.13460478 0
-0.062427551 0.027605765 0.0073973322 -0.24507275 0.95496964 -0.16724905 0
-0.057702385 0.028648954 0.0074012652 -0.21478404 0.96059912 -0.17640038 0
-0.053115744 0.029584043 0.0070168804 -0.2225827 0.95311481 -0.20500983 0
-0.049868625 0.029941067 0.0051909201 -0.24828771 0.96123743 -0.11989902 0
0.0062067332 0.027604805 0.0074325767 0.97605741 0.21742228 0.0062786927 0
-0.051374152 0.030341391 0.0083185863 -0.22844894 0.96752709 -0.10817742 0
-0.047454379 0.031029472 0.0073738848 -0.22489314 0.95853424 -0.17502944 0
-0.042461924 0.032193124 0.0073658796 -0.22635846 0.95865738 -0.17244688 0
-0.037748415 0.033325043 0.0074480386 -0.22636127 0.96161109 -0.15512793 0
-0.032820079 0.034412704 0.0071693836 -0.22340712 0.96093404 -0.16338623 0
-0.029424533 0.034829289 0.0055999812 -0.23299237 0.94332975 -0.23631249 0
0.0047611319 0.034014624 0.0073411786 0.9742204 0.22548783 0.0070658699 0
0.0053491336 0.031378739 0.00741013 0.97516394 0.22133884 0.0080339229 0
-0.030652519 0.035172682 0.0082035325 -0.2325016 0.9700079 -0.07090614 0
-0.027289527 0.035845555 0.0076533435 -0.22984709 0.96428794 -0.13160215 0
-0.02240284 0.036964864 0.0075492631 -0.22490382 0.96702415 -0.11950964 0
-0.017239863 0.038172673 0.0075079887 -0.22968902 0.96724278 -0.10809404 0
-0.012494066 0.03936838 0.0074344212 -0.24018824 0.96522874 -0.10316544 0
-0.0089596314 0.03985234 0.0057046679 -0.24401709 0.91400945 -0.32410228 0
0.0039125714 0.037567429 0.0074840407 0.9722802 0.23326094 0.016142199 0
-0.010288302 0.040048063 0.0083858194 -0.2472709 0.96892172 0.0069088228 0
-0.0073720887 0.040690243 0.0077469945 -0.24256548 0.96618605 -0.087444216 0
-0.0026820374 0.041704219 0.0073794769 -0.15469696 0.97848529 -0.13651128 0
0.0020847595 0.041135877 0.00721244 0.58425516 0.80600995 0.094835468 0
-0.046628371 -0.056455519 0.012520821 -0.73893368 -0.67349696 -0.019462654 0
-0.042522419 -0.057958513 0.012608228 0.16285124 -0.98634619 -0.02450693 0
-0.037565779 -0.056801893 0.012704149 0.23270284 -0.9713735 -0.047779728 0
-0.032614149 -0.055582974 0.012479902 0.23053575 -0.97147107 -0.055654328 0
-0.029609043 -0.055011597 0.014555668 0.18021268 -0.98362499 0.0022960822 0
-0.048681427 -0.052346997 0.012726346 -0.96468574 -0.26318136 -0.010808188 0
-0.030113688 -0.054972429 0.01209108 0.28004888 -0.94581169 -0.16435587 0
-0.027559666 -0.054380871 0.012491132 0.24379671 -0.96847308 -0.051216416 0
-0.022539539 -0.053201862 0.012491563 0.22338943 -0.97436529 -0.026633576 0
-0.01765996 -0.052075367 0.012677979 0.22445469 -0.9740169 -0.030185832 0
-0.01238933 -0.050859224 0.012484037 0.21412632 -0.97636902 -0.029214192 0
-0.0092001185 -0.050172657 0.012699068 0.20180881 -0.97914147 -0.023562787 0
-0.050263897 -0.045869805 0.012563282 -0.97242641 -0.23319112 0.0029345818 0
-0.049647409 -0.048404329 0.012592647 -0.97137463 -0.23755257 -4.3322339e-05 0
-0.0068268548 -0.049623247 0.012496676 0.23048271 -0.9723385 -0.037889656 0
-0.0023285798 -0.048609991 0.012567021 0.21260087 -0.97627658 -0.04104773 0
0.002549472 -0.047500707 0.012528501 0.23380071 -0.97208428 -0.019733459 0
0.0074359975 -0.046375386 0.012755795 0.22336544 -0.97473252 0.0021172452 0
0.011900255 -0.045378525 0.012575341 0.20956254 -0.97777599 0.0061364425 0
-0.051067978 -0.042517554 0.012550894 -0.97247386 -0.23300596 0.001679061 0
0.014307944 -0.044875722 0.012321347 0.19816919 -0.98010159 0.011392291 0
0.017879834 -0.043883335 0.012182408 0.31845719 -0.94766235 0.022827283 0
0.020355096 -0.041670837 0.012725883 0.9382655 -0.34366634 -0.039387047 0
-0.052338742 -0.037134565 0.012630044 -0.97375345 -0.22759803 0.0018331108 0
0.020895619 -0.037561432 0.012398553 0.9922297 0.12318557 0.017477857 0
-0.053471535 -0.032386739 0.012399891 -0.97065675 -0.24046311 0.0016994121 0
0.019565305 -0.031761035 0.012820293 0.9687022 0.24787106 0.013267391 0
0.020172691 -0.034150366 0.012682577 0.97101432 0.23888473 0.008078834 0
-0.055150095 -0.025809029 0.012557675 -0.96987253 -0.24352454 -0.0065605827 0
-0.054553565 -0.028173845 0.012563696 -0.96881056 -0.24775837 -0.0046787597 0
0.018494094 -0.027603677 0.012768098 0.96765047 0.25171524 0.017086202 0
-0.056042742 -0.022261733 0.012504372 -0.96954894 -0.24475567 -0.0083336066 0
0.017144674 -0.022400685 0.012324937 0.96705496 0.25266746 0.031045634 0
-0.057211615 -0.017663311 0.012486627 -0.96871865 -0.24800692 -0.0087633496 0
0.015858961 -0.017499391 0.0124697 0.96626663 0.25311631 0.047548667 0
-0.058476135 -0.012599155 0.012573971 -0.97119105 -0.2379728 -0.012524216 0
0.014453174 -0.012136702 0.012640137 0.96635634 0.2495814 0.062166117 0
0.015096909 -0.014536147 0.012254626 0.96686256 0.24934094 0.054826327 0
-0.060207766 -0.0057206457 0.012938339 -0.97035944 -0.24112143 -0.016217871 0
-0.059547149 -0.0083283335 0.012648318 -0.96934873 -0.24519137 -0.015631709 0
0.013288016 -0.0074892184 0.012609141 0.96984363 0.23229827 0.073762067 0
-0.060999814 -0.002436542 0.012618024 -0.97175634 -0.23524338 -0.018710623 0
0.012159283 -0.0024531132 0.012404434 0.97388422 0.20957056 0.087348141 0
-0.062198933 0.0024141038 0.012653434 -0.97036737 -0.24092288 -0.018526316 0
0.011076032 0.0027339051 0.012608181 0.97819704 0.19154014 0.080268376 0
-0.063392013 0.0072234944 0.012659124 -0.96971041 -0.24351925 -0.018976759 0
0.0098449234 0.0089304559 0.012440966 0.98279095 0.17414825 0.061597828 0
0.010318424 0.0066304682 0.012277952 0.97866082 0.19389802 0.06801901 0
-0.065162696 0.014222709 0.012301342 -0.96911395 -0.24567074 -0.021541661 0
-0.06457112 0.011855192 0.012901123 -0.96886885 -0.24681558 -0.019367237 0
0.0092173256 0.012538102 0.012511449 0.98364675 0.17467734 0.043895297 0
-0.066013306 0.017557506 0.012670489 -0.97024953 -0.24093024 -0.023842942 0
0.008255668 0.017525749 0.012530362 0.98004663 0.19647679 0.030091198 0
-0.066889793 0.022486869 0.012391967 -0.99765342 0.064276904 -0.023586472 0
0.0072856867 0.022417594 0.012334445 0.97937363 0.20117842 0.018830093 0
-0.065630272 0.026352052 0.012564428 -0.91122484 0.4109036 -0.028768515 0
-0.062493857 0.027971609 0.012608597 -0.22764635 0.97362977 -0.014907509 0
-0.05742028 0.029059011 0.012304564 -0.22019529 0.97539592 -0.0108123 0
-0.054205369 0.029809408 0.012677476 -0.26428038 0.96436352 -0.012608491 0
0.0062148822 0.027440263 0.012436965 0.9799543 0.19898865 0.0096464464 0
-0.051764723 0.030388042 0.01235759 -0.22160648 0.9748646 -0.023010192 0
-0.047533367 0.031421609 0.012632309 -0.237721 0.97085756 -0.030405156 0
-0.04235658 0.032619245 0.012403283 -0.2283192 0.97322661 -0.026463231 0
-0.037543178 0.033729129 0.012612583 -0.22446477 0.97415608 -0.025209539 0
-0.033588637 0.034647677 0.012548606 -0.23039599 0.97266918 -0.028848365 0
0.0047656843 0.033783577 0.012907689 0.9719457 0.23468572 0.015626652 0
0.0053136284 0.031496402 0.012457824 0.97376066 0.22731408 0.010887212 0
-0.030864479 0.035288148 0.012932266 -0.22108096 0.97479296 -0.030031724 0
-0.02734465 0.036091521 0.012460834 -0.22595234 0.97375083 -0.027475601 0
-0.022575948 0.03719591 0.012544526 -0.22480652 0.97402757 -0.027059291 0
-0.017445626 0.038384691 0.012703503 -0.22580607 0.97384948 -0.025073135 0
-0.01294737 0.039439235 0.012394904 -0.23534979 0.97158921 -0.024996124 0
0.0038215232 0.037599612 0.012564845 0.96519595 0.26124164 0.012232221 0
-0.010306591 0.040089317 0.012814349 -0.23635085 0.97144699 -0.0207131 0
-0.0075480193 0.040770147 0.012691037 -0.23905642 0.97086465 -0.016542925 0
-0.0022326806 0.041890286 0.012684524 -0.013797544 0.9998737 -0.0078842109 0
0.0018345359 0.040935948 0.011990846 0.51410705 0.85622829 0.050666407 0
-0.04656817 -0.056831822 0.017423257 -0.7592417 -0.64642656 -0.075397886 0
-0.042499032 -0.057858497 0.017641935 0.27314028 -0.95935893 0.070885636 0
-0.037378035 -0.056667157 0.017411437 0.20719945 -0.97517824 0.078076273 0
-0.032495867 -0.055533383 0.017346898 0.22717424 -0.96998841 0.086685784 0
-0.029849423 -0.05510271 0.015421129 0.26913846 -0.96151686 0.055223815 0
-0.04869036 -0.052695297 0.017504886 -0.96814913 -0.24940503 -0.022012526 0
-0.030354725 -0.054949015 0.018633071 0.21964563 -0.97518635 0.027701369 0
-0.027299508 -0.054317135 0.017546931 0.22994353 -0.97203583 0.047669325 0
-0.022469429 -0.05321274 0.017499389 0.22163385 -0.97444648 0.036502581 0
-0.017582141 -0.052109081 0.017828379 0.20508412 -0.97857064 0.018442089 0
-0.012388177 -0.050963908 0.017749973 0.21944869 -0.97550279 0.01538064 0
-0.0089818649 -0.05021327 0.017374855 0.21920307 -0.97564042 0.0087083178 0
-0.050250385 -0.046042975 0.017635215 -0.97329539 -0.22943817 -0.0073567741 0
-0.049646616 -0.048595779 0.017704949 -0.97335285 -0.22911131 -0.0096025588 0
-0.0065209293 -0.049663488 0.017402744 0.21188037 -0.9772287 0.011434929 0
-0.0026391437 -0.048808672 0.017545098 0.22142634 -0.97515404 0.0067053991 0
0.0024604569 -0.047588225 0.017391361 0.25164348 -0.96780252 0.0058149677 0
0.0074753584 -0.046304654 0.017583882 0.23806879 -0.97053951 0.037097864 0
0.011540974 -0.04535237 0.017071055 0.22935562 -0.9716875 0.056740332 0
-0.051095989 -0.042521462 0.017531108 -0.97162181 -0.23639624 -0.0082355551 0
0.013772849 -0.044755202 0.018238133 0.21536554 -0.97234476 0.09035112 0
0.017742233 -0.043922074 0.017590038 0.19071612 -0.97949982 0.064865023 0
0.020634154 -0.041934695 0.017507026 0.95374817 -0.27864981 -0.11277714 0
-0.052278038 -0.037495684 0.017654752 -0.97492671 -0.22239059 -0.007775432 0
0.020832926 -0.037604835 0.017424677 0.99407488 0.10742436 0.016589794 0
-0.053515144 -0.032416057 0.017505305 -0.96822274 -0.24972974 -0.013405768 0
0.019538103 -0.031752709 0.017420273 0.96898597 0.24710423 0.0023703475 0
0.020216906 -0.034440905 0.017375091 0.97198087 0.23491256 0.0083207432 0
-0.055194985 -0.025857856 0.017623274 -0.97015762 -0.24202487 -0.014771518 0
-0.054573379 -0.028312096 0.017513145 -0.96882701 -0.24727358 -0.015164594 0
0.018448776 -0.027572393 0.017321223 0.96628815 0.25743774 0.003623676 0
-0.056114122 -0.022196703 0.017415337 -0.9690907 -0.24641834 -0.011877437 0
0.017111145 -0.022581257 0.017597228 0.96522611 0.26137164 0.0048272847 0
-0.057283033 -0.017616637 0.017339017 -0.96860021 -0.24830379 -0.012601837 0
0.01498514 -0.015099364 0.018700138 0.96008247 0.27906677 0.019064905 0
0.015717406 -0.01755272 0.01751088 0.96172851 0.27363205 0.01427302 0
-0.058539573 -0.012675119 0.017695116 -0.97024167 -0.24164413 -0.015468246 0
0.014276685 -0.012508196 0.017449265 0.96163571 0.27091524 0.04314772 0
-0.060234878 -0.0058513093 0.017313646 -0.97029591 -0.24168828 -0.010612549 0
-0.059582349 -0.0084667513 0.017153705 -0.97019827 -0.24201973 -0.011907622 0
0.012899461 -0.0074392841 0.017585451 0.96590638 0.24719019 0.076953515 0
-0.061011788 -0.0027076856 0.017461075 -0.97106475 -0.23855457 -0.011178279 0
0.01172334 -0.0025049667 0.017481685 0.97157097 0.21652004 0.095754355 0
-0.062268101 0.002382576 0.017418507 -0.97066969 -0.24019778 -0.010266428 0
0.01070553 0.002474519 0.017636757 0.97930634 0.17970619 0.093085185 0
-0.063515879 0.0074113728 0.017627604 -0.96990818 -0.24319148 -0.011661629 0
0.009625596 0.0083278688 0.017882701 0.98485631 0.16193165 0.061936259 0
0.010139906 0.0059660175 0.016667852 0.97754991 0.19798456 0.072098732 0
-0.065234542 0.014180911 0.017181307 -0.96895462 -0.24698216 -0.011261904 0
-0.064587854 0.011642803 0.017390959 -0.96875381 -0.24780378 -0.010464507 0
0.0089761224 0.012538904 0.017643269 0.98644561 0.15704885 0.047547821 0
-0.066044793 0.017352741 0.01756072 -0.96941721 -0.24511859 -0.01213494 0
0.0081334887 0.017378857 0.017353231 0.98266828 0.18293455 0.029967371 0
-0.066981643 0.022398008 0.017445115 -0.99907082 0.042955305 -0.0035031973 0
0.0071946983 0.02238936 0.017300555 0.98014724 0.19674996 0.024511021 0
-0.065925814 0.02638738 0.017423229 -0.84851259 0.52725381 -0.04505353 0
-0.062512808 0.027951185 0.017318241 -0.21556851 0.97620422 0.023572545 0
-0.057341281 0.029098853 0.017384727 -0.22632061 0.97397536 0.012285694 0
-0.054299962 0.029780686 0.017974468 -0.26066586 0.96484882 0.033467945 0
0.0061063138 0.027507851 0.01744947 0.97784442 0.20824558 0.021307785 0
-0.051885191 0.030436851 0.01759086 -0.23942189 0.97076356 0.017183935 0
-0.047449842 0.031494446 0.01737381 -0.23516747 0.97188294 0.011823721 0
-0.042525705 0.032666925 0.017606387 -0.22204429 0.97503018 0.0035354227 0
-0.037534248 0.033803888 0.017608611 -0.22610703 0.97410226 -0.00067677599 0
-0.033737853 0.034691107 0.017614827 -0.22935352 0.97333711 -0.00342299 0
0.0047220979 0.033606268 0.018022854 0.97376961 0.22710547 0.013995533 0
0.0052681239 0.031354152 0.017349858 0.97454274 0.22363482 0.015934283 0
-0.031159636 0.035293434 0.017584456 -0.22629994 0.97403628 -0.006455 0
-0.027822044 0.036065452 0.017569618 -0.22428147 0.97450596 -0.0060021705 0
-0.022573188 0.037269823 0.017524967 -0.22543119 0.97425902 -0.00031288739 0
-0.017553449 0.038429417 0.017604802 -0.22458807 0.97442257 0.0077964282 0
-0.012942345 0.039512854 0.01750619 -0.22756644 0.97357756 0.018977007 0
0.0038126316 0.037371263 0.017326452 0.96267211 0.26993328 0.019958593 0
-0.01036988 0.0401095 0.017400788 -0.23122332 0.97261709 0.023491222 0
-0.0073820399 0.040813372 0.017397404 -0.22653402 0.97350687 0.031093979 0
-0.0023267914 0.041887164 0.017589005 -0.087279037 0.99587268 0.024901366 0
0.0016730431 0.040885311 0.017518537 0.53097504 0.84690768 -0.028511943 0
-0.046964675 -0.057275608 0.02260734 -0.74593711 -0.66358846 -0.056817483 0
-0.042655233 -0.057277143 0.022560637 0.26647216 -0.94958204 0.16518618 0
-0.037390091 -0.056051355 0.022656083 0.2086693 -0.96368146 0.16665854 0
-0.033392716 -0.055353891 0.021677511 0.20236479 -0.97102815 0.12709351 0
-0.048813131 -0.052398853 0.022394739 -0.97064209 -0.23984736 0.018088231 0
-0.031626076 -0.05460681 0.023434831 0.20835301 -0.95180672 0.22506206 0
-0.027408227 -0.053858519 0.022534342 0.21658257 -0.95536345 0.20092979 0
-0.022574797 -0.052826248 0.022380514 0.22123721 -0.95719755 0.18661959 0
-0.017358204 -0.051542297 0.022772076 0.21933995 -0.95269036 0.21040703 0
-0.012867955 -0.050575513 0.022458946 0.22175331 -0.95278835 0.20741217 0
-0.0092233978 -0.05009494 0.020678475 0.22265717 -0.96771896 0.11808391 0
-0.050285321 -0.045975115 0.022706563 -0.97207838 -0.23416734 0.015142196 0
-0.049635738 -0.048739392 0.022264116 -0.97418153 -0.22528924 0.014669123 0
-0.011218284 -0.049778376 0.024071315 0.23453397 -0.93386012 0.26999843 0
-0.0071755718 -0.049222812 0.022549927 0.22023118 -0.94920039 0.22475933 0
-0.0024747583 -0.04808981 0.022510357 0.22974946 -0.93789548 0.25993705 0
0.0026411854 -0.046980195 0.022108871 0.22599965 -0.942689 0.2454825 0
0.0072559034 -0.045774825 0.022410639 0.22504452 -0.94420999 0.24046305 0
0.010968825 -0.045181718 0.021014778 0.23333079 -0.96733993 0.099046066 0
-0.05108292 -0.042687196 0.022475686 -0.9715997 -0.23600973 0.017131563 0
0.0090855537 -0.044760112 0.02441266 0.2203089 -0.93626797 0.27361694 0
0.012803162 -0.044337276 0.022673436 0.23778285 -0.94716203 0.21527499 0
0.017508753 -0.043275729 0.022480536 0.15582439 -0.96021032 0.2317649 0
0.020981127 -0.04202579 0.022353716 0.95555919 -0.28951722 0.055555344 0
-0.052310813 -0.037546601 0.022517735 -0.97300005 -0.23076902 -0.0040714149 0
0.020770034 -0.037448265 0.02274227 0.99116695 0.11950324 -0.057507176 0
-0.05349005 -0.032742105 0.022224473 -0.9690209 -0.246967 -0.0024081683 0
0.019567883 -0.031856183 0.022433385 0.96980464 0.24384633 -0.0042250347 0
0.020139538 -0.034308013 0.022417102 0.98105055 0.19360492 0.007543555 0
-0.055220526 -0.025975429 0.022656737 -0.97011065 -0.24259999 0.005532457 0
-0.054583389 -0.028486734 0.022497609 -0.96830738 -0.24953663 0.010599845 0
0.018470436 -0.027612941 0.022560861 0.96692759 0.25464115 -0.014452593 0
-0.056103759 -0.022480527 0.022464694 -0.96921313 -0.24617213 -0.0050191102 0
0.017078545 -0.02245971 0.022481943 0.96342474 0.26736259 -0.018165328 0
-0.057338815 -0.017615044 0.022526011 -0.9697656 -0.24400669 -0.0039184089 0
0.014967365 -0.015087444 0.021534774 0.94362777 0.3309629 0.0055013299 0
0.015761148 -0.017787632 0.022321016 0.95736063 0.28835621 -0.017648207 0
-0.0586375 -0.012494102 0.022555966 -0.9696086 -0.24464884 -0.0024921419 0
0.014066474 -0.012194463 0.022483768 0.95308691 0.30041805 -0.037071787 0
-0.060231071 -0.0060881139 0.02270934 -0.97119826 -0.23816556 -0.0071508745 0
-0.059619155 -0.0085759917 0.022320518 -0.97063208 -0.2404941 -0.006005873 0
0.012590299 -0.0074485699 0.022490984 0.95956963 0.28112662 0.0139224 0
-0.06110118 -0.0025353462 0.022445483 -0.97174966 -0.23599771 0.002742355 0
0.011254814 -0.0024643727 0.022638734 0.97007632 0.23012879 0.077412769 0
-0.062285431 0.0023626771 0.022479508 -0.97127789 -0.23765014 0.011898078 0
0.0098623782 0.0044489382 0.02350615 0.98234653 0.17502919 0.066030271 0
0.010359094 0.0019786467 0.022429435 0.98236924 0.16163221 0.09394519 0
-0.063549682 0.0074643581 0.022517381 -0.96976691 -0.24369794 0.012784785 0
0.0094368234 0.0075612036 0.022517418 0.98865771 0.13435443 0.067118019 0
-0.065222442 0.014036757 0.02276146 -0.96862954 -0.24830227 0.010132076 0
-0.064602375 0.011599081 0.022321424 -0.96908879 -0.24658449 0.0079279756 0
0.0087485127 0.012426726 0.022533922 0.98787904 0.14590213 0.052986566 0
-0.066074401 0.017383721 0.022415647 -0.9697575 -0.24375983 0.0123078 0
0.0079372535 0.017514925 0.022306353 0.98256147 0.1818025 0.038999148 0
-0.067087337 0.022390546 0.022546647 -0.99645162 -0.08410491 -0.003254825 0
0.0070424066 0.02239456 0.02254531 0.98115253 0.19033352 0.033359241 0
-0.066429906 0.026397031 0.022466037 -0.60979706 0.79239136 -0.01623462 0
-0.0626202 0.027576637 0.022269528 -0.22983937 0.96611995 0.11741435 0
-0.057502024 0.028722562 0.022502057 -0.20644508 0.97056341 0.1240446 0
-0.053653911 0.029561497 0.022806687 -0.24284832 0.95991236 0.1399748 0
0.0059700171 0.027610464 0.022367526 0.97751325 0.2091561 0.026859099 0
-0.05121132 0.030332647 0.022031622 -0.22853555 0.96587485 0.12189049 0
-0.047710303 0.031095924 0.022508198 -0.23961695 0.96263051 0.12619896 0
-0.042619865 0.032377902 0.022497524 -0.23859569 0.96218574 0.13141814 0
-0.037436839 0.033626426 0.0225648 -0.23754828 0.9627136 0.12943479 0
-0.033433102 0.034598269 0.022715349 -0.23831472 0.95811158 0.15883461 0
0.0046846257 0.033398349 0.022698123 0.97555834 0.21834172 0.02475756 0
0.00523277 0.030992819 0.022378672 0.97579205 0.21586575 0.035097353 0
-0.031170161 0.035253849 0.021942046 -0.22769314 0.97118896 0.070341192 0
-0.027443079 0.03603616 0.022379775 -0.21540591 0.970411 0.10909974 0
-0.022705862 0.037084572 0.022359822 -0.21011645 0.97080892 0.11567706 0
-0.017295018 0.038195714 0.022535209 -0.20410247 0.96832949 0.14380611 0
-0.012569616 0.039221942 0.022410884 -0.20399003 0.9661755 0.15777512 0
-0.0089219278 0.039710931 0.023988212 -0.20193791 0.94687533 0.25029626 0
0.0037036992 0.037340004 0.02229117 0.95954359 0.2807188 0.021747814 0
-0.0068863053 0.04052129 0.022152459 -0.2145905 0.96426666 0.15537259 0
-0.0026699277 0.041405521 0.022421962 -0.21748872 0.96198857 0.16515641 0
0.0016301902 0.041454718 0.022542516 0.59387618 0.80233443 -0.059754718 0
-0.046565555 -0.056711279 0.026172992 -0.26959682 -0.49664184 0.82502389 0
-0.04312811 -0.056279808 0.026052104 0.22938658 -0.6732083 0.70297396 0
-0.037910081 -0.055402216 0.025616443 0.2004258 -0.78970242 0.57982725 0
-0.047317047 -0.052074451 0.026610283 -0.46926323 -0.14777011 0.87060672 0
-0.04262257 -0.052559178 0.026987027 0.014561521 -0.084698193 0.99630028 0
-0.037412059 -0.052449256 0.026816027 0.046503417 -0.21573371 0.97534424 0
-0.032436524 -0.052538298 0.02642021 0.10848749 -0.43472025 0.89400715 0
-0.027548335 -0.051700942 0.026357168 0.1217604 -0.45147476 0.88393712 0
-0.022435157 -0.05111916 0.026065597 0.10927685 -0.62754983 0.77086943 0
-0.017821159 -0.05067477 0.025651991 0.1799324 -0.79213351 0.58322281 0
-0.014380096 -0.050179541 0.025270045 0.21534963 -0.9150629 0.34100506 0
-0.050137166 -0.045543369 0.025807351 -0.93991023 -0.25199711 0.23036085 0
-0.047922891 -0.047333211 0.026823483 -0.42974421 -0.11956522 0.89499956 0
-0.042788904 -0.047212545 0.02738262 -0.013095409 -0.06944751 0.99749964 0
-0.03755784 -0.047499347 0.027350511 0.0086479075 -0.071927167 0.99737245 0
-0.032444477 -0.047497038 0.027282165 0.01522334 -0.088588424 0.99595195 0
-0.027511802 -0.047406383 0.027205164 0.02637266 -0.089752138 0.99561489 0
-0.02252063 -0.047448069 0.027023491 0.036941644 -0.096930884 0.99460536 0
-0.017734583 -0.047584862 0.026800519 0.048566438 -0.15771644 0.98628938 0
-0.012681524 -0.04759657 0.026442638 0.090823829 -0.32111812 0.94267398 0
-0.0075003337 -0.047046561 0.026230974 0.10316021 -0.40181494 0.90989161 0
-0.0027543257 -0.04649701 0.025996886 0.14232367 -0.5943076 0.79154432 0
0.0019444553 -0.045740966 0.025787411 0.18051885 -0.77575624 0.60466129 0
0.005852758 -0.045161869 0.025245244 0.18923481 -0.92065632 0.34144133 0
-0.050830092 -0.041941378 0.0260019 -0.86854851 -0.20829146 0.44970888 0
-0.047583092 -0.042651847 0.027398266 -0.15843654 -0.067872114 0.98503357 0
-0.042486306 -0.042545617 0.027673684 0.0028343007 -0.050950326 0.99869722 0
-0.03771368 -0.042449884 0.02767344 -0.0099055478 -0.055351488 0.99841779 0
-0.032484159 -0.042628765 0.027625458 0.019783355 -0.04851995 0.99862629 0
-0.027508942 -0.042397283 0.02751554 0.026096791 -0.043966778 0.9986921 0
-0.022465264 -0.042454395 0.027357763 0.031862825 -0.048915114 0.99829459 0
-0.017597392 -0.042589646 0.027197335 0.030818548 -0.051400442 0.99820244 0
-0.01230393 -0.042439491 0.027038373 0.032923296 -0.050529964 0.99817979 0
-0.0072992234 -0.042457212 0.026848357 0.037589293 -0.065159522 0.99716663 0
-0.0026542272 -0.042331133 0.026770897 -0.00048051917 -0.075186431 0.99716938 0
0.0026214018 -0.042471353 0.026792055 0.0028135919 -0.13963704 0.99019879 0
0.0073334677 -0.042680003 0.026586687 0.055964425 -0.34491378 0.93696451 0
0.012283775 -0.042351205 0.026388094 0.097864978 -0.5318917 0.8411383 0
0.017396029 -0.041711263 0.026240962 0.16813444 -0.67316425 0.7201255 0
0.021003673 -0.040975105 0.025905998 0.55520546 -0.56254375 0.61261034 0
-0.051556587 -0.03724796 0.026329404 -0.71068066 -0.18003528 0.68008852 0
-0.047467999 -0.037336349 0.027701253 -0.12512043 -0.038387988 0.99139863 0
-0.042650819 -0.037358083 0.02790999 -0.0036202897 -0.041035242 0.99915117 0
-0.037381407 -0.037720602 0.027891364 0.0043606898 -0.036856867 0.99931103 0
-0.032339733 -0.037495606 0.027808988 0.027677163 -0.03763878 0.99890804 0
-0.027524099 -0.037453532 0.027676351 0.028335098 -0.03712042 0.998909 0
-0.022164039 -0.037630923 0.027539451 0.025053632 -0.029927213 0.99923801 0
-0.017652472 -0.037317127 0.027412154 0.035007 -0.027381485 0.99901187 0
-0.012409669 -0.037397668 0.027242295 0.027626056 -0.038157504 0.99888974 0
-0.0073999339 -0.037508208 0.027121911 0.018777873 -0.045633592 0.9987818 0
-0.0025328367 -0.037508264 0.027131611 -0.020879418 -0.067379929 0.99750894 0
0.0026288687 -0.037348218 0.02725902 -0.021356542 -0.076878153 0.99681175 0
0.0074310689 -0.037374366 0.027331989 -0.016221093 -0.083736166 0.99635595 0
0.012286601 -0.037450444 0.02739078 -0.002912459 -0.095367037 0.99543792 0
0.017525276 -0.037467886 0.027305938 0.042932931 -0.081985451 0.99570841 0
0.021071475 -0.037577227 0.02625718 0.92831308 0.15789783 0.33660543 0
-0.052323427 -0.032182314 0.026699856 -0.5905267 -0.15911393 0.79117697 0
-0.0475398 -0.032673892 0.027856503 -0.10436121 -0.023949804 0.99425101 0
-0.042583842 -0.032582261 0.028060034 -0.0075218347 -0.021647507 0.99973738 0
-0.037446879 -0.032304309 0.028074481 0.0034247334 -0.025872849 0.99965936 0
-0.032373313 -0.032328386 0.027966544 0.024724027 -0.024103694 0.99940372 0
-0.027669149 -0.032319162 0.027857499 0.027742261 -0.020399602 0.99940693 0
-0.022541717 -0.032339163 0.027707702 0.032919392 -0.024360526 0.99916106 0
-0.017431468 -0.03244843 0.027536571 0.031003285 -0.035008565 0.99890602 0
-0.012448787 -0.032523859 0.02739195 0.025697216 -0.021234624 0.99944425 0
-0.0073477882 -0.032521743 0.027327871 0.00076926616 -0.039188564 0.99923152 0
-0.0024409322 -0.032819208 0.027403194 -0.036901169 -0.056391321 0.99772656 0
0.0025706545 -0.032459188 0.027599817 -0.033405982 -0.060963452 0.99758077 0
0.007697843 -0.032636326 0.027717117 -0.019201726 -0.074684612 0.99702227 0
0.01252252 -0.032575436 0.027783262 0.0019234748 -0.069529049 0.99757802 0
0.017809216 -0.032315597 0.027254308 0.39165843 0.053538315 0.9185518 0
0.020320861 -0.034077093 0.026172386 0.949673 0.26573321 0.1658527 0
-0.05519655 -0.025429502 0.025774531 -0.93375111 -0.25124058 0.25492549 0
-0.052718986 -0.027439162 0.02700536 -0.40942425 -0.10159158 0.90667021 0
-0.047495525 -0.027366724 0.027912015 -0.077467211 -0.0032686479 0.99698949 0
-0.04240033 -0.027714461 0.028124854 -0.020363268 -0.0054637291 0.99977773 0
-0.037438832 -0.027529785 0.02815441 0.0099479547 -0.015306215 0.99983341 0
-0.032523476 -0.027553625 0.02808778 0.0098105939 -0.023890838 0.99966639 0
-0.027662747 -0.027669201 0.027965795 0.036919028 -0.022397567 0.99906725 0
-0.022443619 -0.027643412 0.027792364 0.038196262 -0.023512684 0.99899358 0
-0.017568646 -0.02731627 0.027636327 0.0274822 -0.016459355 0.9994868 0
-0.012590633 -0.027433651 0.027496239 0.016769825 -0.020857712 0.99964178 0
-0.0076055545 -0.027323682 0.027508669 -0.023413826 -0.035664283 0.99908954 0
-0.0026227592 -0.027496267 0.027663048 -0.038382027 -0.042691022 0.9983508 0
0.0025103185 -0.027491665 0.027882423 -0.044601273 -0.055302456 0.997473 0
0.0072225756 -0.027588388 0.028058955 -0.026031708 -0.059879813 0.99786609 0
0.012634965 -0.027546858 0.028077921 0.026593415 -0.046076894 0.99858385 0
0.017359974 -0.027488444 0.027119022 0.63716918 0.13764451 0.75833333 0
-0.055799559 -0.022207685 0.026157489 -0.8702386 -0.22133675 0.44010779 0
-0.052491453 -0.022278883 0.027448863 -0.14458343 -0.027362678 0.98911417 0
-0.047371648 -0.022682473 0.027965426 -0.069618665 -0.012463839 0.99749583 0
-0.042493176 -0.022733623 0.028172975 -0.028968653 -0.013673318 0.9994868 0
-0.037514281 -0.022370724 0.02823033 0.014582109 -0.021389375 0.99966484 0
-0.032429986 -0.022407141 0.028160747 0.016685013 -0.0091963159 0.99981844 0
-0.027505798 -0.022700004 0.028049624 0.031204332 -0.011551693 0.99944621 0
-0.022597754 -0.022519739 0.027902734 0.028811138 -0.013161177 0.99949825 0
-0.017630249 -0.02256144 0.027731936 0.038241897 -0.022508817 0.99901491 0
-0.012650294 -0.022494908 0.027612714 0.0057428936 -0.027887844 0.99959457 0
-0.0075069522 -0.022577614 0.027694857 -0.028082866 -0.042669874 0.99869442 0
-0.0024753751 -0.022592871 0.027878236 -0.046570163 -0.048861749 0.99771923 0
0.002483123 -0.022375999 0.028142894 -0.054486625 -0.054177523 0.99704367 0
0.0074764956 -0.022383297 0.028333247 -0.0089104837 -0.043654174 0.99900699 0
0.012600139 -0.022502506 0.02820925 0.058990393 -0.002426448 0.99825555 0
0.01667924 -0.022854885 0.026969409 0.77859241 0.21527602 0.58944899 0
-0.05662572 -0.017225314 0.026392158 -0.72503048 -0.18618013 0.66307449 0
-0.052500568 -0.017584838 0.02754697 -0.10389967 -0.019564649 0.99439538 0
-0.047621634 -0.01746837 0.028013287 -0.063600481 -0.0053724716 0.99796104 0
-0.042529423 -0.017390007 0.02825984 -0.035572745 -0.016188689 0.99923593 0
-0.037551399 -0.017320037 0.02833127 0.0034903358 -0.012405158 0.99991691 0
-0.032418028 -0.017539417 0.028255353 0.023585649 -0.020810317 0.99950516 0
-0.027416138 -0.017617417 0.028115686 0.028544992 -0.022389112 0.99934173 0
-0.022658153 -0.01758856 0.027980626 0.025524223 -0.018386522 0.9995051 0
-0.017441152 -0.017556299 0.027826354 0.032058414 -0.02073002 0.99927098 0
-0.012295185 -0.017457418 0.027770411 -0.016594937 -0.03267619 0.9993282 0
-0.0074003828 -0.017425049 0.027935149 -0.040742051 -0.042631637 0.99825978 0
