# .PCD v0.7 - Point Cloud Data file format
VERSION 0.7
FIELDS x y z normal_x normal_y normal_z curvature
SIZE 4 4 4 4 4 4 4
TYPE F F F F F F F
COUNT 1 1 1 1 1 1 1
WIDTH 620
HEIGHT 1
VIEWPOINT 0 0 0 1 0 0 0
POINTS 620
DATA ascii
-0.027380755 -0.017270921 -0.00011941293 -0.0065671508 -0.053609714 -0.9985404 0
-0.022656921 -0.017538387 -0.00015688896 -0.014621081 -0.050161704 -0.9986341 0
-0.017823895 -0.017406313 -0.00025404044 -0.022499714 -0.047402482 -0.99862236 0
-0.01269793 -0.017350867 -0.00037730593 -0.025744472 -0.041186858 -0.99881971 0
-0.0076768585 -0.017656986 -0.00051268324 -0.032586936 -0.038170729 -0.99873978 0
-0.0023378173 -0.017378146 -0.0007201712 -0.044175159 -0.034004793 -0.99844491 0
0.0026138844 -0.017517086 -0.00096612395 -0.056712009 -0.038095955 -0.9976635 0
0.0073389099 -0.017726162 -0.0012628118 -0.11633039 -0.028174153 -0.9928109 0
0.012908446 -0.0173179 -0.0021327205 0.50890446 0.04924259 -0.85941344 0
-0.077205352 -0.012877903 -0.0011391743 -0.33157629 0.18845432 -0.92441452 0
-0.072569102 -0.012370181 -0.0013561283 0.059174664 -0.030814044 -0.99777192 0
-0.067454867 -0.012612759 -0.0009751413 0.073229142 -0.025335744 -0.99699324 0
-0.062685542 -0.012383636 -0.00071409566 0.02974944 -0.028555442 -0.99914944 0
-0.057504199 -0.012608937 -0.00064020214 0.0017806363 -0.049089864 -0.99879283 0
-0.052486587 -0.012665997 -0.0006293605 0.0057400106 -0.064372845 -0.99790943 0
-0.04774002 -0.012560542 -0.00057575217 0.018186558 -0.070738964 -0.99732906 0
-0.042826027 -0.012476573 -0.00049898389 0.014815859 -0.0741129 -0.99713981 0
-0.037767276 -0.013037056 -0.0004038933 0.0066394988 -0.073622771 -0.99726409 0
-0.032514237 -0.012600366 -0.00041815292 0.00069356331 -0.077153087 -0.99701899 0
-0.027464796 -0.012696374 -0.00042185016 -0.0041057393 -0.075911298 -0.99710608 0
-0.022304323 -0.012692205 -0.00045733471 -0.011612461 -0.070270784 -0.99746037 0
-0.017321246 -0.012275809 -0.00056338811 -0.016306175 -0.068084963 -0.99754626 0
-0.01252936 -0.012471741 -0.00063042186 -0.017971346 -0.057690151 -0.99817282 0
-0.0072665135 -0.012461673 -0.00073843496 -0.023662297 -0.046749748 -0.99862635 0
-0.0024682044 -0.012730584 -0.00088333501 -0.043153007 -0.039610095 -0.99828291 0
0.0024143376 -0.012424295 -0.0011145424 -0.046312798 -0.02671246 -0.99856973 0
0.0075104395 -0.012273319 -0.0015871695 -0.25462419 -0.095240138 -0.96233875 0
0.012540994 -0.012453456 -0.0019524153 0.71345222 0.19867 -0.67194951 0
-0.076017238 -0.0089704376 -0.00045602222 -0.53689718 0.53063136 -0.65587485 0
-0.072212167 -0.0072838431 -0.0010624394 -0.2163651 0.31775123 -0.92315775 0
-0.067462817 -0.0073812022 -0.0011923605 0.049078111 -0.038990173 -0.99803364 0
-0.062556222 -0.007725935 -0.0010721652 -0.017938294 -0.16173549 -0.98667103 0
-0.057471551 -0.0075194938 -0.0012350039 0.0046466533 -0.29012653 -0.95697701 0
-0.052632369 -0.0076068137 -0.0012022923 0.021601306 -0.28069702 -0.95955336 0
-0.047770191 -0.0074103954 -0.001065623 0.02377812 -0.23349072 -0.97206825 0
-0.042594034 -0.007649702 -0.00091758353 0.013425742 -0.18825522 -0.98202842 0
-0.037530247 -0.0075475895 -0.0008795688 0.0060099601 -0.16887139 -0.98561978 0
-0.032751422 -0.0075822305 -0.00084157614 0.0029174821 -0.13252619 -0.99117517 0
-0.027206806 -0.0075487392 -0.00084676192 -0.0019644373 -0.1015333 -0.99483025 0
-0.022416199 -0.007580298 -0.00085680338 -0.0041727754 -0.090201043 -0.99591488 0
-0.017637223 -0.0072810925 -0.00091094669 -0.0075843078 -0.073053502 -0.99729919 0
-0.012494169 -0.0075381692 -0.00092901132 -0.0067435047 -0.063817158 -0.99793875 0
-0.0073114322 -0.0074486854 -0.00097680325 -0.010440198 -0.045091201 -0.99892831 0
-0.0025071255 -0.0074707652 -0.0010632423 -0.029301481 -0.021141298 -0.99934703 0
0.002517327 -0.007429312 -0.0013198471 -0.091905043 -0.099738345 -0.99076021 0
0.0075898496 -0.0075123385 -0.0023290624 -0.22734143 -0.18183917 -0.95668715 0
0.011360762 -0.0082829213 -0.0018821222 0.76856267 0.4290235 -0.47460532 0
-0.070804231 -0.0047722785 -0.00042297525 -0.36519271 0.65670913 -0.65982383 0
-0.06747175 -0.0038976141 -0.00071230606 -0.1743041 0.64751494 -0.74185067 0
-0.06235813 -0.0034971409 -0.0015112483 -0.23851395 0.50034189 -0.83232749 0
-0.05735594 -0.0032570595 -0.0018947256 -0.055649459 0.66671354 -0.74323362 0
-0.052231934 -0.0030438595 -0.0018769254 -0.067980595 0.5863958 -0.80716705 0
-0.047498874 -0.0028029596 -0.0021302516 -0.022635361 0.51059586 -0.85952288 0
-0.04210398 -0.002730137 -0.0020308986 -0.036332041 0.50214028 -0.86402267 0
-0.037409928 -0.0025267357 -0.0020750579 -0.048770566 0.38929209 -0.91982239 0
-0.032608118 -0.0024188382 -0.0020647137 -0.0067309365 0.24147628 -0.97038341 0
-0.02745636 -0.0022520509 -0.0018757511 -0.019866629 0.39574316 -0.91814631 0
-0.022316281 -0.0018254254 -0.0018656873 -0.058501016 0.39570835 -0.91651112 0
-0.017698277 -0.002286861 -0.0022361642 0.0013113681 -0.11301242 -0.99359268 0
-0.012547873 -0.0024433362 -0.0020020267 0.011433372 -0.10635119 -0.99426287 0
-0.0073314724 -0.0024209365 -0.0021083718 0.033344928 -0.31638142 -0.94804579 0
-0.0022774364 -0.0025679215 -0.0020043962 -0.054467432 -0.31683022 -0.94691706 0
0.002707269 -0.002220921 -0.0023186912 0.017227558 0.10941296 -0.99384707 0
0.0070412839 -0.0032690845 -0.00182564 0.54042655 0.64724481 -0.53759962 0
-0.01713266 0.0001161845 -0.0011251885 -0.038522474 0.99670017 -0.071447603 0
-0.012338787 0.00026703297 -0.00085637113 -0.15084153 0.98854822 -0.0043985634 0
-0.0072970232 0.00074032706 -0.0016470982 -0.083449468 0.91701639 -0.39002207 0
-0.002539377 0.00084379606 -0.0017541263 0.070329718 0.90641481 -0.41649249 0
0.0016021801 0.00033143273 -0.0009983764 0.30750781 0.93419909 -0.18086186 0
-0.071763925 -0.050937612 0.0025158336 -0.51790977 -0.85541058 0.0064944928 0
-0.067634515 -0.05272235 0.0024438547 -0.28845328 -0.95740318 -0.013190808 0
-0.062698245 -0.053526975 0.0025633846 -0.012275697 -0.99986023 0.011351429 0
-0.057082567 -0.053106856 0.0025155446 0.1353457 -0.99040228 -0.028016135 0
-0.052438013 -0.052528143 0.0024847796 0.066619582 -0.99074382 -0.11827348 0
-0.047552343 -0.052295055 0.0023146805 0.081816643 -0.99467957 -0.062598467 0
-0.042453818 -0.05184051 0.0020810603 0.11105159 -0.99324155 -0.033744633 0
-0.037510343 -0.051422611 0.0024220364 0.026822377 -0.99122721 -0.12941876 0
-0.032469958 -0.051333506 0.0026229303 0.060557041 -0.99561173 -0.071345583 0
-0.027573934 -0.051015906 0.0025567668 0.071104996 -0.99607384 -0.052735712 0
-0.022206651 -0.050632849 0.0021976 0.0091131553 -0.99935228 -0.034813635 0
-0.017402599 -0.050543733 0.0025157807 0.045142986 -0.99897861 0.0019863427 0
-0.012901589 -0.050310448 0.0026067477 0.065680727 -0.9963907 -0.05377255 0
-0.0075717568 -0.050076548 0.0036955399 0.021820005 -0.99821663 -0.055564921 0
-0.076232247 -0.046820816 0.0026306924 -0.7997523 -0.60029459 -0.0065392074 0
-0.074139953 -0.04918319 0.0021582227 -0.68662852 -0.72677165 -0.018556146 0
-0.010493869 -0.049821533 0.0013068798 0.23196253 -0.97255421 -0.018209416 0
-0.0072443616 -0.049815997 0.0015491784 -0.0063826684 -0.99818754 -0.059840463 0
-0.002291342 -0.049783729 0.0025397788 0.052142728 -0.99860883 0.0078498535 0
0.0023654834 -0.049074378 0.0024572222 0.26402035 -0.96340322 -0.04633975 0
0.0076327692 -0.046575442 0.0025902907 0.57444161 -0.81631726 -0.060356665 0
-0.078673854 -0.042398196 0.0025453868 -0.92847592 -0.37113789 -0.013755114 0
0.0098375082 -0.044857889 0.0018585697 0.70481682 -0.70359868 -0.090454772 0
0.011805641 -0.042582411 0.0025249673 0.79389781 -0.60032076 -0.096649654 0
-0.080087647 -0.035918247 0.0030762837 -0.99413526 -0.10282134 -0.033509716 0
-0.07978493 -0.038188428 0.0022502632 -0.98926592 -0.14515525 -0.016820038 0
0.014352842 -0.03815465 0.0024871714 0.92976475 -0.36068937 -0.073761404 0
0.015151721 -0.0355778 0.0029100501 0.97919828 -0.19895186 -0.039859403 0
-0.080283865 -0.032551922 0.0025613748 -0.99988461 -0.012902917 -0.0080138929 0
-0.045533497 -0.030636791 1.2792506e-05 0.022385996 0.022083828 -0.99950552 0
-0.041979402 -0.031474348 5.1252653e-05 0.014531662 0.024352118 -0.99959779 0
-0.037492812 -0.032095298 7.3456329e-05 0.0055095376 0.031774454 -0.99947995 0
-0.032381166 -0.032614313 7.0207752e-05 -0.0028403364 0.035462361 -0.99936694 0
-0.0276352 -0.031875953 6.7566318e-05 -0.0099434564 0.032321606 -0.99942809 0
-0.023191828 -0.031211538 4.0643288e-05 -0.014209788 0.023650013 -0.99961931 0
0.015373628 -0.032581184 0.0025568143 0.99874043 -0.018718818 -0.0465542 0
-0.080533288 -0.027460065 0.0024188648 -0.99137706 -0.12989579 -0.017280215 0
-0.046144024 -0.027766569 3.0213045e-05 0.022576535 0.0024525556 -0.99974209 0
-0.0425133 -0.027580624 9.2097369e-05 0.015966116 -0.00011414984 -0.99987245 0
-0.037695583 -0.027493607 0.00015480524 0.0078129228 0.0033895138 -0.99996376 0
-0.03239673 -0.027600264 0.00017320146 -0.0017025769 0.0026017618 -0.99999517 0
-0.027223984 -0.027328482 0.0001418061 -0.0089717722 0.0020662809 -0.99995762 0
-0.022422142 -0.027579738 8.036189e-05 -0.017133065 0.0025104098 -0.99985009 0
-0.019260017 -0.027467096 1.781967e-05 -0.022802971 0.0023643663 -0.9997372 0
0.014881988 -0.025444474 0.0023048255 0.96952242 0.24272856 0.03330211 0
0.015180543 -0.02775093 0.0022320654 0.9968847 0.078720711 0.0048921858 0
-0.08107724 -0.022383491 0.0028242825 -0.99808937 -0.061672699 0.0037685796 0
-0.045559622 -0.024285918 9.5963533e-06 0.013260686 -0.016011944 -0.99978387 0
-0.042388625 -0.02323206 4.7381982e-05 0.017256865 -0.021100575 -0.99962842 0
-0.037859168 -0.022417737 8.5335138e-05 0.0077985851 -0.025105225 -0.99965435 0
-0.032636233 -0.022565041 0.00010908304 -0.00059673586 -0.024581987 -0.99969769 0
-0.027650177 -0.022866957 9.5201525e-05 -0.007802329 -0.022583561 -0.99971449 0
-0.022809003 -0.023279261 4.3366079e-05 -0.017894123 -0.019244554 -0.99965471 0
0.014494783 -0.022240628 0.0024717357 0.99639499 -0.003886142 -0.084745757 0
-0.080864467 -0.017209036 0.0024448927 -0.978526 0.18075024 -0.09907636 0
-0.037306499 -0.01972447 1.0096043e-05 0.008043942 -0.043613557 -0.99901611 0
-0.032286603 -0.019544631 1.7306091e-05 -0.0011089561 -0.041039169 -0.99915689 0
-0.028726524 -0.019678263 8.7513981e-06 -0.0070808055 -0.046961877 -0.99887162 0
0.014317204 -0.017324205 0.0023357607 0.99465281 0.10304629 -0.0068649603 0
-0.080223091 -0.014475605 0.0031409678 -0.94156212 0.33281389 -0.051919252 0
-0.078928001 -0.011763316 0.0026461834 -0.87042081 0.48287398 -0.095918573 0
0.013512292 -0.012412497 0.0024502289 0.96577883 0.25906458 -0.012525012 0
-0.076335728 -0.008099921 0.002723797 -0.7309745 0.67722106 -0.083951421 0
-0.073864058 -0.0059189824 0.0021588937 -0.5800274 0.80681479 -0.11233034 0
0.0098550422 -0.0051283468 0.0020007219 0.76820278 0.64020652 0.00033497525 0
0.01145432 -0.0074947602 0.0023368427 0.86218244 0.50632858 -0.016521677 0
-0.071351178 -0.0043462827 0.0025971562 -0.44776538 0.89004493 -0.085593328 0
-0.06762059 -0.0030574054 0.0024999094 -0.23395677 0.96906716 -0.078569226 0
-0.062291738 -0.0024513649 0.0025036079 -0.054738943 0.9983393 0.017953236 0
-0.057578407 -0.0023922285 0.0024333487 -0.0045575807 0.99834543 -0.057319745 0
-0.052624151 -0.0020754456 0.0026400085 -0.080792002 0.99672711 -0.0027634248 0
-0.047335196 -0.0018180769 0.0026901988 -0.043220617 0.99906474 0.0012615769 0
-0.042512834 -0.0017867648 0.0025581203 -0.028695686 0.99624902 -0.081636488 0
-0.037449524 -0.0013111724 0.002444505 -0.063399337 0.99740314 -0.034170184 0
-0.032408945 -0.0010499408 0.0023645998 -0.056886707 0.99837178 0.0042129303 0
-0.027315894 -0.00091238809 0.0026120623 -0.082728855 0.97176903 -0.22095466 0
-0.022467805 -0.00042518679 0.0023298224 -0.083309524 0.99531609 -0.049043622 0
-0.017930333 -0.00018322316 0.0021618218 -0.071699403 0.9969449 -0.030984964 0
-0.012953584 -0.00013983807 0.0017837695 -0.087716736 0.99608487 0.010987129 0
0.0040778397 -0.00055578072 0.0019649859 0.44477424 0.89557868 -0.010714646 0
0.0075738835 -0.0028991483 0.0026400376 0.6445173 0.76448095 -0.012897032 0
-0.021096466 0.00010273873 0.0040817023 -0.044465721 0.9847666 -0.16809954 0
-0.017238773 0.00022999031 0.0030786712 -0.07508532 0.99262315 -0.095192589 0
-0.012282267 0.00039814581 0.0025900402 -0.18658987 0.97911102 -0.080782637 0
-0.0075172917 0.00096421479 0.0022886256 -0.11124936 0.993792 -0.00099436811 0
-0.0024451595 0.0012121339 0.0025172669 0.062419049 0.99802673 -0.0068141534 0
0.0015520813 0.00047825748 0.0025616121 0.30512094 0.95223296 -0.012389571 0
-0.071530707 -0.05104427 0.0073832478 -0.50683218 -0.86204469 -0.0001766448 0
-0.067356803 -0.052793518 0.0077043474 -0.27780569 -0.96062964 0.0038416844 0
-0.06249309 -0.05345536 0.0076905019 -0.0055562989 -0.99979955 0.019237349 0
-0.057829928 -0.053158294 0.007396372 0.08579421 -0.99599946 0.024989238 0
-0.05251563 -0.052744437 0.0074399379 0.076082654 -0.99642271 0.036785528 0
-0.047373153 -0.052352149 0.0076357923 0.080132134 -0.99617767 0.034770135 0
-0.042511616 -0.051992666 0.007613353 0.076673649 -0.99637771 0.036777653 0
-0.037485301 -0.051637862 0.0075334776 0.058181174 -0.99669349 0.056719795 0
-0.032378286 -0.051303111 0.0076656286 0.062499113 -0.99527717 0.074278884 0
-0.027310971 -0.051031929 0.0074377037 0.055195577 -0.99603426 0.069779135 0
-0.022343915 -0.050719738 0.0076166936 0.056413684 -0.9973734 0.045429889 0
-0.017495343 -0.050465118 0.0074844956 0.057545751 -0.99696225 0.052486032 0
-0.012609613 -0.050199974 0.0073846527 0.048873283 -0.99754435 0.050167073 0
-0.0086280974 -0.050075363 0.0060649472 0.052618597 -0.9980787 0.032713063 0
-0.076535888 -0.046425615 0.0073275636 -0.81710374 -0.57646203 0.0057485765 0
-0.074103929 -0.049261868 0.0073425705 -0.66229451 -0.74921376 0.0066887853 0
-0.010600069 -0.04998897 0.0075717345 0.021030862 -0.99971145 -0.011607697 0
-0.007040218 -0.049888596 0.0080076586 0.054466732 -0.99822438 0.024113467 0
-0.0025850588 -0.049745329 0.0075237076 0.043223653 -0.99895447 0.014886291 0
0.0024007417 -0.049081709 0.0071220007 0.25328937 -0.96731573 0.012033518 0
0.007695511 -0.046679635 0.0070782984 0.55400252 -0.83231568 -0.018212581 0
0.010032213 -0.045000307 0.0082315542 0.69207382 -0.72162008 -0.017271049 0
-0.078635633 -0.042570706 0.0075457958 -0.92653561 -0.37620199 -0.001960746 0
0.012064662 -0.042630691 0.0077354619 0.80485505 -0.593373 -0.010809372 0
-0.080050327 -0.035725709 0.0077273399 -0.99696785 -0.077651247 0.0050395206 0
-0.079850197 -0.03815084 0.0074917404 -0.99182558 -0.12738281 -0.0074623651 0
0.01444672 -0.038277648 0.0075122402 0.93706053 -0.34916699 -0.00028673786 0
0.015179442 -0.035762541 0.0076200799 0.98305243 -0.18332021 -0.0012491491 0
-0.080307364 -0.032408617 0.0076068495 -0.99665612 -0.08170405 0.00098796247 0
0.015422289 -0.032675922 0.0072383587 0.99987936 -0.014909781 0.0043646931 0
-0.080651499 -0.027497482 0.0074534244 -0.99752766 -0.068917118 -0.013747592 0
0.01497534 -0.025445182 0.0070729065 0.99686664 0.079010561 0.0037775829 0
0.015184255 -0.027978165 0.0076329773 0.9967134 0.080996759 -0.0013701769 0
-0.08102756 -0.022747548 0.0074188956 -0.9965505 -0.082513906 -0.0088625075 0
0.014741624 -0.022387732 0.0079123182 0.99715412 0.075359672 -0.0021247559 0
-0.081003152 -0.017535631 0.0073373639 -0.98822069 0.15303385 0.00074137817 0
0.014358391 -0.017415177 0.0074105328 0.99660444 0.082330376 -0.001137511 0
-0.080236085 -0.014375242 0.0078308545 -0.94740742 0.32002813 0.001073161 0
-0.079013258 -0.011702585 0.0076510184 -0.87857127 0.47760811 -0.0017546919 0
0.01363558 -0.012538493 0.007496635 0.96754622 0.25267756 -0.0028819027 0
-0.076431625 -0.008128874 0.0074374955 -0.74223125 0.67007577 0.0095517542 0
-0.073990412 -0.0058631897 0.0072540613 -0.60253549 0.79805237 -0.0079542762 0
0.0099014537 -0.0050913678 0.0072829886 0.78809112 0.61502188 0.025701657 0
0.011549589 -0.0075649014 0.0076318332 0.8616392 0.50750107 0.0045388523 0
-0.071476325 -0.0043172431 0.0069354689 -0.42537114 0.90501457 -0.0028263703 0
-0.067806818 -0.0030934843 0.0075204656 -0.22112462 0.9751606 0.012876358 0
-0.06239669 -0.0025716885 0.0073784036 -0.027238835 0.99961543 0.0051927567 0
-0.057613805 -0.0023878822 0.0076712491 -0.033929791 0.99917209 0.022448072 0
-0.052463394 -0.002173102 0.0073594046 -0.025802569 0.99896169 0.037547473 0
-0.047222622 -0.0019592647 0.0074787061 -0.038454276 0.99849707 0.03904929 0
-0.042937983 -0.0017471672 0.0075729676 -0.06476333 0.99689025 0.044894695 0
-0.037563171 -0.0013602417 0.0074774018 -0.066447333 0.99586284 0.061983887 0
-0.032855622 -0.0010750211 0.0078579206 -0.070706964 0.99523699 0.067110121 0
-0.027670797 -0.00065569114 0.0073887836 -0.072267227 0.99481642 0.071539186 0
-0.02264978 -0.00028921422 0.0076521686 -0.083802424 0.99426591 0.066426523 0
-0.018848643 -7.180425e-05 0.0087636113 -0.082869321 0.99567115 0.042089954 0
0.0039225081 -0.00044712532 0.0075813564 0.43294227 0.90141642 0.0030681449 0
0.0077124001 -0.0029965495 0.0074887439 0.64125961 0.76732379 0.00053616631 0
-0.020431478 1.6500277e-05 0.0055184425 -0.045652483 0.99621654 0.073949642 0
-0.017024945 0.00016653292 0.0075046211 -0.084326185 0.9949407 0.054609537 0
-0.01265606 0.00049690012 0.0074207662 -0.074732617 0.996095 0.047008324 0
-0.0078235855 0.00084636093 0.0077243522 -0.093627989 0.99546582 0.01678396 0
-0.0025741234 0.0011394089 0.0073679588 0.024027033 0.9992606 0.030017229 0
0.0013474688 0.00053661811 0.0076157213 0.28891918 0.9573229 0.0076587675 0
-0.071774296 -0.05093671 0.012442141 -0.52413058 -0.85163784 -0.00016064585 0
-0.067502201 -0.052788168 0.012337609 -0.27046916 -0.96272725 0.0016634288 0
-0.062479738 -0.053427961 0.012728391 0.018635718 -0.9997887 -0.0086678062 0
-0.057407804 -0.05310867 0.012307997 0.080434553 -0.99674124 0.0061000986 0
-0.052841924 -0.052739561 0.012380485 0.072595589 -0.99732506 0.0085179685 0
-0.047530103 -0.052325472 0.012397924 0.079255827 -0.99677515 0.012562379 0
-0.042447917 -0.051905315 0.012404371 0.076337233 -0.99705726 0.0070317914 0
-0.037498429 -0.051561255 0.012612717 0.076598942 -0.99705583 0.0035087946 0
-0.032826364 -0.051189408 0.012562734 0.071802191 -0.99741709 -0.0018814061 0
-0.02756889 -0.050802872 0.012050064 0.063866325 -0.99780303 0.017615646 0
-0.022557985 -0.050515063 0.012511544 0.049474292 -0.99802506 0.038707435 0
-0.017403543 -0.050274912 0.012583643 0.045130361 -0.99861938 0.026882036 0
-0.013115725 -0.050080858 0.012313888 0.046012904 -0.99862009 0.02531123 0
-0.07626874 -0.046791162 0.01248073 -0.799178 -0.60106313 -0.0061353655 0
-0.074024953 -0.049329706 0.012561957 -0.67312348 -0.73952287 -0.0032894933 0
-0.010833627 -0.04996419 0.013186133 0.038983393 -0.9991461 0.013687703 0
-0.0078110835 -0.049859188 0.012974164 0.037814703 -0.99906468 0.020971166 0
-0.0026095158 -0.049654942 0.012599519 0.038200624 -0.9988308 0.029625487 0
0.0025392713 -0.049016606 0.012421576 0.24105512 -0.9704954 0.0055892458 0
0.0076994807 -0.04678471 0.012561217 0.54186118 -0.84033459 -0.014973862 0
-0.078624606 -0.042590901 0.012787725 -0.92303312 -0.38471249 -0.002503467 0
0.012245669 -0.042423222 0.012462835 0.81559145 -0.57858294 -0.0072417171 0
-0.080064163 -0.035636995 0.013722219 -0.99720103 -0.074738622 -0.002048214 0
-0.079851024 -0.038128216 0.012519598 -0.99272734 -0.12033173 0.0035543707 0
0.014437032 -0.038330607 0.012324505 0.94361967 -0.3310301 -0.00099218625 0
0.015163296 -0.035909507 0.012431972 0.97256261 -0.23263167 0.0021138233 0
-0.080331966 -0.032378413 0.012632852 -0.9972837 -0.07364691 -0.0011594276 0
0.015422733 -0.032606475 0.012502577 0.99980199 -0.017444341 -0.0095724659 0
-0.080643162 -0.027629804 0.012690639 -0.99643046 -0.084081903 0.0075268876 0
0.014980728 -0.025258252 0.010906937 0.9975127 0.069521986 -0.011623721 0
0.015210292 -0.027686417 0.012822444 0.99665684 0.08032535 -0.01493639 0
-0.081053019 -0.022668831 0.012527567 -0.99658662 -0.082379267 0.0053561958 0
0.01481595 -0.022824718 0.012284165 0.99702597 0.075977936 -0.012903999 0
0.015001876 -0.024703642 0.014793485 0.99511594 0.096799672 -0.019343942 0
-0.080979034 -0.017524691 0.012459073 -0.98588258 0.1668397 0.01414423 0
0.01440729 -0.01751765 0.012514606 0.9964307 0.083882928 -0.0094621498 0
-0.080210179 -0.014459267 0.012235551 -0.95067066 0.30996102 0.012229227 0
-0.079149015 -0.012021656 0.012669681 -0.89024228 0.45538092 0.0098397434 0
0.01369901 -0.012680907 0.01251066 0.96892834 0.24726947 -0.005967 0
-0.076554239 -0.0082654702 0.01238227 -0.73200101 0.68117559 -0.013203782 0
-0.073850468 -0.0057686972 0.012485797 -0.55853957 0.82946485 -0.0046437848 0
0.0099000745 -0.0052238381 0.012996677 0.79664767 0.60433704 0.011368034 0
0.011655603 -0.0078100264 0.01251412 0.86878818 0.49518371 -0.00040689699 0
-0.071331032 -0.0043252083 0.012488832 -0.43937016 0.89803624 0.022017127 0
-0.067535602 -0.0031014911 0.012426431 -0.20848136 0.97789794 0.015847737 0
-0.062562823 -0.0025628365 0.012116952 -0.036708698 0.99920309 0.015670711 0
-0.057178427 -0.0024042928 0.012512946 -0.021494456 0.99975783 -0.0047205887 0
-0.052515358 -0.002268838 0.012544671 -0.036166508 0.99933231 -0.0051837415 0
-0.047101587 -0.0020364572 0.012178091 -0.051579557 0.99865419 0.0054094885 0
-0.042286254 -0.0017792878 0.012744412 -0.055137642 0.9984526 0.0072289808 0
-0.037464261 -0.0014982603 0.012367385 -0.063183099 0.99797714 0.0070326771 0
-0.032437168 -0.0011631114 0.012429233 -0.06898392 0.99759084 0.0073343054 0
-0.027255975 -0.00080092001 0.012319868 -0.071175873 0.99738598 0.012456265 0
-0.022572221 -0.00044340882 0.012635603 -0.080461912 0.99669081 0.011545877 0
-0.018760158 -0.00012300597 0.012939931 -0.082491018 0.9964866 0.014477183 0
0.0040078326 -0.00052147795 0.012273228 0.42151439 0.90681249 0.0040958817 0
0.0073581631 -0.0027303111 0.012140381 0.63712329 0.77074552 0.0050302679 0
-0.016042184 0.00010010831 0.012537548 -0.074527621 0.99715286 0.0114815 0
-0.012477482 0.00037420992 0.012568768 -0.077397153 0.99683607 0.018098271 0
-0.0073196352 0.00077869731 0.012868432 -0.079946898 0.99658239 0.02078669 0
-0.0023957191 0.0010001507 0.012439164 0.03483602 0.9991976 0.019760624 0
0.0015217024 0.00042341591 0.012525672 0.28520033 0.95843452 0.0079985149 0
-0.071672931 -0.050934713 0.017430229 -0.50966263 -0.86037439 0.00012334007 0
-0.067870438 -0.052657418 0.017563347 -0.30012155 -0.95388806 -0.0049603577 0
-0.062454302 -0.053435571 0.01735959 0.038933795 -0.99921405 0.0074424134 0
-0.057463046 -0.053044904 0.017584069 0.082475424 -0.99646652 0.015885124 0
-0.052528482 -0.052628685 0.017452288 0.089867681 -0.9957484 0.020221269 0
-0.04726661 -0.052214589 0.01767257 0.077885568 -0.99687052 0.013531962 0
-0.042524707 -0.051863808 0.017655741 0.072188735 -0.99734658 0.0094191777 0
-0.03763324 -0.051502686 0.017410835 0.075720988 -0.99696553 0.018057505 0
-0.03228813 -0.051100586 0.017358514 0.066027872 -0.99768901 0.016030107 0
-0.027811425 -0.050810188 0.017421974 0.062643796 -0.99801266 0.0068144859 0
-0.022425083 -0.050467778 0.017358113 0.058869556 -0.99809074 -0.018686829 0
-0.017490814 -0.050257094 0.017204802 0.043075036 -0.9990707 0.0015048691 0
-0.013020088 -0.050059214 0.017658748 0.046511952 -0.9989177 -9.1971968e-05 0
-0.076587811 -0.04635587 0.017486535 -0.80807561 -0.58907288 -0.0026486027 0
-0.074140035 -0.049179539 0.018099463 -0.68425244 -0.72922933 0.0048073991 0
-0.010867343 -0.049949203 0.017420894 0.038839515 -0.99924386 -0.0018081811 0
-0.0074451566 -0.049790077 0.017553141 0.033056542 -0.999385 0.011699783 0
-0.0024626388 -0.049598563 0.017584154 0.057078198 -0.99836433 0.0032615585 0
0.0024369196 -0.049046375 0.017406756 0.22475897 -0.97441119 -0.0024706167 0
0.0076097185 -0.046906553 0.01756552 0.5196864 -0.8542859 -0.011028857 0
0.010149624 -0.045088794 0.017192522 0.716492 -0.69729167 -0.020579312 0
-0.078662172 -0.042534456 0.017362187 -0.92449582 -0.3811914 0.00079801108 0
0.012163503 -0.042600572 0.01717364 0.80994123 -0.58642411 -0.010099697 0
-0.08005362 -0.036018096 0.017985567 -0.998106 -0.060884591 -0.0087971725 0
-0.079831555 -0.038411729 0.017283356 -0.99161398 -0.12923323 0.00062990928 0
0.014426035 -0.038367823 0.017534131 0.94013554 -0.34079978 0.0007577326 0
0.015203455 -0.035700765 0.01734595 0.98063588 -0.1958397 -0.00027952186 0
-0.080335028 -0.032308485 0.017415443 -0.99689281 -0.078734532 0.0023307914 0
0.015449353 -0.032677274 0.017623508 0.99971157 -0.022971939 -0.0070016375 0
-0.080707312 -0.027257869 0.017382216 -0.99666715 -0.080653399 -0.012230092 0
0.015238139 -0.027384801 0.017735634 0.99741501 0.07111121 -0.010320726 0
-0.081090011 -0.022308933 0.017350184 -0.99819022 -0.06011758 -0.0014457317 0
0.014829149 -0.022085331 0.017622875 0.99730396 0.072406627 -0.011922299 0
0.015036571 -0.024700096 0.017952107 0.99516535 0.097421773 -0.012443771 0
-0.080886319 -0.017510496 0.017630644 -0.98658955 0.16303688 0.0077566323 0
0.014487689 -0.017765693 0.017414331 0.99656641 0.081836142 -0.012579562 0
-0.080179863 -0.014574415 0.017686732 -0.95950007 0.28148815 0.011144947 0
-0.079000227 -0.011849863 0.017533546 -0.88360906 0.46817419 0.0069227158 0
0.013674739 -0.012503823 0.017278425 0.96386343 0.2663902 -0.0018998904 0
-0.076365881 -0.0080739083 0.017659251 -0.72512668 0.68842411 0.016231282 0
-0.073882453 -0.0058310591 0.017451283 -0.59258687 0.80541307 0.012272285 0
0.0099003455 -0.0052102837 0.017184723 0.79703134 0.60389608 -0.0071193133 0
0.01154926 -0.0075998087 0.017550945 0.85083514 0.52542043 -0.0035934295 0
-0.07133583 -0.0043645357 0.017393416 -0.42305994 0.90610164 0.00036650151 0
-0.067675181 -0.003177539 0.017440498 -0.20598243 0.97852397 0.0078771133 0
-0.06228824 -0.0025690338 0.017639248 -0.054024655 0.99847257 -0.011567062 0
-0.057657894 -0.0023985936 0.017662037 -0.026620142 0.99960238 -0.0092984922 0
-0.052523416 -0.002235583 0.017079389 -0.022191415 0.99975204 0.0018657643 0
-0.047843039 -0.0020746877 0.017423907 -0.049122889 0.9987728 0.006311507 0
-0.042591672 -0.0018255778 0.017194325 -0.050887007 0.9986487 0.0105499 0
-0.037311148 -0.0015306195 0.017344208 -0.062153187 0.99793762 0.016047316 0
-0.032431193 -0.0012082284 0.017644888 -0.070567891 0.99739403 0.015008749 0
-0.027447522 -0.00085456943 0.017582057 -0.077837214 0.99690241 0.011264405 0
-0.022563873 -0.00048880622 0.017557818 -0.072631188 0.99730176 0.010670952 0
-0.017995369 -0.00014654773 0.017432585 -0.071214296 0.99736822 0.013611831 0
0.0038525951 -0.00051421887 0.01782918 0.41158244 0.91132504 0.0093051931 0
0.0076482096 -0.0030007712 0.017603217 0.65406919 0.75643349 0.0013961194 0
-0.015499093 5.0514027e-05 0.017421596 -0.08248686 0.996418 0.018629141 0
-0.012647172 0.00026324359 0.017664941 -0.075299151 0.99699086 0.018416736 0
-0.0072019766 0.00068541907 0.017633274 -0.070961267 0.99701703 0.030357247 0
-0.0025986698 0.00091476861 0.017371999 0.024253339 0.99937463 0.025732651 0
0.0015173054 0.00035380857 0.017122166 0.2548674 0.96675092 0.020866677 0
-0.071608238 -0.050974313 0.022729779 -0.50780565 -0.86147159 0.00026043216 0
-0.067412272 -0.052797027 0.022730004 -0.25762671 -0.96623307 0.0047126603 0
-0.062375713 -0.053415425 0.022774341 0.024446955 -0.99968851 -0.0050148922 0
-0.057550091 -0.053014256 0.022413522 0.090903528 -0.99585187 -0.0039541987 0
-0.052518759 -0.052585933 0.022757115 0.083115049 -0.99653733 0.0022782059 0
-0.047394749 -0.052203637 0.022769555 0.074773237 -0.99719942 -0.0014939768 0
-0.042289637 -0.051816121 0.022115037 0.07357315 -0.99728775 0.0020450007 0
-0.037449837 -0.051460218 0.022641726 0.070707396 -0.99749702 -0.00039291833 0
-0.032495555 -0.051119119 0.022559386 0.068721123 -0.99763227 -0.0026769512 0
-0.027681883 -0.050790213 0.022414077 0.06604638 -0.99780816 -0.0040851939 0
-0.02234726 -0.050451685 0.022489054 0.060470264 -0.99816245 -0.003866984 0
-0.017392851 -0.050209939 0.022174129 0.04585471 -0.99894375 0.0029607692 0
-0.013604535 -0.050047085 0.022329848 0.04058392 -0.99917597 0.00050433329 0
-0.076256692 -0.046791792 0.022224432 -0.78845507 -0.61508417 0.0031668786 0
-0.074017935 -0.049325164 0.022710903 -0.68324214 -0.73018515 -0.0031595016 0
-0.011185745 -0.049960159 0.022145275 0.032417744 -0.99940026 0.012173966 0
-0.0073924814 -0.049786218 0.022410972 0.045253225 -0.99897063 0.0031034725 0
-0.0026037775 -0.049614612 0.022234129 0.032949559 -0.999457 -0.00019874498 0
0.0030403822 -0.048937548 0.022743823 0.24956411 -0.96833938 -0.0060457112 0
0.0073722568 -0.047156744 0.02252217 0.487618 -0.87296647 -0.012580092 0
0.01018434 -0.045144111 0.021986356 0.72349268 -0.69021469 -0.0127276 0
-0.078604341 -0.04270868 0.022427442 -0.91956139 -0.39293337 0.0031941028 0
0.012076117 -0.042839378 0.022345958 0.81443763 -0.58010799 -0.012890583 0
-0.08009582 -0.036091819 0.022673547 -0.99654645 -0.08151409 -0.015830323 0
-0.07980673 -0.038766485 0.022439279 -0.9887073 -0.14979361 -0.004437889 0
0.01452591 -0.038192388 0.02255334 0.94138592 -0.33710212 -0.01243649 0
0.015221294 -0.035734929 0.022428012 0.9780224 -0.20816556 -0.011806308 0
-0.080335461 -0.032405432 0.022461819 -0.99678379 -0.077734634 -0.019478178 0
0.015479736 -0.032603621 0.022601975 0.99979806 -0.019946929 -0.0024373464 0
-0.08072795 -0.027397424 0.022636818 -0.99782741 -0.065622494 -0.0058566877 0
0.01528758 -0.027468709 0.022647332 0.99767381 0.067188226 -0.011522997 0
-0.081066638 -0.022682104 0.022493161 -0.99871439 -0.050670199 -0.0014444573 0
0.014870963 -0.021692511 0.022106886 0.99682117 0.076103315 -0.023575323 0
0.015070094 -0.024167126 0.023103822 0.99713063 0.072300278 -0.022431953 0
-0.080835104 -0.01743231 0.022502227 -0.99258423 0.12154074 0.0020840515 0
0.014519764 -0.017409459 0.022313058 0.99580967 0.088787466 -0.02190512 0
-0.080130033 -0.014369148 0.022023551 -0.96200657 0.27300438 -0.0034589998 0
-0.079092748 -0.012060163 0.022531817 -0.88941348 0.45709234 -0.0031993282 0
0.013692051 -0.012489728 0.022406107 0.96029401 0.27889773 -0.0071630124 0
-0.07645461 -0.0081434464 0.022243628 -0.7465688 0.66527444 -0.0067035519 0
-0.074039653 -0.0059326887 0.022250021 -0.58656979 0.80989778 -0.0011951567 0
0.0098985499 -0.0052036261 0.022333132 0.76317072 0.64615059 -0.0077384105 0
0.011436925 -0.0074128276 0.022566704 0.84385365 0.53657341 0.00014195655 0
-0.071340926 -0.0043660556 0.022695856 -0.40127388 0.9159562 -0.0018710048 0
-0.067652807 -0.003232165 0.022417828 -0.21023493 0.97764754 0.0025569669 0
-0.062513784 -0.0025772171 0.022590637 -0.06347809 0.99797463 -0.0041430918 0
-0.057706453 -0.0023552512 0.022614051 -0.030183574 0.9995411 0.0025649813 0
-0.052416347 -0.0022226144 0.022660054 -0.019510541 0.99980831 -0.0016841046 0
-0.047470059 -0.0020828573 0.022273242 -0.05371004 0.99855447 -0.0020499332 0
-0.042469621 -0.0018297756 0.022240607 -0.044518344 0.99899411 -0.0053759734 0
-0.037717231 -0.0016062028 0.022700107 -0.039133262 0.99886161 -0.027277995 0
-0.0323341 -0.0012763174 0.022461453 -0.076171272 0.99709129 0.0026367502 0
-0.027491802 -0.00092004822 0.022465995 -0.07472007 0.99720305 -0.0017022882 0
-0.022272257 -0.00056796503 0.022607395 -0.06044637 0.99796808 0.020148994 0
-0.017366838 -0.0002266029 0.022762489 -0.07105954 0.99732035 0.017397219 0
-0.014437429 -2.9161636e-05 0.022843631 -0.07767351 0.99684256 0.016483193 0
0.0036218681 -0.00049049972 0.022885745 0.39279485 0.91954994 0.011839155 0
0.0076702503 -0.0030368534 0.022629259 0.64702195 0.76227856 0.017145829 0
-0.015126907 4.9900746e-07 0.020562403 -0.078051604 0.99136388 0.10538315 0
-0.011851616 0.0001905799 0.022412466 -0.081475943 0.99640423 0.023244265 0
-0.0076939664 0.00055915711 0.022486964 -0.084857412 0.99638969 -0.0026219788 0
-0.002231396 0.0007973531 0.022531906 0.05171755 0.99860853 0.010314941 0
0.0014548922 0.00025984176 0.022607524 0.23920572 0.97048062 0.030789943 0
-0.071733423 -0.050915439 0.027464036 -0.50306606 -0.8642453 -0.0021348761 0
-0.067790106 -0.052656144 0.027474897 -0.28865302 -0.95743269 -0.0014548301 0
-0.06246021 -0.053388655 0.027478296 0.012542051 -0.99989617 0.0070954352 0
-0.057187483 -0.053034812 0.027557459 0.088879213 -0.99604034 -0.0020392176 0
-0.052640595 -0.052621942 0.027328886 0.080078006 -0.99674278 -0.009563081 0
-0.047366869 -0.052219503 0.027648846 0.078997299 -0.99685001 -0.0070350175 0
-0.042447556 -0.051843982 0.027689559 0.073078148 -0.99730688 -0.0062018563 0
-0.037475023 -0.05149601 0.02721313 0.062089864 -0.99786443 -0.020287458 0
-0.032455549 -0.05115547 0.027438607 0.065128915 -0.99779832 -0.012520181 0
-0.027517734 -0.050821565 0.027592637 0.064839654 -0.99772018 -0.018717946 0
-0.022350784 -0.050494742 0.027512658 0.058028713 -0.99824381 -0.011914928 0
-0.01753075 -0.050231751 0.027494263 0.04969126 -0.9987576 -0.0037472621 0
-0.013086157 -0.050051294 0.027801828 0.038642481 -0.99918681 -0.011509518 0
-0.076314434 -0.046701573 0.027636591 -0.78366512 -0.62116718 -0.0045008459 0
-0.074119031 -0.049217809 0.027415082 -0.70722121 -0.70698977 -0.0019048526 0
-0.010984333 -0.049945422 0.02732664 0.050509952 -0.99864078 -0.012856136 0
-0.0074022827 -0.049768776 0.027602635 0.049725536 -0.99872351 -0.0088798134 0
-0.0024065147 -0.049577449 0.027534919 0.025482129 -0.99967456 -0.0011779194 0
0.0025096391 -0.049062271 0.027454346 0.22118455 -0.97522098 -0.0046203644 0
0.0073922188 -0.047176287 0.027685175 0.51188153 -0.85899043 -0.01062528 0
0.010235448 -0.045171019 0.026508369 0.69372422 -0.72023404 -0.0031073766 0
-0.078641973 -0.042599212 0.027440719 -0.92172021 -0.38784456 -0.0029187147 0
0.01257098 -0.042203061 0.027404519 0.84521949 -0.53427839 -0.012272489 0
-0.080107152 -0.036373936 0.027461393 -0.99679577 -0.079984054 0.00078166014 0
-0.079831637 -0.038649239 0.027761051 -0.98703921 -0.16017053 -0.0099498006 0
0.014493245 -0.038374763 0.027413417 0.94033211 -0.34025347 0.0017407321 0
0.01518645 -0.03594242 0.026921611 0.97908866 -0.20340222 0.0035890006 0
-0.080373049 -0.032885805 0.027642362 -0.99686569 -0.078359641 -0.010891171 0
0.015496524 -0.032416988 0.027300511 0.99990612 -0.013442475 0.0026434874 0
-0.080741458 -0.027727118 0.027880348 -0.99797833 -0.062364955 -0.012247285 0
0.015308041 -0.027481722 0.027446344 0.9980135 0.062631607 0.0068098595 0
-0.081055306 -0.022567181 0.027479764 -0.9991529 -0.040770054 0.0055818628 0
0.014878704 -0.021190895 0.027035389 0.99742025 0.071549863 0.0057882867 0
0.015073835 -0.023917992 0.027072322 0.99705565 0.076133475 0.0091541717 0
-0.080824755 -0.017193189 0.027401047 -0.98466003 0.17390536 -0.014190871 0
0.014595661 -0.017579492 0.027528418 0.9952895 0.096783839 0.0056304946 0
-0.080128349 -0.014427245 0.028024847 -0.93635088 0.35059723 0.018126357 0
-0.079037808 -0.01198996 0.027603023 -0.88828927 0.45927313 0.0032361464 0
0.013613031 -0.01225375 0.027347386 0.9574452 0.28850484 0.0079790335 0
-0.07650438 -0.0082291793 0.027459512 -0.74812937 0.66349107 0.009054441 0
-0.073845156 -0.0058125793 0.027506186 -0.5897094 0.80752951 0.011786773 0
0.0097990036 -0.0051426883 0.028148066 0.77723551 0.62545556 0.068631709 0
0.011459469 -0.0074656904 0.027563611 0.84899467 0.52840132 -0.0003077205 0
-0.071481481 -0.0044364515 0.027719896 -0.39859897 0.91712457 -0.0012211625 0
-0.067379571 -0.0031950232 0.027486371 -0.20017336 0.97973919 0.006455706 0
-0.062357109 -0.002574381 0.027746081 -0.073558018 0.99720025 0.013449831 0
-0.057406638 -0.0023342413 0.02707308 -0.022832543 0.99971598 0.0068269335 0
-0.052711677 -0.0022062503 0.027744886 -0.030308684 0.99953955 -0.0013992307 0
-0.047491543 -0.002022675 0.027090287 -0.043622401 0.99892914 -0.015411282 0
-0.042314164 -0.00179221 0.027639464 -0.048981156 0.99877459 -0.0070782844 0
-0.03759772 -0.001549933 0.027182696 -0.043201331 0.99904162 -0.0070370571 0
-0.032435969 -0.0012361 0.0272911 -0.066916116 0.9976809 -0.01244906 0
-0.027468665 -0.00091129629 0.027565779 -0.053099323 0.99855202 0.0086216116 0
-0.022479383 -0.00061463233 0.027581666 -0.066782817 0.99764419 0.015685193 0
-0.017282939 -0.00025794187 0.027534975 -0.074404784 0.997208 0.0063370685 0
-0.014475267 -3.7097452e-05 0.027927803 -0.088295653 0.99603134 -0.011206619 0
0.0036615825 -0.00054704217 0.026908325 0.38889146 0.92124438 0.0084956279 0
0.0077808523 -0.0031270809 0.027148755 0.65472335 0.75565869 -0.017814197 0
-0.012416144 0.00015688685 0.027314369 -0.094102189 0.99555498 -0.003860262 0
-0.0073764403 0.00060882542 0.027628843 -0.072535679 0.99734163 0.0069479686 0
-0.0023003139 0.00074209314 0.027513614 0.068231434 0.99758416 0.013048355 0
0.0013158671 0.00024941232 0.027747342 0.24381961 0.96979809 0.0066122944 0
-0.071466975 -0.051064648 0.032626085 -0.51663178 -0.85616857 0.0081854546 0
-0.067383088 -0.052797429 0.032398716 -0.25927737 -0.96580112 -0.0018922609 0
-0.062667951 -0.053388074 0.032583117 -0.0014039093 -0.99995774 -0.0090788146 0
-0.057331182 -0.053078093 0.032458361 0.086520351 -0.99610108 -0.017228957 0
-0.05241701 -0.052657146 0.032183137 0.075107954 -0.99710917 -0.011492614 0
-0.047621008 -0.052296225 0.03270264 0.078375153 -0.99674243 -0.019021848 0
-0.042391445 -0.051910244 0.032752044 0.070522465 -0.99737376 -0.01649542 0
-0.037674285 -0.051590268 0.032887615 0.067967966 -0.99761975 -0.011634555 0
-0.032416612 -0.051239088 0.032538231 0.060832951 -0.99809396 -0.01038457 0
-0.027413087 -0.050907768 0.032430612 0.060710028 -0.99799204 -0.018058226 0
-0.02261145 -0.050605584 0.032271605 0.057833988 -0.99788505 -0.029675748 0
-0.017435178 -0.050310768 0.032619484 0.058451246 -0.99815571 -0.016388172 0
-0.013064285 -0.050081551 0.032517765 0.042415835 -0.99891752 -0.019096365 0
-0.076358721 -0.046685059 0.032507244 -0.79063648 -0.61227328 -0.0039428645 0
-0.074188039 -0.049102347 0.032640405 -0.69460338 -0.71936888 0.0058779996 0
-0.011025567 -0.049982298 0.031655554 0.024600018 -0.99969357 0.0027564017 0
-0.0075888406 -0.049824398 0.032205842 0.056893539 -0.99829382 -0.013134493 0
-0.002654165 -0.049602941 0.032551344 0.031370837 -0.99948585 -0.0066364263 0
0.0025056719 -0.049110301 0.032589786 0.21078952 -0.97751057 -0.0063895537 0
0.0080047669 -0.046858072 0.032588199 0.53972179 -0.84181893 -0.006425479 0
0.010192787 -0.045302067 0.032666728 0.65369338 -0.7565695 -0.016954973 0
-0.078625478 -0.042684071 0.032627955 -0.92067391 -0.39032516 -0.0024207898 0
0.012517711 -0.042375382 0.032495361 0.84475172 -0.53512508 -0.0059835371 0
-0.080154873 -0.036272358 0.032411706 -0.99401098 -0.10920056 -0.0041705756 0
-0.079816706 -0.038861789 0.032355648 -0.98443818 -0.1757091 0.0028003682 0
0.014362603 -0.038773388 0.032565862 0.93769288 -0.34744519 -0.0037346361 0
0.015230509 -0.035670564 0.032230888 0.98576897 -0.16801658 -0.0054638563 0
-0.080448002 -0.032396883 0.032490745 -0.99635166 -0.085009612 -0.0075371745 0
0.015503642 -0.032374613 0.03238171 0.99979609 -0.018826099 -0.0073014223 0
-0.080748677 -0.027612112 0.03252418 -0.99818742 -0.059773229 0.0070007639 0
0.015256527 -0.027542086 0.032689463 0.99735194 0.068072036 0.025599478 0
-0.081052899 -0.02266819 0.032369617 -0.99907357 -0.043032069 -0.00052878237 0
0.01486863 -0.021836601 0.032560803 0.9974277 0.071035512 0.0095863007 0
0.015044258 -0.024269061 0.032351486 0.99746054 0.070198819 0.012021917 0
-0.080892973 -0.017466331 0.032513745 -0.98649627 0.16367042 0.006086221 0
0.014572974 -0.017650934 0.032361642 0.99609411 0.088275656 -0.001987993 0
-0.080184646 -0.0146415 0.032678831 -0.92301232 0.38469741 -0.007490918 0
-0.07903406 -0.012025687 0.032439087 -0.8912468 0.45351648 -0.0013916309 0
0.013633971 -0.012308766 0.032628365 0.95923299 0.28260586 -0.0024459502 0
-0.07632678 -0.0080502676 0.032434322 -0.75032443 0.66104722 0.0054570292 0
-0.073925652 -0.0058429153 0.032667894 -0.57609278 0.8173362 -0.0088639157 0
0.0099201519 -0.0052023954 0.032970093 0.77330112 0.63314831 -0.033593293 0
0.011609557 -0.0077076964 0.032411788 0.854424 0.51957583 -0.00070134067 0
-0.071248755 -0.0043207216 0.032776397 -0.38373876 0.92319268 -0.021442218 0
-0.067486927 -0.0032276637 0.032709207 -0.20215446 0.97925389 0.013974437 0
-0.062695742 -0.002684158 0.032690998 -0.055109356 0.99800771 0.030719023 0
-0.057878267 -0.002449906 0.032449223 -0.04492775 0.99886858 0.015592033 0
-0.052474126 -0.0022111861 0.032421011 -0.036259238 0.9993329 0.0043668956 0
-0.047656469 -0.0020064465 0.032657161 -0.044215649 0.99902189 -0.00043144028 0
-0.042597514 -0.0017635699 0.032581639 -0.047962226 0.99882257 -0.0072937277 0
-0.037541471 -0.0015241944 0.032348014 -0.048985846 0.99879903 0.00087183679 0
-0.032340501 -0.0012387455 0.032693721 -0.055360381 0.99842477 0.0091233784 0
-0.027316293 -0.00095660036 0.032514725 -0.054555681 0.99847192 0.0087991552 0
-0.022311069 -0.00065136736 0.032404572 -0.069072731 0.99758774 0.0069019222 0
-0.017359231 -0.00026618136 0.032867052 -0.084186971 0.99644625 0.0027171187 0
-0.014622752 -3.1353728e-05 0.032952756 -0.085070856 0.99636608 0.0041962573 0
0.0035309531 -0.00056477758 0.032606799 0.38996184 0.92051101 0.024274811 0
0.0074143559 -0.0029016186 0.032637112 0.62570494 0.78004181 0.0053067598 0
-0.011963766 0.00020196175 0.032411862 -0.086221829 0.99625355 0.0066769342 0
-0.007478903 0.0005600914 0.03275919 -0.071338989 0.99740171 0.010028313 0
-0.0026364897 0.00072219886 0.032492697 0.050631627 0.99863034 0.013184345 0
0.0011419994 0.00027761896 0.032665741 0.23473158 0.97204888 0.0046988945 0
-0.071585335 -0.050992921 0.037727758 -0.51259005 -0.85863334 -0.00051198149 0
-0.067392714 -0.052811749 0.037722763 -0.27379483 -0.96178788 0.00069897686 0
-0.062442213 -0.053413808 0.037414826 0.010543406 -0.99991429 -0.0077560581 0
-0.057589602 -0.053156368 0.03752698 0.080083624 -0.99676442 -0.0068745981 0
-0.053055119 -0.052786976 0.037384663 0.074988872 -0.99694782 -0.021719951 0
-0.047438204 -0.052377101 0.037231699 0.076534301 -0.9968583 -0.020395763 0
-0.042198017 -0.051997632 0.037585013 0.073341876 -0.99706739 -0.021854183 0
-0.037606645 -0.051657006 0.037379786 0.07385388 -0.99702781 -0.021934571 0
-0.032346435 -0.051281359 0.037177458 0.066969477 -0.99764669 -0.014703345 0
-0.027548378 -0.05099526 0.037490204 0.058139861 -0.99811864 -0.019461391 0
-0.022582628 -0.05069875 0.037539132 0.060014993 -0.99785417 -0.026177488 0
-0.017491918 -0.050422356 0.037452381 0.049424041 -0.99850118 -0.02351056 0
-0.012419014 -0.050138354 0.037720043 0.0525418 -0.99833745 -0.023701753 0
-0.0092631821 -0.050029881 0.038033664 0.016612023 -0.99962413 -0.02180822 0
-0.076363683 -0.046672098 0.037547972 -0.79737628 -0.60347611 0.0027772535 0
-0.074289829 -0.049060591 0.037350617 -0.68897378 -0.72469056 -0.011775211 0
-0.0069467411 -0.04986278 0.03759684 0.060248658 -0.99809754 -0.013090334 0
-0.0026617041 -0.04966981 0.037334826 0.03559662 -0.99924648 -0.01546903 0
0.0025008339 -0.049147602 0.037381023 0.21578242 -0.97636455 -0.01225563 0
0.007865577 -0.047041412 0.037720606 0.508928 -0.86067492 -0.015197713 0
0.010347869 -0.045300331 0.038146559 0.68271953 -0.73061973 -0.0094227884 0
-0.078649014 -0.042620264 0.037764058 -0.92287141 -0.38510057 -0.0024449623 0
0.012454351 -0.042530954 0.037380267 0.83880985 -0.54436553 -0.0080176285 0
-0.080159053 -0.03620398 0.037608452 -0.99552304 -0.094140522 0.0084470026 0
-0.079804845 -0.038986821 0.037533477 -0.98137295 -0.19177803 -0.011330169 0
0.014436076 -0.038667731 0.037986416 0.93655527 -0.34994438 -0.020077718 0
0.015208456 -0.035966646 0.037558705 0.97676992 -0.21426432 -0.0033628647 0
-0.080455668 -0.032529991 0.037639834 -0.99771702 -0.06734392 0.0050583291 0
0.015520412 -0.032431014 0.037604243 0.99995536 0.0076406896 0.0055563673 0
-0.080756336 -0.027445409 0.037610531 -0.99829882 -0.058270045 0.0020235113 0
0.015188584 -0.027482744 0.03742722 0.99769896 0.067069612 0.0099230744 0
-0.081069402 -0.022761825 0.037505899 -0.99814516 -0.059992407 -0.010350592 0
0.014858433 -0.022091681 0.037808016 0.99731362 0.071426503 0.016242988 0
0.015032712 -0.024556121 0.037362874 0.99931961 0.036654688 0.0040809494 0
-0.080946065 -0.017669298 0.037611295 -0.98549306 0.16966902 0.0039603366 0
0.014535524 -0.017411735 0.037119135 0.9967522 0.078457639 0.018147206 0
-0.080215648 -0.014691325 0.037712626 -0.9322837 0.36167672 -0.0060805622 0
-0.079099 -0.012173397 0.037412893 -0.89721644 0.44158903 -0.0013452448 0
0.013773957 -0.01269766 0.037628774 0.96550417 0.26034585 -0.0046700654 0
-0.07656762 -0.0083546573 0.037324436 -0.76275808 0.64667827 0.0027252152 0
-0.073870264 -0.0058158473 0.037703715 -0.57356954 0.81915373 -0.0022969821 0
0.0098804105 -0.005193708 0.037175469 0.77045488 0.63740855 0.01046666 0
0.011539171 -0.0075541926 0.037525382 0.85103315 0.52509159 -0.0046458673 0
-0.071184784 -0.0042965556 0.037648976 -0.40437263 0.91442072 0.017819887 0
-0.067539267 -0.0032228997 0.037570458 -0.18798003 0.98214805 -0.0069821766 0
-0.062439606 -0.0027604292 0.037438381 -0.046721444 0.998905 0.0023895868 0
-0.057848454 -0.002511333 0.037378021 -0.059339929 0.99818146 0.010605012 0
-0.052354097 -0.0022245804 0.037656866 -0.050481796 0.99870455 0.0063984501 0
-0.047677666 -0.0019882631 0.037347168 -0.046924394 0.99887323 -0.0070968149 0
-0.042276043 -0.0017299359 0.037188321 -0.053163707 0.99858022 -0.0033609688 0
-0.037678983 -0.0015130539 0.037659235 -0.039652571 0.99919695 -0.0057585686 0
-0.032956515 -0.0012881566 0.037616193 -0.046349909 0.99892509 -0.00067103026 0
-0.027617667 -0.0010105516 0.037806489 -0.05542371 0.99844748 0.0055630933 0
-0.022540415 -0.00069069717 0.037411917 -0.067530535 0.99771142 0.0033985088 0
-0.017327238 -0.00030640938 0.037488151 -0.077219948 0.99692523 0.0133104 0
-0.013883092 -5.5398788e-05 0.038040243 -0.075397238 0.99680901 0.02621083 0
0.0035664586 -0.0006786561 0.037462682 0.3770473 0.92616868 0.0068501327 0
0.0074623534 -0.0029539196 0.037413113 0.61757493 0.78645688 0.0093160905 0
-0.011667262 0.00014563062 0.037166137 -0.079024963 0.99646652 0.028453333 0
-0.0074721295 0.00044493648 0.03767455 -0.072361648 0.99680561 0.033800006 0
-0.0025509968 0.00066947989 0.037356604 0.029262727 0.99954224 0.0076848059 0
0.0010276214 0.00024612769 0.036846571 0.26337528 0.96423596 0.029706238 0
-0.071686074 -0.050913107 0.042525291 -0.52461624 -0.85133874 0.00020651081 0
-0.067716077 -0.052731242 0.042299055 -0.30275354 -0.9530617 -0.0037062776 0
-0.062521376 -0.053470153 0.042734299 -0.0049845995 -0.99988693 -0.0141831 0
-0.057515286 -0.05322507 0.042421553 0.069258302 -0.99724358 -0.026616538 0
-0.052649338 -0.052871324 0.042636462 0.075262435 -0.99697149 -0.019579887 0
-0.047499277 -0.052478112 0.04235848 0.074164525 -0.9971084 -0.016568242 0
-0.042561065 -0.052112114 0.04230772 0.073059276 -0.99717748 -0.017307214 0
-0.037813861 -0.051782709 0.042489484 0.065656193 -0.9976694 -0.018574085 0
-0.032951962 -0.051446207 0.042556897 0.075832091 -0.99672204 -0.028190393 0
-0.027612271 -0.051097177 0.042252555 0.057457186 -0.99805611 -0.024135126 0
-0.022451902 -0.050802164 0.042462904 0.059979022 -0.99797052 -0.021386059 0
-0.017449651 -0.050525147 0.042499844 0.049190983 -0.99858415 -0.020247154 0
-0.01246707 -0.050273884 0.042602569 0.057884645 -0.99813288 -0.019497706 0
-0.0090145646 -0.050077129 0.042816166 0.053027183 -0.99835122 -0.021975251 0
-0.076419778 -0.046645347 0.042447019 -0.78715092 -0.61675704 -0.002019224 0
-0.074209891 -0.049155317 0.042553704 -0.66504282 -0.74672866 0.010695552 0
-0.0064304997 -0.04993825 0.042324152 0.050469834 -0.99855226 -0.018609742 0
-0.0025934849 -0.049755972 0.042528078 0.048701573 -0.99864191 -0.018506739 0
0.0023389242 -0.049253955 0.042203534 0.20757152 -0.97809851 -0.015404948 0
0.0073534874 -0.047387853 0.04264449 0.48258001 -0.87576014 -0.012680863 0
0.010308322 -0.045409083 0.042286806 0.66218084 -0.74929684 -0.0084152743 0
-0.078766987 -0.042400904 0.042578734 -0.93078619 -0.36552981 -0.0049972287 0
0.012301004 -0.042850103 0.042351909 0.83718234 -0.54688388 -0.0066037714 0
-0.0801045 -0.03673831 0.042378452 -0.99623078 -0.086672068 0.0034911393 0
-0.079839259 -0.038865268 0.042589862 -0.98679799 -0.16193646 0.0025261384 0
0.01449638 -0.038428433 0.042278528 0.94252223 -0.33339375 0.022369862 0
0.015189921 -0.035966836 0.042927679 0.97870922 -0.20521748 0.0037253147 0
