# .PCD v0.7 - Point Cloud Data file format
VERSION 0.7
FIELDS x y z normal_x normal_y normal_z curvature
SIZE 4 4 4 4 4 4 4
TYPE F F F F F F F
COUNT 1 1 1 1 1 1 1
WIDTH 644
HEIGHT 1
VIEWPOINT 0 0 0 1 0 0 0
POINTS 644
DATA ascii
0.032456603 0.062652655 0.0022842209 0.2955668 -0.34362164 -0.89138341 0
0.036968943 0.063093513 0.003746354 0.38556179 -0.45359617 -0.80348784 0
0.040508561 0.064722717 0.0045760688 0.50643784 -0.5768972 -0.64086682 0
0.0043245223 0.065726273 0.0046001687 -0.48692253 0.60651147 -0.62853026 0
0.0078341868 0.066861168 0.0032238208 -0.42441916 0.59417683 -0.68324399 0
0.012196392 0.067624241 0.0016836922 -0.29848841 0.47616816 -0.82714486 0
0.017222438 0.06779065 0.00046395365 -0.12729722 0.25652555 -0.95811796 0
0.022421828 0.068540305 0.00021536989 -0.02882635 0.16945007 -0.98511702 0
0.027268622 0.067596585 0.0002585797 0.084097087 0.015664168 -0.99633443 0
0.032670926 0.06753704 0.0010713207 0.20865695 -0.1252853 -0.96993083 0
0.037630703 0.067399606 0.0024116843 0.27568677 -0.22572492 -0.93436879 0
0.042130847 0.067646816 0.0035914083 0.24629143 -0.38405976 -0.88985318 0
0.047139101 0.068858862 0.0040903105 0.22470321 -0.67855233 -0.69933915 0
0.052445754 0.06973812 0.0043805405 0.13821904 -0.96833718 -0.20789102 0
0.013072046 0.070963368 0.0039029522 -0.38085935 0.66524303 -0.64218211 0
0.017682225 0.07230784 0.0029287343 -0.29286528 0.63375062 -0.71595395 0
0.022472413 0.07253141 0.0016894517 -0.17426267 0.4976964 -0.84966516 0
0.027304146 0.072654039 0.0010920066 -0.049736377 0.35437384 -0.93378025 0
0.032408755 0.072759286 0.001175747 0.081759587 0.25887308 -0.96244484 0
0.037583537 0.072571732 0.0019152114 0.17155382 0.10825398 -0.97920907 0
0.042347077 0.072545916 0.0025103639 0.058051888 -0.056632992 -0.99670583 0
0.047377717 0.072757825 0.0024609256 -0.045841735 -0.2342173 -0.97110289 0
0.052754529 0.072330438 0.0023359726 -0.058961708 -0.46442321 -0.8836484 0
0.057324409 0.072486855 0.0019862391 -0.083534718 -0.60477203 -0.79200554 0
0.062670924 0.071870841 0.0021802466 0.31295651 -0.76564008 -0.56200844 0
0.065314904 0.073380776 0.0037413656 0.95139337 -0.22256112 -0.21287885 0
0.019703887 0.075220786 0.0048915013 -0.28614599 0.70867896 -0.64489883 0
0.023103146 0.075835377 0.0042139017 -0.24448898 0.70123768 -0.6696946 0
0.027370676 0.076420352 0.0036304914 -0.15121186 0.69577938 -0.70215803 0
0.032600082 0.076641135 0.0034228791 0.037164964 0.6824894 -0.72995001 0
0.03722075 0.076520294 0.0037432539 0.059948113 0.67386001 -0.73642308 0
0.042774256 0.076493308 0.0036534478 -0.10450698 0.6329059 -0.76714301 0
0.047703542 0.077234387 0.003246564 -0.19808531 0.58060735 -0.78971976 0
0.052437574 0.077863865 0.0025512793 -0.19726042 0.53690833 -0.82025468 0
0.057728287 0.077676833 0.0013929557 -0.12969913 0.42610312 -0.89532912 0
0.062923491 0.077806443 0.0013804693 0.40785849 0.46927583 -0.7832188 0
0.065321237 0.076589353 0.0036233002 0.96752775 0.14576437 -0.2065012 0
0.053365003 0.080334648 0.0045813331 -0.16451368 0.90636778 -0.3891435 0
0.057356518 0.080624528 0.0039847773 -0.10319401 0.91989946 -0.37833324 0
0.062623739 0.080801517 0.0037330149 0.10094799 0.90193242 -0.41991374 0
-0.021146839 -0.095432281 0.009284446 -0.13889168 -0.9149254 -0.37897307 0
-0.017879441 -0.095289133 0.0090833418 0.11381415 -0.94976801 -0.29152548 0
-0.025719019 -0.091318026 0.0091330484 -0.67638886 -0.50176919 -0.53918999 0
-0.022608409 -0.092428312 0.0070614973 -0.51604587 -0.52085739 -0.68000311 0
-0.017117642 -0.093523949 0.0065189367 0.2059631 -0.70267332 -0.68105024 0
-0.012759043 -0.092091881 0.0078321146 0.56664038 -0.55816102 -0.60611463 0
-0.0098935701 -0.090303101 0.009777911 0.92358994 -0.28207722 -0.25964212 0
-0.026902152 -0.087268814 0.0075889365 -0.67769492 -0.37871766 -0.63031942 0
-0.023989422 -0.088916399 0.0058280621 -0.54937011 -0.39940944 -0.7339378 0
-0.011960754 -0.087660603 0.006502762 0.57778907 -0.18163967 -0.79571778 0
-0.009489188 -0.087194391 0.0089564696 0.89391816 -0.19548467 -0.4033559 0
-0.030660957 -0.081795886 0.0088686207 -0.75825584 -0.36309823 -0.54148668 0
-0.028096251 -0.082589477 0.0064782016 -0.66414797 -0.31530204 -0.67785847 0
-0.011223332 -0.082524948 0.0059847301 0.5591709 -0.1050858 -0.82236546 0
-0.0088665495 -0.082563192 0.0085926065 0.88896102 -0.12083538 -0.44175461 0
-0.031954389 -0.077131458 0.0077670496 -0.73142105 -0.32561857 -0.59916264 0
-0.029244799 -0.078694776 0.005685776 -0.65956497 -0.31644031 -0.68179142 0
-0.010907418 -0.077513792 0.0055513652 0.54580903 -0.12871148 -0.82796484 0
-0.0087797316 -0.07760261 0.0078097838 0.84636062 -0.1022339 -0.52270633 0
-0.035432179 -0.070951805 0.0094212489 -0.81704038 -0.28199756 -0.50291401 0
-0.033165012 -0.072721183 0.0071821888 -0.74877721 -0.26435512 -0.60782319 0
-0.010398613 -0.073816642 0.0052610035 0.56546581 -0.14984332 -0.81104589 0
-0.0084023103 -0.072393462 0.0076239011 0.88283253 -0.088852033 -0.46120715 0
-0.036021538 -0.067399003 0.008660689 -0.82880753 -0.23389472 -0.50830239 0
-0.033981323 -0.06778729 0.0060218014 -0.73515517 -0.24392067 -0.63249481 0
-0.0082369996 -0.067541353 0.0072650257 0.88963819 -0.03474028 -0.45534265 0
-0.036487423 -0.062498506 0.0076391185 -0.83355933 -0.15142363 -0.53127182 0
-0.034710437 -0.063430883 0.0054028183 -0.73795551 -0.17179741 -0.65261573 0
-0.0079732295 -0.062599584 0.0079034762 0.92938066 0.032831248 -0.3676599 0
-0.037024923 -0.057426374 0.0073406044 -0.82155627 -0.12178021 -0.55696934 0
-0.008446251 -0.057351436 0.0074075479 0.91631645 0.057823882 -0.39625823 0
-0.037877791 -0.052588038 0.0075229681 -0.83474839 -0.11119743 -0.53928685 0
-0.010131991 -0.050436545 0.0050857253 0.71190071 0.059154116 -0.69978434 0
-0.0087000439 -0.052401837 0.0075381272 0.91787142 0.052755635 -0.39335614 0
-0.040109765 -0.045109253 0.0099745002 -0.89006525 -0.063318096 -0.45141402 0
-0.038449306 -0.047579102 0.0075253439 -0.84455317 -0.084552661 -0.528754 0
-0.010213668 -0.047224905 0.0052476847 0.74554861 0.047157705 -0.66478074 0
-0.0089405254 -0.047502376 0.0075581493 0.9144662 0.043479893 -0.40231973 0
-0.040168602 -0.04211764 0.0096451743 -0.88809419 -0.06207389 -0.45545092 0
-0.038617719 -0.042640503 0.0071218363 -0.83800995 -0.052637704 -0.54311031 0
-0.010309519 -0.04251086 0.0053653112 0.7270261 0.026211498 -0.68610924 0
-0.0089583211 -0.042455301 0.007845453 0.91760093 0.0084878439 -0.39741212 0
-0.04035851 -0.037205186 0.0095586227 -0.87523228 -0.033469882 -0.48254362 0
-0.038756903 -0.03764645 0.0069632041 -0.83557105 -0.029772136 -0.5485751 0
-0.010443093 -0.037228268 0.0053695533 0.67061794 0.010718396 -0.74172544 0
-0.0089311665 -0.037289467 0.0077972864 0.90704483 -0.021279894 -0.4204959 0
-0.040390886 -0.032551564 0.0094784973 -0.88634145 0.0077555226 -0.46296728 0
-0.038903013 -0.032496739 0.0070033167 -0.83630711 -0.0026681521 -0.54825479 0
-0.010499185 -0.032711167 0.0053616147 0.61182892 0.0014665273 -0.79098868 0
-0.0086709736 -0.032481771 0.0080178855 0.89790177 -0.042275216 -0.4381611 0
-0.040261775 -0.028080687 0.00951441 -0.88947409 0.049583402 -0.45428786 0
-0.038846876 -0.027560327 0.0071553118 -0.84475505 0.049878187 -0.53282374 0
-0.010471229 -0.027761264 0.0053590653 0.58523417 -0.017908424 -0.81066656 0
-0.0084803188 -0.027351489 0.0078127198 0.86867559 -0.062487666 -0.49142435 0
-0.040017452 -0.023157889 0.0098077916 -0.88562018 0.11262741 -0.45054632 0
-0.038426537 -0.02230675 0.0073104394 -0.83908623 0.10417867 -0.53392982 0
-0.01046602 -0.022841047 0.0052299351 0.55028361 -0.038048934 -0.8341105 0
-0.008182575 -0.022197466 0.0076895771 0.84007788 -0.077371188 -0.53691983 0
-0.037846658 -0.017630802 0.0074484861 -0.8392818 0.13030179 -0.52785194 0
-0.010200666 -0.017501494 0.005118988 0.52101481 -0.038615011 -0.85267365 0
-0.0079427352 -0.017615788 0.0073649003 0.79330617 -0.097910069 -0.60089844 0
-0.037050858 -0.012425515 0.0075517269 -0.83265424 0.15071633 -0.53288984 0
-0.0075075291 -0.012575635 0.0071090213 0.73945564 -0.11278165 -0.66369098 0
-0.036360402 -0.0076912204 0.0078751398 -0.82860154 0.16634579 -0.53455448 0
-0.034612 -0.0069655944 0.0055809561 -0.77143532 0.1725774 -0.61245775 0
-0.0067261513 -0.0077877166 0.0070311381 0.72199577 -0.13895287 -0.67780107 0
-0.0047500771 -0.0061310907 0.0092563974 0.90797102 -0.19089282 -0.37302625 0
-0.035762228 -0.0026471016 0.0086128013 -0.82764637 0.19216819 -0.52732629 0
-0.034003697 -0.0023026576 0.0062175053 -0.78229791 0.1881012 -0.59382492 0
-0.0067757498 -0.0026883089 0.0059657595 0.57466924 -0.12792534 -0.80832565 0
-0.0043202876 -0.0023004625 0.0084080938 0.85653037 -0.20663311 -0.47292536 0
-0.035281852 0.0015682675 0.0094680311 -0.83518302 0.21427177 -0.50651449 0
-0.033359632 0.0026075302 0.0070819762 -0.78645569 0.21687794 -0.57831764 0
-0.0061360616 0.0023380497 0.0055117127 0.51649261 -0.14152586 -0.8445152 0
-0.0034343116 0.0025999013 0.0078868521 0.79341727 -0.22670987 -0.56488192 0
-0.032418117 0.0073277443 0.0076891212 -0.78751355 0.2372635 -0.56879556 0
-0.029976534 0.0093224561 0.0052792309 -0.75353986 0.22859366 -0.61637861 0
-0.0053671817 0.0064206622 0.0052434453 0.49204358 -0.16183259 -0.85539657 0
-0.0025408519 0.0076650428 0.0072509563 0.71777511 -0.23594943 -0.6550777 0
-0.031371713 0.012022569 0.008215066 -0.78628153 0.24650744 -0.56656456 0
-0.029306363 0.012971024 0.0058817007 -0.76039284 0.24511597 -0.60143232 0
-0.0015584766 0.012313814 0.0065980479 0.62766582 -0.23256506 -0.74293274 0
0.00068989745 0.013259731 0.0086844321 0.84239304 -0.31721547 -0.435601 0
-0.030648835 0.016647486 0.0092624715 -0.79213953 0.2621296 -0.55118322 0
-0.028515974 0.017747985 0.0068988786 -0.76560205 0.26022762 -0.58833247 0
-0.00094163901 0.016733745 0.0056600254 0.51402456 -0.22602324 -0.8274613 0
0.0018909066 0.017381579 0.0080727516 0.77613413 -0.33465222 -0.53443772 0
-0.027381917 0.022366794 0.0076089799 -0.76275671 0.28957927 -0.57822663 0
-0.024544807 0.024825349 0.0052260291 -0.72080231 0.29645112 -0.62654668 0
-0.00027253444 0.020291751 0.0050726919 0.45951113 -0.24233611 -0.85447222 0
0.0030590957 0.022112107 0.0069612088 0.65622669 -0.33835319 -0.6744507 0
0.0056079142 0.023978963 0.008766925 0.79609352 -0.43202379 -0.42378134 0
-0.026108528 0.027186053 0.0084322589 -0.76633173 0.3200987 -0.55702114 0
-0.02403703 0.027932972 0.0061886194 -0.72651517 0.31491885 -0.61073864 0
0.003851708 0.026834821 0.0055017751 0.49073187 -0.27138397 -0.82796919 0
0.0068397862 0.027829492 0.0076281964 0.68766528 -0.40641183 -0.60161936 0
-0.025331065 0.030781416 0.0094693527 -0.76376635 0.3435061 -0.54650205 0
-0.022872696 0.032502625 0.0073464727 -0.72890645 0.34741658 -0.58991277 0
-0.019859869 0.034774117 0.0050731571 -0.68399686 0.33915424 -0.64585042 0
0.0083953431 0.032177955 0.0064672963 0.55952102 -0.3966563 -0.72773623 0
0.011182606 0.033251915 0.0085285064 0.70774502 -0.52465373 -0.47311249 0
-0.021301709 0.03712913 0.0082187355 -0.730474 0.37424821 -0.57126707 0
-0.019008493 0.037914544 0.0059239427 -0.69853729 0.3662442 -0.6147446 0
0.0094868932 0.035754874 0.0053100148 0.43644345 -0.33401978 -0.83543283 0
0.012941505 0.037404981 0.0069170063 0.59014392 -0.47148904 -0.65530771 0
0.015877824 0.039032329 0.00878736 0.70167053 -0.57568038 -0.4198221 0
-0.020365411 0.041110162 0.0097744623 -0.7343446 0.41292387 -0.53873169 0
-0.017724104 0.042441655 0.0073965187 -0.7066974 0.40874529 -0.57749981 0
-0.014773619 0.044595633 0.0054163001 -0.66401058 0.41493267 -0.62202954 0
0.014111695 0.04114411 0.0053672614 0.40723595 -0.36779144 -0.83599538 0
0.017612921 0.042553481 0.0072205858 0.60517508 -0.55144775 -0.57416767 0
0.020679126 0.044335831 0.0090673259 0.67772371 -0.63430315 -0.37195438 0
-0.015965259 0.046846006 0.0084930165 -0.70512486 0.44469818 -0.55230653 0
-0.013599476 0.048016358 0.0065856967 -0.66923958 0.44716284 -0.59343386 0
0.019028774 0.045928475 0.0054401997 0.39209643 -0.44333258 -0.80605 0
0.022695763 0.047530126 0.0074863974 0.6149267 -0.62464499 -0.48133546 0
0.025680024 0.049403101 0.0090337228 0.64418864 -0.6749503 -0.35980991 0
-0.015049946 0.050025169 0.0099917455 -0.72363842 0.48274392 -0.49326041 0
-0.011792065 0.052279394 0.0079845712 -0.65863311 0.49699053 -0.56498039 0
-0.0087759737 0.053688277 0.0059126513 -0.61953211 0.51274025 -0.59437144 0
0.024273314 0.050508574 0.0054203975 0.50661242 -0.58807427 -0.63048607 0
0.027747834 0.052314382 0.0072836773 0.605708 -0.67916757 -0.41454691 0
0.030677821 0.054230943 0.0085792206 0.63221282 -0.70912182 -0.31217486 0
-0.010592265 0.055518862 0.0095471339 -0.65406501 0.54342204 -0.52620476 0
-0.0074672815 0.057078894 0.0075625726 -0.61623746 0.53412235 -0.57876128 0
-0.0039903484 0.059111465 0.0058265952 -0.59085542 0.52713513 -0.61075222 0
0.029772902 0.05523983 0.0053843604 0.53688508 -0.64964342 -0.53825438 0
0.032678448 0.056681722 0.0071480945 0.60161453 -0.71275324 -0.36061442 0
0.036004428 0.059214555 0.0078974757 0.65455228 -0.71596003 -0.24282219 0
-0.0055376454 0.060753692 0.008999221 -0.61661452 0.56923372 -0.54383761 0
-0.0026073889 0.062550187 0.0077353567 -0.58830953 0.5793215 -0.56416184 0
0.0010416344 0.06398581 0.005624122 -0.53155786 0.5928241 -0.60498422 0
0.038295198 0.061474815 0.0073260157 0.64650798 -0.72541255 -0.23622902 0
0.041193511 0.063947864 0.0076310122 0.6501587 -0.74545014 -0.1469616 0
-0.00090055831 0.065558754 0.0091666616 -0.56573027 0.63214672 -0.52947116 0
0.0027309703 0.067255557 0.007580928 -0.52176964 0.63475496 -0.56994957 0
0.0065825251 0.068976931 0.0062023038 -0.46001002 0.65222907 -0.60248488 0
0.043661308 0.065988712 0.0073652128 0.60455424 -0.79481065 -0.052821606 0
0.047320962 0.068374604 0.007469208 0.47020382 -0.87442064 0.11956973 0
0.051493209 0.069692947 0.00622448 0.23457997 -0.95566118 0.17799965 0
0.0045846817 0.070464768 0.0095970286 -0.50255448 0.67563075 -0.5394091 0
0.0077255107 0.071584597 0.0083105816 -0.45632276 0.68253237 -0.57089317 0
0.012346021 0.073272534 0.006937732 -0.40288275 0.69339383 -0.59740311 0
0.016229846 0.074429467 0.0058135618 -0.34869429 0.70200187 -0.6209715 0
0.04927073 0.070020057 0.0097724926 0.39163154 -0.84615308 0.36145502 0
0.053272489 0.070551053 0.0078741293 0.1988951 -0.92984951 0.30954903 0
0.057617281 0.071162924 0.007496723 0.10986052 -0.94145322 0.31874201 0
0.062642775 0.071604781 0.0075766519 0.17866263 -0.9265123 0.33114135 0
0.0654824 0.073624752 0.0075280163 0.96209359 -0.25892493 0.08563678 0
0.013420121 0.075772591 0.0092358962 -0.39488414 0.74035263 -0.54400778 0
0.017697835 0.076837428 0.0078840805 -0.342792 0.7421636 -0.57592261 0
0.022380853 0.078041069 0.0070418385 -0.25127825 0.76244187 -0.59627318 0
0.027064243 0.07882867 0.0064434819 -0.15387763 0.78153914 -0.60458106 0
0.032280944 0.079043262 0.0061156615 0.024524003 0.80628139 -0.5910235 0
0.037703715 0.079023443 0.0068043852 0.073640175 0.85747933 -0.50922132 0
0.042400308 0.079016693 0.0074899951 -0.022876473 0.97610599 -0.2160873 0
0.047238462 0.079503007 0.0075996164 -0.12981075 0.99094826 -0.034215949 0
0.052327517 0.079841778 0.0090926737 -0.072424874 0.97030675 0.23078007 0
0.055991508 0.079912983 0.0097979689 -0.044039026 0.94704795 0.31805772 0
0.064253755 0.079737 0.0083338721 0.75036955 0.60071868 0.2758306 0
0.06545049 0.077519581 0.0075006736 0.98769915 0.1556786 0.01464603 0
0.023605209 0.080241531 0.0096063009 -0.2179893 0.84548962 -0.48747098 0
0.027795214 0.080646954 0.0089044673 -0.11889118 0.86132336 -0.49395046 0
0.032974426 0.080581442 0.0086209094 0.085945889 0.91991025 -0.38259438 0
0.036513295 0.080176137 0.0090706069 0.20194885 0.96074057 -0.19024776 0
0.049635954 0.080048613 0.0066084997 -0.15253188 0.98733068 -0.043728624 0
0.052437056 0.080279447 0.0067461249 -0.10443991 0.98969167 0.09799318 0
0.057606794 0.08050897 0.0074779838 -0.029142249 0.98307472 0.18087216 0
0.062596172 0.080661207 0.0074735568 0.098311782 0.97106171 0.21765564 0
-0.022049528 -0.095942132 0.012550717 -0.26678514 -0.95460784 -0.13247469 0
-0.017587863 -0.09592367 0.012426646 0.17227198 -0.97605669 -0.13279921 0
-0.014539517 -0.095312752 0.013599543 0.32327163 -0.93556136 -0.14219855 0
-0.026618132 -0.091938511 0.012468126 -0.79920822 -0.5905236 -0.11201852 0
-0.024491891 -0.094385192 0.012138633 -0.6969049 -0.6986506 -0.16189791 0
-0.015076601 -0.094952725 0.010164384 0.38393486 -0.89838147 -0.21331857 0
-0.011796367 -0.093556896 0.012498181 0.63250959 -0.76437819 -0.12513003 0
-0.009685087 -0.090709664 0.012557491 0.94791156 -0.31640607 -0.036752738 0
-0.030297607 -0.08574757 0.012873058 -0.9139151 -0.40105057 -0.062591739 0
-0.0289775 -0.088065453 0.012094905 -0.86509591 -0.46820334 -0.17998511 0
-0.0089170411 -0.087481678 0.012267825 0.97306085 -0.21734421 -0.076903164 0
-0.031780642 -0.082430743 0.012474016 -0.89245117 -0.4264352 -0.14725436 0
-0.0079603912 -0.082519956 0.012569806 0.98602504 -0.14466231 -0.082628429 0
-0.035292976 -0.075506814 0.013402124 -0.9268623 -0.35505173 -0.12192038 0
-0.033948537 -0.077866085 0.012092084 -0.88552135 -0.41147774 -0.2157269 0
-0.0074056559 -0.077355541 0.012389854 0.98846489 -0.080691859 -0.1281638 0
-0.036202837 -0.072286129 0.012463994 -0.91506565 -0.31921136 -0.24649318 0
-0.034809075 -0.074539937 0.01054483 -0.86194414 -0.29326081 -0.41358247 0
-0.0069825156 -0.072527856 0.012624265 0.98759151 -0.076830283 -0.13696726 0
-0.037740886 -0.067356452 0.012433083 -0.92679745 -0.24997672 -0.28028241 0
-0.0067739422 -0.067559153 0.012370938 0.98879439 -0.020937892 -0.14780815 0
-0.038791556 -0.062586106 0.012284623 -0.92647856 -0.17499602 -0.33318737 0
-0.0067474605 -0.062396247 0.01279818 0.98900777 0.037014551 -0.14315602 0
-0.040281843 -0.056967001 0.013828669 -0.95926297 -0.13202147 -0.24976946 0
-0.039320253 -0.057908095 0.011623486 -0.9117623 -0.14761725 -0.38327372 0
-0.0070329001 -0.057621509 0.012517876 0.9849152 0.057753578 -0.16311488 0
-0.040649567 -0.052241966 0.013223324 -0.95307583 -0.10568917 -0.28368342 0
-0.039712213 -0.0530315 0.010900967 -0.90790975 -0.10208186 -0.40654543 0
-0.0073059518 -0.052571852 0.012406277 0.9826442 0.041809805 -0.18072698 0
-0.040936202 -0.04727269 0.012470432 -0.93682945 -0.099737369 -0.33526555 0
-0.039946973 -0.048907734 0.010393033 -0.90165675 -0.11076576 -0.41802651 0
-0.0074570905 -0.047638871 0.012537609 0.97939581 0.027416773 -0.20008062 0
-0.041445408 -0.04243743 0.012703622 -0.93748742 -0.069066137 -0.34109727 0
-0.0075522242 -0.04233088 0.012363343 0.97370577 -0.0042493669 -0.22776958 0
-0.041629549 -0.03763831 0.012492156 -0.93413436 -0.032705039 -0.35541996 0
-0.007428654 -0.037547786 0.012458709 0.97006446 -0.036774307 -0.24004711 0
-0.041705169 -0.032447211 0.012507713 -0.93378961 0.0091954684 -0.35770428 0
-0.0071731382 -0.032568742 0.012428575 0.96626848 -0.06353575 -0.2495763 0
-0.041531067 -0.027566239 0.012485723 -0.92864263 0.053148087 -0.36714867 0
-0.006822566 -0.027916372 0.012436507 0.96341974 -0.085840642 -0.25387719 0
-0.041100532 -0.022551948 0.012411904 -0.91960371 0.093210027 -0.38162938 0
-0.039934158 -0.021059524 0.01017434 -0.88280964 0.11715873 -0.45488569 0
-0.0062897685 -0.022544406 0.012438013 0.95741451 -0.10465403 -0.26908177 0
-0.040754147 -0.017355222 0.01304865 -0.9127267 0.12818246 -0.38794237 0
-0.039671469 -0.01700772 0.010816224 -0.88237494 0.13303222 -0.45135 0
-0.0056724814 -0.017508114 0.012390389 0.94986039 -0.13681141 -0.28115445 0
-0.0048802923 -0.015696317 0.014260438 0.96290356 -0.14644884 -0.22664839 0
-0.04047427 -0.012913374 0.013859126 -0.91672599 0.13379085 -0.37644854 0
-0.039381988 -0.012267889 0.011721545 -0.88598466 0.14391851 -0.44081584 0
-0.0053771879 -0.013290262 0.011156861 0.93848383 -0.15840186 -0.30685014 0
-0.004546483 -0.011983423 0.013212564 0.95338464 -0.16470712 -0.25284234 0
-0.040247705 -0.0092459768 0.014645061 -0.92415798 0.15429728 -0.34946314 0
-0.038821205 -0.0073451274 0.012338688 -0.88375819 0.16480587 -0.43796173 0
-0.0050422745 -0.0094312597 0.010131477 0.93086803 -0.16321564 -0.32687214 0
-0.003917573 -0.0075553595 0.012588887 0.94300956 -0.18703173 -0.27523109 0
-0.037923589 -0.002521114 0.012523782 -0.87800205 0.19351922 -0.43779305 0
-0.0027780882 -0.0023318578 0.012502671 0.93048847 -0.2299163 -0.28518394 0
-0.036639135 0.0024239838 0.012309845 -0.86687136 0.21518706 -0.44969833 0
-0.034898747 0.0049948329 0.010338686 -0.82611591 0.23863758 -0.51047492 0
-0.0014684615 0.0025673308 0.012399382 0.91567135 -0.27369332 -0.29434335 0
-0.035910081 0.0070150755 0.013091172 -0.86299103 0.22633255 -0.45168582 0
-0.034409828 0.0077368203 0.010809688 -0.8287732 0.23494396 -0.50787431 0
-0.00056227663 0.0062985467 0.011640076 0.90497339 -0.29304469 -0.30846077 0
0.00059824635 0.0081380159 0.013303557 0.90732241 -0.31489983 -0.27857506 0
-0.035280451 0.010969203 0.013981509 -0.87771451 0.25606063 -0.40503114 0
-0.033624604 0.012721576 0.01196075 -0.83134812 0.2558594 -0.493352 0
0.0019535671 0.012484265 0.012555851 0.88924754 -0.3459942 -0.29921043 0
-0.032240037 0.017497983 0.012265454 -0.83075273 0.28350851 -0.47903329 0
0.0038228945 0.017396579 0.012157201 0.86951917 -0.38161048 -0.31354398 0
0.0052823857 0.019368775 0.013724793 0.86917585 -0.41036436 -0.27592492 0
-0.03111588 0.022215558 0.013187711 -0.83149779 0.30878064 -0.46180722 0
-0.029429689 0.023475351 0.011137497 -0.80682254 0.3116163 -0.50192887 0
0.0047609787 0.020769639 0.010552436 0.83904481 -0.4124577 -0.35479912 0
0.0066103511 0.022811415 0.012554453 0.83916634 -0.44826648 -0.3079887 0
-0.030224105 0.026148088 0.014327596 -0.83231038 0.34307501 -0.4353835 0
-0.028318338 0.027642613 0.012084947 -0.81191212 0.33382112 -0.47891766 0
0.0087441718 0.026911018 0.012015096 0.80302411 -0.49793336 -0.32743645 0
0.010689095 0.028960831 0.013491997 0.79154557 -0.53763217 -0.29052913 0
-0.026660243 0.032234456 0.012596645 -0.8057158 0.363383 -0.46773371 0
-0.024645619 0.034121566 0.01070816 -0.7749213 0.3656275 -0.51557106 0
0.012789867 0.032735184 0.012214077 0.76411438 -0.55334443 -0.33157074 0
0.015134169 0.034617621 0.01475073 0.79954427 -0.57203013 -0.1830591 0
-0.025610631 0.036085095 0.013943338 -0.81231183 0.40829831 -0.41646367 0
-0.023708088 0.037764974 0.012175644 -0.78065336 0.40762916 -0.4737286 0
0.014388718 0.035678092 0.01088896 0.73448718 -0.57346106 -0.36286509 0
0.016709292 0.037723403 0.01258021 0.7511099 -0.58963269 -0.29692954 0
-0.021519708 0.042382799 0.012811888 -0.77236074 0.45747539 -0.44065312 0
-0.01954185 0.043980263 0.011023849 -0.76153141 0.44438764 -0.47179383 0
0.018984387 0.040981531 0.011714208 0.72663957 -0.61049759 -0.31509948 0
0.021450298 0.043424528 0.012614435 0.72584921 -0.6424619 -0.24573478 0
-0.020315886 0.045811258 0.014432293 -0.79278696 0.47594333 -0.38074502 0
-0.018042848 0.047643501 0.012304472 -0.75823712 0.47154927 -0.45024186 0
0.023823755 0.046134531 0.012300931 0.70648593 -0.66947603 -0.22952013 0
0.02626087 0.048535906 0.012825132 0.7148909 -0.6788184 -0.1677397 0
-0.016001575 0.051388647 0.012969569 -0.73772812 0.50939631 -0.44302678 0
-0.01396546 0.053285286 0.01187076 -0.71209216 0.52746564 -0.46336254 0
0.028766595 0.051261153 0.012299144 0.70461273 -0.6946218 -0.14498785 0
0.031330109 0.053785 0.012542954 0.70141381 -0.70858544 -0.076975383 0
-0.011711916 0.0572052 0.013110677 -0.69567394 0.5660277 -0.44232392 0
-0.009065615 0.058769662 0.011159143 -0.65542912 0.56966269 -0.49588019 0
0.033775091 0.056191724 0.012484656 0.69895333 -0.71426028 -0.036007863 0
0.03625546 0.058711402 0.012684084 0.72416687 -0.68941164 0.017144373 0
-0.010007418 0.060186688 0.014332917 -0.68256861 0.61213559 -0.3992371 0
-0.0068964493 0.062260218 0.01250684 -0.65139687 0.60199785 -0.46182323 0
-0.0041289646 0.064060792 0.011081489 -0.61737114 0.6030798 -0.50512141 0
0.03864567 0.061258744 0.012773044 0.73799098 -0.67080164 0.073446907 0
0.040957168 0.063764736 0.012106259 0.74044847 -0.65938985 0.13015758 0
-0.0053614601 0.065297708 0.014423871 -0.6604709 0.66677821 -0.34523189 0
-0.0021291727 0.067207284 0.012762459 -0.59945875 0.66419029 -0.44665477 0
0.0011939271 0.069026321 0.011263727 -0.55513304 0.67106062 -0.49143156 0
0.043511622 0.06669116 0.012565086 0.70560533 -0.66081488 0.25582182 0
0.046298414 0.069089212 0.011888339 0.6065945 -0.7167815 0.34390017 0
-0.00014690314 0.070052795 0.014480454 -0.58339673 0.70991206 -0.39455423 0
0.0029350654 0.071524166 0.012929096 -0.54874843 0.71912819 -0.42629766 0
0.0068800724 0.073741823 0.011979079 -0.4883486 0.74648553 -0.45196792 0
0.010169491 0.074747227 0.010310898 -0.43005252 0.73986858 -0.51734835 0
0.044798322 0.074702144 0.014787627 0.30786967 0.42789909 0.84977561 0
0.047932848 0.072135799 0.013447499 0.46459192 -0.37334073 0.80297643 0
0.052303314 0.072568744 0.012013356 0.26968309 -0.65156794 0.7090348 0
0.057516146 0.073360242 0.011512894 0.13035579 -0.62141657 0.77255994 0
0.062188465 0.073532932 0.011159146 0.15172344 -0.63512188 0.75736403 0
0.065229945 0.074268758 0.010515225 0.85889405 -0.23908491 0.45292321 0
0.0087993918 0.075750671 0.013455373 -0.46214795 0.82252514 -0.331469 0
0.012455428 0.077075787 0.012327833 -0.41086358 0.8299188 -0.37739336 0
0.017146975 0.079068914 0.011991993 -0.34826982 0.87340593 -0.34039712 0
0.020798573 0.079793438 0.010379209 -0.29972798 0.84417742 -0.44444081 0
0.039062902 0.079641901 0.012374012 0.30490878 0.95035678 0.062068962 0
0.04255341 0.078145184 0.013031429 0.30579528 0.83757555 0.45272127 0
0.047488034 0.077407293 0.012403813 0.11693701 0.66548765 0.73719186 0
0.052248798 0.077791825 0.011766659 0.056991857 0.5696221 0.81992853 0
0.057753187 0.077920496 0.011370687 0.050818451 0.46898875 0.88174093 0
0.06267754 0.077322237 0.011371118 0.11599003 0.33454472 0.93521446 0
0.065253288 0.076656781 0.010603335 0.93030632 0.087424114 0.35621253 0
0.019131275 0.080271065 0.013514199 -0.29805094 0.94359857 -0.14417827 0
0.022558577 0.081012249 0.012745528 -0.22516601 0.95580643 -0.18903519 0
0.027666287 0.081607185 0.012183876 -0.025119567 0.98977339 -0.14041981 0
0.032470293 0.081239626 0.012387873 0.15944698 0.98679966 -0.028338077 0
0.036316343 0.080455482 0.012799073 0.26413339 0.96432573 0.017589862 0
-0.021562384 -0.095830977 0.016424498 -0.30281752 -0.87419975 0.37957379 0
-0.017705562 -0.095857151 0.016899424 0.12799522 -0.92942572 0.34609964 0
-0.014310734 -0.095282122 0.016041238 0.39419141 -0.90082556 0.18200669 0
-0.026281076 -0.091567412 0.016982473 -0.7604382 -0.57062286 0.31003749 0
-0.023062574 -0.093662135 0.018334076 -0.42383447 -0.67457074 0.60441589 0
-0.017505286 -0.094162971 0.019337779 0.062095277 -0.66897708 0.74068475 0
-0.012210595 -0.092571728 0.017453678 0.6660735 -0.54926842 0.50462884 0
-0.0098481756 -0.090430923 0.015707331 0.89107335 -0.35142186 0.28721243 0
-0.030292761 -0.085150853 0.016241418 -0.87698638 -0.43778619 0.19808611 0
-0.028535333 -0.087684385 0.017764322 -0.82314163 -0.47008118 0.31853032 0
-0.010674271 -0.088079453 0.019005457 0.74063188 -0.33123669 0.58459115 0
-0.0092283962 -0.086851105 0.017113885 0.89943773 -0.27286229 0.34140593 0
-0.031439375 -0.082347587 0.017361935 -0.86466002 -0.44684413 0.22955029 0
-0.029740969 -0.084257483 0.019599764 -0.81887698 -0.44848549 0.35819173 0
-0.010016186 -0.08427605 0.019989735 0.7327686 -0.24591185 0.63449007 0
-0.0083993012 -0.082583837 0.017561026 0.92933649 -0.19130859 0.31580797 0
-0.035217691 -0.075667195 0.016217316 -0.90804845 -0.40666294 0.10036603 0
-0.033779256 -0.077918418 0.017476249 -0.86122596 -0.46021777 0.21561444 0
-0.0075641703 -0.077608854 0.017440515 0.96297425 -0.11525104 0.24371643 0
-0.036355808 -0.072344176 0.017454436 -0.91520321 -0.36416098 0.17259748 0
-0.034822769 -0.074437432 0.01981782 -0.863033 -0.40896612 0.29651442 0
-0.0070251902 -0.072606854 0.017671267 0.97290313 -0.10208404 0.20745711 0
-0.038068064 -0.06743104 0.017610757 -0.94342571 -0.29481661 0.15176001 0
-0.0066388706 -0.067484789 0.01753542 0.98922396 -0.038553976 0.1412432 0
-0.040034264 -0.060343582 0.015406397 -0.98296112 -0.17790391 -0.046235174 0
-0.039401308 -0.062594689 0.017336955 -0.96937454 -0.21654886 0.11584296 0
-0.006532338 -0.062429588 0.017385839 0.99657893 0.0036577953 0.082565285 0
-0.040424984 -0.057240371 0.017123129 -0.98608166 -0.14958473 0.072576471 0
-0.039818931 -0.059426472 0.019057862 -0.95744175 -0.18038583 0.2253134 0
-0.00665311 -0.057557628 0.017188331 0.99884534 0.038684979 0.028484771 0
-0.041027352 -0.052578349 0.017497288 -0.98831826 -0.13059556 0.078561522 0
-0.0068181907 -0.052205555 0.017505649 0.99979597 0.019673377 0.0045721414 0
-0.041725162 -0.047432341 0.017499756 -0.99092233 -0.12711202 0.043765321 0
-0.0068634748 -0.047616545 0.01785971 0.99998939 0.0019138632 0.0042059305 0
-0.04224458 -0.042703908 0.017731296 -0.99471891 -0.090426773 0.048551902 0
-0.0068482524 -0.042599726 0.017352743 0.99907988 -0.017181193 -0.039296389 0
-0.042620376 -0.037442639 0.017467912 -0.99837047 -0.045381129 0.034596745 0
-0.0066580004 -0.037468165 0.017491443 0.99712956 -0.055982649 -0.05097533 0
-0.042763349 -0.032802369 0.017579649 -0.99969715 -0.024475906 0.002560972 0
-0.0063258228 -0.032508548 0.017447969 0.99475926 -0.074551702 -0.069971561 0
-0.042764325 -0.027658435 0.017573044 -0.99950731 0.031385224 -0.00027113527 0
-0.0058662868 -0.027249595 0.017729042 0.99402106 -0.095406868 -0.053099133 0
-0.04241975 -0.022514962 0.017460184 -0.9962005 0.082961023 -0.026497781 0
-0.0053658481 -0.02257162 0.017635772 0.9902131 -0.12246504 -0.066935688 0
-0.004963567 -0.020263055 0.019090975 0.98850071 -0.15069126 0.012588536 0
-0.041912343 -0.017368142 0.017366571 -0.99063194 0.11894605 -0.067083798 0
-0.0051155938 -0.019258853 0.015703956 0.97677678 -0.14188975 -0.16054411 0
-0.0045893872 -0.017160818 0.017568123 0.98471838 -0.15438153 -0.080598317 0
-0.041266877 -0.012437863 0.017439753 -0.98715377 0.1421542 -0.0729357 0
-0.0038100027 -0.012462781 0.017508017 0.9785952 -0.1762542 -0.10623514 0
-0.04049474 -0.0075064534 0.017790549 -0.98285025 0.17874737 -0.045330275 0
-0.039859369 -0.0055863541 0.015417924 -0.93385631 0.17979342 -0.30917132 0
-0.0028754084 -0.0076663415 0.017513713 0.97048402 -0.20713094 -0.12352087 0
-0.040053729 -0.0048008645 0.018056886 -0.98089141 0.19449368 0.0049339724 0
-0.039374486 -0.0021660188 0.017109571 -0.97083205 0.21364959 -0.10880663 0
-0.00159215 -0.0023703254 0.017594459 0.95809644 -0.25137067 -0.13734634 0
-0.038420856 0.0022914961 0.017746313 -0.97449666 0.21898994 -0.048986334 0
-0.00054878893 0.0017080506 0.017110784 0.94778252 -0.27687618 -0.15826465 0
0.00037719455 0.0042534904 0.018097434 0.94513565 -0.30288446 -0.12239113 0
-0.037205856 0.0073421118 0.017452285 -0.96450913 0.24731013 -0.09251944 0
0.0013301804 0.0074234419 0.017537447 0.93835539 -0.3165648 -0.13883756 0
-0.035809692 0.012478513 0.017479194 -0.9565134 0.27517825 -0.09674155 0
-0.034929726 0.014555509 0.0156617 -0.89774358 0.27864903 -0.34119067 0
0.003114244 0.012437924 0.017393129 0.92287636 -0.35820901 -0.14136998 0
-0.0351329 0.015219697 0.018383244 -0.95972425 0.2802301 0.020013899 0
-0.034253255 0.017575067 0.017505111 -0.94348621 0.31338289 -0.10781929 0
0.0045298114 0.016012928 0.017130041 0.90691912 -0.39087361 -0.15721209 0
0.0057511064 0.01842284 0.017677328 0.8890425 -0.43473163 -0.1435681 0
-0.032592129 0.022381805 0.017771618 -0.936459 0.34489202 -0.06398429 0
0.0077994242 0.022526024 0.017322252 0.86798394 -0.47286883 -0.15165402 0
-0.030727506 0.027078371 0.017492732 -0.92081881 0.37459561 -0.10849355 0
-0.029735241 0.029097898 0.016741788 -0.90348363 0.38306072 -0.19230671 0
0.0095647303 0.025796801 0.01680512 0.84655958 -0.50718039 -0.16157009 0
0.01123795 0.028223895 0.017699422 0.83803111 -0.53587782 -0.1026592 0
-0.028377304 0.032649547 0.017717911 -0.90897143 0.40881187 -0.081509821 0
0.013651764 0.031943504 0.017529422 0.82937366 -0.55425769 -0.070268415 0
0.015320725 0.03439166 0.01744096 0.81641406 -0.57518464 -0.051291395 0
-0.026109694 0.037384097 0.017621195 -0.89097375 0.44341117 -0.097736128 0
-0.024700718 0.039543487 0.016050575 -0.84762621 0.45070347 -0.27999324 0
0.017585225 0.037509292 0.017499285 0.80397874 -0.59439451 -0.017706092 0
-0.02501698 0.0400084 0.018511839 -0.87847567 0.46656397 -0.10294975 0
-0.023291443 0.042624079 0.017353285 -0.85433179 0.49523267 -0.15767631 0
0.019714091 0.040338829 0.017056093 0.79221195 -0.6102041 -0.0071540554 0
0.021692373 0.042862024 0.017617481 0.78076965 -0.62364668 0.038256165 0
-0.020893827 0.046704996 0.017887544 -0.84903556 0.51099664 -0.13424285 0
-0.019490741 0.048861742 0.017258475 -0.8473267 0.50043267 -0.17777705 0
0.024108119 0.045794453 0.017620789 0.7599315 -0.64769524 0.054726355 0
0.026375592 0.048391026 0.017219096 0.75679672 -0.64828897 0.083548218 0
-0.017167715 0.052460808 0.017454749 -0.81139088 0.56726331 -0.14091597 0
-0.014896885 0.054959062 0.015518447 -0.76335621 0.54935724 -0.3398439 0
0.028865958 0.051375628 0.017587462 0.75223112 -0.64078486 0.1534376 0
0.031063864 0.053762082 0.017071884 0.73216379 -0.66458946 0.14918785 0
-0.015222786 0.055358607 0.017843094 -0.79935473 0.59463441 -0.086266331 0
-0.012959626 0.057944234 0.01750996 -0.75658351 0.64760965 -0.090460807 0
0.033622514 0.056842957 0.01773056 0.72897398 -0.64059973 0.24130671 0
0.035796888 0.058983255 0.016894691 0.7455315 -0.622015 0.2393328 0
-0.010499165 0.060773842 0.017783064 -0.72497326 0.6883201 -0.025086712 0
-0.0082726562 0.063056231 0.017005829 -0.71924043 0.68680078 -0.10487151 0
0.038035128 0.062256187 0.017640421 0.75732464 -0.56027716 0.33548313 0
0.040401805 0.064564563 0.016239407 0.75940019 -0.55868584 0.33343896 0
-0.005690516 0.065717585 0.017343929 -0.69449157 0.71740741 -0.054846618 0
-0.0030606263 0.068109065 0.017505012 -0.65925318 0.75112814 -0.034522016 0
0.039626539 0.065789394 0.019278202 0.75851256 -0.44416469 0.47683999 0
0.041883282 0.067708142 0.017288158 0.75649488 -0.41821766 0.5028016 0
-0.00052432338 0.070286095 0.017140729 -0.61149269 0.79019278 -0.040892713 0
0.0025037767 0.072462775 0.01748383 -0.56953293 0.82187635 -0.012305633 0
0.0056187394 0.074523941 0.017694371 -0.52026623 0.85384631 0.016416518 0
0.0391916 0.073815867 0.019387282 0.67111659 0.3216601 0.66793513 0
0.042289332 0.072609894 0.017317301 0.55952924 0.32817566 0.76107025 0
0.04580199 0.072260737 0.015382471 0.472148 0.10703199 0.87499738 0
0.0082942918 0.076062262 0.017457623 -0.47012278 0.88243711 0.017003987 0
0.012530027 0.078040466 0.017611489 -0.38444573 0.92213488 0.043229055 0
0.01623721 0.079436809 0.017858472 -0.32149884 0.94482595 0.062787279 0
0.034691527 0.079804875 0.019614 0.34707415 0.84572411 0.40532747 0
0.037988055 0.077966005 0.017973322 0.60120666 0.59363699 0.53492594 0
0.041243408 0.076531097 0.015967678 0.57861477 0.4417319 0.68562227 0
0.018879926 0.080318391 0.017243709 -0.281679 0.9584626 0.044792078 0
0.022419158 0.081168666 0.017369511 -0.18721075 0.97894335 0.081375271 0
0.027417278 0.081467755 0.017642356 0.056216132 0.98975843 0.13121705 0
0.032481275 0.080897614 0.017430572 0.18966578 0.96804065 0.16408615 0
0.035869043 0.080357462 0.016070854 0.29000744 0.94644445 0.1419104 0
-0.025513163 -0.090011358 0.02009823 -0.58460635 -0.53544128 0.60953927 0
-0.022111116 -0.090953216 0.021008318 -0.24989857 -0.52183914 0.81561917 0
-0.017634345 -0.09176752 0.021093722 0.046962369 -0.53312975 0.84472907 0
-0.014049662 -0.090913191 0.020611232 0.48274904 -0.43799126 0.75836468 0
-0.026531089 -0.087188303 0.021169482 -0.54730278 -0.43947363 0.71226585 0
-0.022339463 -0.087492265 0.022870144 -0.23782381 -0.42647806 0.8726719 0
-0.017340232 -0.087410696 0.023298642 0.13947693 -0.39836466 0.90656042 0
-0.013115471 -0.087303817 0.021661533 0.54673338 -0.32092446 0.77336287 0
-0.030663036 -0.081223384 0.020922273 -0.76266998 -0.44688913 0.46757314 0
-0.027739434 -0.082539313 0.022740198 -0.51235932 -0.41510427 0.75178224 0
-0.02282436 -0.083618529 0.024405031 -0.25522712 -0.34195834 0.90439129 0
-0.016661048 -0.083849192 0.024544263 0.26094672 -0.30358291 0.91637558 0
-0.0124163 -0.082581237 0.022699771 0.58950549 -0.24236815 0.7705459 0
-0.0096039493 -0.081319816 0.020538904 0.77849269 -0.19499516 0.59659541 0
-0.032109998 -0.076994061 0.022226285 -0.72945452 -0.42822787 0.53340137 0
-0.028754786 -0.078635059 0.024312327 -0.43730292 -0.40458462 0.80316705 0
-0.011896042 -0.077558331 0.023715233 0.61957276 -0.18384093 0.76310682 0
-0.0091621494 -0.077231333 0.021012185 0.81495482 -0.14950387 0.55990821 0
-0.03562453 -0.071135379 0.021415485 -0.85524607 -0.35239998 0.37995854 0
-0.033732738 -0.073038295 0.023127837 -0.76046574 -0.38709742 0.5213899 0
-0.010943377 -0.072528504 0.024211179 0.67019784 -0.16318053 0.72402143 0
-0.0088188201 -0.072317146 0.021757469 0.81434363 -0.13539705 0.56436878 0
-0.036423888 -0.067444131 0.022548053 -0.84946626 -0.3019155 0.43272856 0
-0.034732822 -0.069284916 0.024341632 -0.77803254 -0.32452226 0.5379132 0
-0.010382316 -0.067736715 0.024541175 0.70066571 -0.10092421 0.7063157 0
-0.0083222799 -0.067168295 0.021985823 0.84067601 -0.084396027 0.53492159 0
-0.037763644 -0.062599838 0.022788551 -0.88531291 -0.22735259 0.40562519 0
-0.01021574 -0.064099342 0.024856541 0.70233029 -0.08328224 0.70696265 0
-0.0083855744 -0.062370464 0.022618853 0.84065306 -0.047630854 0.53947532 0
-0.040136147 -0.055788156 0.020264957 -0.95472032 -0.14537647 0.25956643 0
-0.038921881 -0.057623375 0.02279705 -0.91406441 -0.18838868 0.35915998 0
-0.008332626 -0.05752936 0.022825385 0.8520245 -0.024295282 0.52293789 0
-0.040422752 -0.052117519 0.021171607 -0.9498685 -0.14107461 0.27901193 0
-0.039532974 -0.053080723 0.023363177 -0.92309117 -0.14032206 0.35806766 0
-0.0079302434 -0.052589767 0.02236291 0.89767265 -0.022714455 0.44007713 0
-0.040928803 -0.047406401 0.021882929 -0.94435555 -0.15137684 0.29202333 0
-0.039768044 -0.04858651 0.024629954 -0.90789843 -0.15945907 0.38767675 0
-0.0078457082 -0.047620341 0.022513341 0.91988689 -0.034421075 0.39067033 0
-0.041331112 -0.042541951 0.022619832 -0.94646531 -0.095956981 0.30821332 0
-0.0076914807 -0.042479526 0.022713084 0.92754984 -0.050735787 0.37023923 0
-0.041750856 -0.037507113 0.022455454 -0.95557839 -0.051782597 0.29015261 0
-0.0073211845 -0.037506513 0.022627544 0.93896717 -0.076595344 0.33537099 0
-0.041936561 -0.032678239 0.022424629 -0.95862913 -0.0096673938 0.28449365 0
-0.0068498622 -0.032537654 0.022578005 0.9480533 -0.09276773 0.30428439 0
-0.041817605 -0.027493561 0.022551131 -0.95329255 0.030585097 0.30049595 0
-0.0063294512 -0.027644152 0.022424445 0.95679104 -0.099454083 0.27323958 0
-0.041615445 -0.022542706 0.022368522 -0.95510709 0.069250643 0.28805351 0
-0.0057891775 -0.022547049 0.022668144 0.95326746 -0.12834311 0.27351284 0
-0.0049795844 -0.020081464 0.020236371 0.98465627 -0.16345413 0.061113521 0
-0.041104056 -0.017481012 0.022700766 -0.95157987 0.094007798 0.2926743 0
-0.0055141458 -0.018061006 0.024114661 0.91245645 -0.16362032 0.37503552 0
-0.0046306592 -0.016855603 0.021704977 0.97323918 -0.16552427 0.15939702 0
-0.040713225 -0.012534448 0.022048166 -0.95470977 0.12290623 0.27096722 0
-0.039724082 -0.011462758 0.024618246 -0.91295153 0.11991584 0.39005092 0
-0.0051416946 -0.01422028 0.024942638 0.90048647 -0.18076235 0.39553651 0
-0.0039627841 -0.012730628 0.022059955 0.9646793 -0.19290234 0.1793948 0
-0.040272843 -0.0081672426 0.021387607 -0.96226412 0.15705632 0.2222185 0
-0.039527301 -0.0067795771 0.023229243 -0.94313681 0.15606131 0.29349247 0
-0.0029011143 -0.0074012903 0.022360366 0.95597672 -0.22513364 0.18821055 0
-0.038878556 -0.0026302938 0.022738587 -0.94624317 0.19266105 0.25981811 0
-0.0017667741 -0.0024930614 0.022972597 0.93706429 -0.26023856 0.2327797 0
-0.037871979 0.0023899286 0.022413142 -0.94712126 0.21741523 0.23599119 0
-0.00051810971 0.0014139027 0.022449197 0.94164026 -0.29226825 0.16701175 0
0.00037200405 0.0038621146 0.022163408 0.94659895 -0.3011854 0.11505569 0
-0.036602844 0.0074863252 0.022434978 -0.93254858 0.25080407 0.2597121 0
0.0015570497 0.0076973704 0.022399815 0.93984216 -0.31385365 0.13487966 0
-0.035528939 0.011926456 0.021867033 -0.93536067 0.26447836 0.23484364 0
-0.034549128 0.013656617 0.023599731 -0.90643752 0.27048519 0.32435912 0
0.0031529476 0.012320381 0.022675285 0.91899335 -0.35307363 0.17547116 0
-0.035026379 0.015033484 0.020150902 -0.93878782 0.28705952 0.19045836 0
-0.033701546 0.017385358 0.022454994 -0.91522855 0.30360016 0.26492196 0
0.0046414686 0.015997406 0.02278742 0.90321082 -0.39077759 0.17749093 0
0.0058348328 0.018405749 0.022336965 0.89131981 -0.42714828 0.15196443 0
-0.031843409 0.022460846 0.022663428 -0.89997458 0.33824524 0.27501982 0
0.0078254128 0.02245485 0.022566585 0.87175184 -0.45466974 0.18254882 0
-0.030541856 0.026657613 0.021551341 -0.90432984 0.36007413 0.22920342 0
-0.029340453 0.028370384 0.023225369 -0.8837443 0.36129814 0.29742163 0
0.0095299575 0.02581102 0.02283624 0.85514843 -0.47600952 0.20527072 0
0.010977607 0.028188866 0.022531681 0.84622532 -0.49312538 0.20181663 0
-0.027769841 0.032433122 0.022600256 -0.87525326 0.39949313 0.27264807 0
0.013372281 0.032197114 0.022549953 0.8312996 -0.50747162 0.22674547 0
0.015208984 0.034604453 0.021387104 0.82281828 -0.54435426 0.1632437 0
-0.025831101 0.036806937 0.022228917 -0.87000358 0.41651109 0.26384145 0
-0.024460051 0.038756967 0.023520041 -0.84927392 0.42568666 0.31228951 0
0.01475725 0.035440672 0.024521649 0.78692991 -0.49810177 0.36419213 0
0.017001161 0.037738387 0.022443498 0.79745895 -0.54628915 0.25617811 0
-0.022645228 0.042729221 0.022579048 -0.83940864 0.46799511 0.27635804 0
0.019173317 0.041242402 0.023219509 0.77290559 -0.54601139 0.32324699 0
0.021148426 0.043278709 0.0218881 0.77043241 -0.57522571 0.27486232 0
-0.020630587 0.046410892 0.022254448 -0.83224189 0.49201289 0.25553247 0
-0.019162893 0.048580166 0.02256231 -0.79769695 0.53556269 0.27722219 0
0.023529744 0.047105998 0.023036351 0.74368399 -0.55736345 0.36916134 0
0.02568312 0.049034003 0.021622656 0.74252731 -0.58173746 0.33201602 0
-0.016829021 0.052147303 0.022277664 -0.79052633 0.55906308 0.25003323 0
-0.014494485 0.054519515 0.024115004 -0.76530033 0.57149023 0.29616594 0
0.024987418 0.050069302 0.024510408 0.71499699 -0.50686926 0.48152143 0
0.02786345 0.052390516 0.022462407 0.72770917 -0.55853337 0.39809525 0
0.030365208 0.054395713 0.020756867 0.72526783 -0.59597772 0.34466967 0
-0.015153008 0.055154003 0.020519614 -0.78395879 0.58984745 0.19362006 0
-0.012551791 0.057546329 0.02262469 -0.74843198 0.62047184 0.23423131 0
-0.009758044 0.059954967 0.024744399 -0.7088713 0.61920297 0.33777085 0
0.029343665 0.055779837 0.024232425 0.68794185 -0.50025922 0.52581054 0
0.032091755 0.057829745 0.02242885 0.70258427 -0.53832889 0.46537873 0
0.035098389 0.059703745 0.020007532 0.73412883 -0.53845716 0.41366512 0
-0.010455207 0.060311519 0.021687055 -0.73840451 0.65076333 0.17682143 0
-0.0077136336 0.062895864 0.022674037 -0.70023817 0.68174821 0.21186283 0
-0.0048419805 0.064978734 0.024910565 -0.63137102 0.69419533 0.34563497 0
0.033770107 0.061449829 0.023752157 0.68211722 -0.45806333 0.56999469 0
0.036283068 0.063091047 0.021811238 0.72627705 -0.46343961 0.50768614 0
-0.0054270863 0.065490872 0.021637997 -0.70406067 0.69231522 0.15810814 0
-0.0026484721 0.067732491 0.022625437 -0.63483381 0.74172711 0.21639539 0
0.0004782475 0.069752373 0.024282996 -0.57381028 0.76405591 0.29489043 0
0.034615029 0.06800916 0.024905937 0.56206417 0.072860636 0.82387823 0
0.037581161 0.067402951 0.022477873 0.69827271 -0.10106102 0.70866209 0
0.040238503 0.069164544 0.020196656 0.71643293 0.02848505 0.69707412 0
-0.00022670328 0.070290983 0.020413298 -0.60832864 0.7831549 0.12885912 0
0.0026658387 0.071895994 0.022290369 -0.54288578 0.80907339 0.2251118 0
0.0063816067 0.074086599 0.022805823 -0.49059746 0.83727401 0.24142547 0
0.034002949 0.072905824 0.024198018 0.54147464 0.25594556 0.80081022 0
0.037275478 0.072243549 0.021866502 0.62841469 0.27208441 0.72874212 0
0.040114827 0.070279285 0.02010609 0.65683252 0.26257706 0.70684117 0
0.0086705973 0.07558585 0.022040643 -0.45842195 0.86083186 0.22094743 0
0.012523064 0.077311009 0.022379246 -0.37620884 0.89797771 0.22826076 0
0.017651591 0.079080284 0.022578256 -0.27141497 0.92401838 0.2693027 0
0.022012044 0.079542831 0.024225514 -0.14153844 0.91301453 0.38258517 0
0.02784181 0.079221152 0.024240158 0.24600799 0.72065884 0.648175 0
0.03264958 0.077692531 0.022877447 0.46952027 0.5107705 0.72018343 0
0.036081646 0.076875031 0.020845564 0.61683911 0.38544512 0.68625188 0
0.019487763 0.080140471 0.020572092 -0.24190623 0.95558953 0.16831541 0
0.022605302 0.080454782 0.021709854 -0.14044614 0.95950317 0.24418938 0
0.027317049 0.080558345 0.022053419 0.083297387 0.94300234 0.32219276 0
0.031431094 0.080379374 0.020787627 0.22751266 0.91239852 0.34024546 0
-0.021978103 -0.081166103 0.025549782 -0.19715932 -0.31477702 0.9284631 0
-0.017631616 -0.081599638 0.025546109 0.17693236 -0.30433041 0.93599045 0
-0.030381601 -0.075439721 0.025097182 -0.42374387 -0.35924983 0.83149308 0
-0.026903197 -0.077166617 0.025765371 -0.2938692 -0.36638921 0.88283622 0
-0.022502407 -0.077328362 0.026772657 -0.16146094 -0.33618003 0.92785418 0
-0.017542422 -0.077466249 0.026708338 0.23608793 -0.28692019 0.92840689 0
-0.014045207 -0.076933585 0.025404654 0.50141984 -0.21576327 0.83786887 0
-0.031433657 -0.07207223 0.025917228 -0.46654633 -0.33952472 0.81673592 0
-0.027623443 -0.072666347 0.027196364 -0.27728653 -0.30376375 0.91150415 0
-0.022705279 -0.072490796 0.028291235 -0.13123506 -0.26226917 0.95602942 0
-0.017367166 -0.072366342 0.028189436 0.29032388 -0.22899571 0.92912483 0
-0.013338574 -0.072142422 0.026144238 0.54723775 -0.17212421 0.81908739 0
-0.035292305 -0.066182621 0.025280263 -0.74609798 -0.294442 0.59719485 0
-0.032488037 -0.067547292 0.026866134 -0.48628965 -0.26995605 0.83105129 0
-0.02768717 -0.067546837 0.028647667 -0.22827932 -0.22287585 0.94774199 0
-0.022835866 -0.067640387 0.029461535 -0.10552177 -0.20696536 0.97264105 0
-0.017349496 -0.06755463 0.02916095 0.32836762 -0.15813857 0.93121791 0
-0.01287837 -0.067177571 0.026638981 0.58411181 -0.1133072 0.8037256 0
-0.036036663 -0.062277496 0.025966644 -0.7489242 -0.23528874 0.61947703 0
-0.032558523 -0.062481459 0.028156973 -0.38662165 -0.19154431 0.9021278 0
-0.027961595 -0.062922806 0.029503956 -0.21209098 -0.16115238 0.96387106 0
-0.024097966 -0.064787298 0.029893078 -0.13206482 -0.17813022 0.97510439 0
-0.016103964 -0.063078918 0.029310396 0.4988772 -0.10999362 0.85966438 0
-0.012338161 -0.062517025 0.026757952 0.61653149 -0.077560283 0.78350073 0
-0.036721267 -0.057320502 0.026824132 -0.72839606 -0.21707004 0.64986145 0
-0.03293889 -0.057726994 0.029119687 -0.32794845 -0.21908827 0.91893965 0
-0.029265553 -0.059181809 0.029862959 -0.21852133 -0.18529297 0.95807874 0
-0.015581127 -0.05761382 0.029635161 0.53882086 -0.092267036 0.83735228 0
-0.012329212 -0.057399672 0.027229557 0.63556629 -0.071548805 0.76872379 0
-0.0098329857 -0.056578249 0.025065979 0.74055207 -0.048080705 0.6702767 0
-0.037292451 -0.0522874 0.027475527 -0.73744649 -0.16094753 0.65594858 0
-0.034245454 -0.052982293 0.029628998 -0.39216918 -0.15672192 0.90644449 0
-0.015268053 -0.053686883 0.029876659 0.54832649 -0.091773242 0.83121347 0
-0.012359922 -0.052492153 0.02775405 0.64467168 -0.086009689 0.75960565 0
-0.0097127464 -0.052096207 0.025309024 0.76785731 -0.05940951 0.63786018 0
-0.040028803 -0.045519777 0.025119927 -0.89556015 -0.1252379 0.42695144 0
-0.038133912 -0.047450989 0.027624542 -0.77146578 -0.14451125 0.61964273 0
-0.034728404 -0.049883854 0.029955616 -0.42715535 -0.16722788 0.88857931 0
-0.012308647 -0.047637552 0.028268259 0.65051758 -0.083750628 0.75485939 0
-0.0094699701 -0.047228675 0.02547707 0.78658962 -0.055885393 0.61494201 0
-0.040206794 -0.042198062 0.025581012 -0.89520741 -0.092139438 0.43602058 0
-0.03868562 -0.042653933 0.027982125 -0.79633731 -0.09683463 0.59705102 0
-0.011730716 -0.042622324 0.028335698 0.68200541 -0.085290946 0.7263568 0
-0.0094330916 -0.042747498 0.025879381 0.79631978 -0.065965019 0.60126811 0
