# .PCD v0.7 - Point Cloud Data file format
VERSION 0.7
FIELDS x y z normal_x normal_y normal_z curvature
SIZE 4 4 4 4 4 4 4
TYPE F F F F F F F
COUNT 1 1 1 1 1 1 1
WIDTH 389
HEIGHT 1
VIEWPOINT 0 0 0 1 0 0 0
POINTS 389
DATA ascii
-0.0051361239 0.0093065901 -9.2164759e-05 -0.19988514 -0.072566912 -0.97712839 0
-0.0035476713 0.0092150811 -8.2519182e-05 0.051478487 -0.053885307 -0.99721932 0
-0.0051893317 0.010638639 -5.2132895e-05 -0.17515488 0.14205351 -0.97423893 0
-0.0020240599 0.012128958 -8.1370395e-05 -0.025848059 0.017863469 -0.99950624 0
0.00083803653 0.012498988 -7.4563686e-05 0.06793572 -0.0085773906 -0.99765277 0
-0.0023483981 0.016728727 -3.4500485e-05 -0.0049787923 -0.010747759 -0.99992979 0
0.0015610368 0.016383942 -6.7170156e-05 -0.029753976 0.027499547 -0.99917883 0
-0.00085958856 0.021339068 -0.00011751284 -0.0017464746 0.02439709 -0.99970078 0
0.00011057761 0.021546995 -3.2291326e-05 0.29131943 0.013770762 -0.9565267 0
-0.015259707 -0.00031011263 0.0049021579 -0.33208019 -0.6277982 -0.70398295 0
-0.012140824 -0.00059766183 0.0045098304 -0.071954988 -0.68967116 -0.72053885 0
-0.0075735962 -0.00074905722 0.0041654622 -0.083881713 -0.74732316 -0.65914476 0
-0.0027951614 -0.00080201583 0.0040606214 0.092020892 -0.72076803 -0.68704122 0
0.00075606978 -0.00027875224 0.0047720931 0.30243081 -0.49245799 -0.8161009 0
-0.016004574 0.0026456816 0.0043534399 -0.47386107 -0.16259308 -0.86545891 0
-0.012479021 0.0023725298 0.0030886545 -0.27416041 -0.30634081 -0.91158724 0
-0.0076133031 0.0022226393 0.0019019977 -0.16075008 -0.48304242 -0.86071444 0
-0.0024824156 0.0023795182 0.0015997466 0.09134151 -0.44648036 -0.89011914 0
0.0023599993 0.0024390342 0.0030026513 0.31961909 -0.56693208 -0.75923103 0
0.0067978036 0.0037535222 0.0040331641 0.37801433 -0.53750652 -0.75378501 0
-0.015975945 0.0073104724 0.0042941645 -0.54645127 0.10380881 -0.83103228 0
-0.012481665 0.0074390215 0.0023907307 -0.42207086 0.040206242 -0.90567088 0
-0.007708461 0.0073307059 0.00067914109 -0.24459708 -0.031093787 -0.96912611 0
-0.0023456602 0.0072166328 0.00032671311 0.091919191 -0.11789209 -0.98876303 0
0.0023031689 0.0075102136 0.00073626317 0.12272026 -0.22566263 -0.96644503 0
0.0074498681 0.0075805923 0.0023781217 0.38168699 -0.32897231 -0.86376637 0
0.011393233 0.0079906164 0.0042042257 0.488094 -0.32790151 -0.80885404 0
-0.015430972 0.012414915 0.0046844026 -0.57249647 0.11877737 -0.81125814 0
-0.012368578 0.012368146 0.0031490205 -0.45882666 0.1533432 -0.87519366 0
-0.0075825974 0.012649617 0.00087513617 -0.31662759 0.086836107 -0.94456679 0
-0.0028207013 0.012741928 0.00016345079 -0.027309148 0.044670127 -0.99862844 0
0.0028950404 0.012514812 0.00033144976 0.059425231 0.021428254 -0.99800277 0
0.0074636256 0.012418125 0.0012984973 0.34281486 -0.093454547 -0.93474287 0
0.01229761 0.01260515 0.0034224817 0.50922447 -0.16102876 -0.8454349 0
0.015176026 0.013113182 0.004959106 0.43322116 -0.081364661 -0.89760751 0
-0.015179074 0.017594261 0.0048800525 -0.47685182 0.044704814 -0.87784612 0
-0.012559334 0.017411405 0.0036532963 -0.44986618 0.015604355 -0.89295971 0
-0.0075689526 0.017440565 0.001187239 -0.37300247 0.038852204 -0.92701656 0
-0.0025647497 0.017497648 0.00018373076 -0.00077493762 -0.024230767 -0.99970609 0
0.0028154973 0.017753467 0.00034539637 0.11294558 0.044335667 -0.99261153 0
0.007574595 0.017504718 0.0011483334 0.21343148 0.073488034 -0.97419018 0
0.012480266 0.017428854 0.0032220676 0.56943947 0.099277765 -0.81601632 0
0.015102922 0.015833795 0.0048861909 0.67826444 0.058513969 -0.7324844 0
-0.015186775 0.020224912 0.0049300585 -0.58904696 0.2081154 -0.7808404 0
-0.01217469 0.022338523 0.0037775256 -0.4445093 0.2085612 -0.87115651 0
-0.0075342427 0.022428067 0.0018927456 -0.33881527 0.24389985 -0.9086898 0
-0.0028887775 0.022832884 0.00055701216 -0.21490018 0.21803923 -0.95198578 0
0.0026945181 0.02260307 0.00059311441 0.19321834 0.094192572 -0.97662407 0
0.0074940701 0.022525899 0.0017401278 0.2666392 0.17218257 -0.94829148 0
0.011622501 0.022215571 0.0036811854 0.59937465 0.25137883 -0.75997281 0
-0.011006115 0.025750883 0.0045988117 -0.43800855 0.39945164 -0.80534899 0
-0.0072480449 0.026740523 0.0037305793 -0.27403754 0.54038805 -0.79554021 0
-0.002397547 0.027406989 0.0025971569 -0.24243008 0.54173207 -0.80483162 0
0.0023727068 0.027523302 0.0017992061 0.018638277 0.42246044 -0.90618968 0
0.007214318 0.027240744 0.0032547845 0.53209144 0.42444465 -0.73261541 0
0.0106684 0.025588343 0.0046578152 0.49743563 0.57720679 -0.64760333 0
-0.001386592 0.030748194 0.0043861992 -0.29358378 0.51476264 -0.8054986 0
0.0026351302 0.030878177 0.0040386384 0.070074826 0.74499094 -0.66338378 0
0.0059609185 0.030555554 0.0044971411 0.37520328 0.70407057 -0.60291547 0
-0.016840437 -0.00518629 0.0096795959 -0.095403075 -0.76963192 -0.63132 0
-0.014461708 -0.0051372806 0.0097052809 0.19123477 -0.90390885 -0.38259375 0
-0.020849086 -0.0017695536 0.0090801874 -0.65552735 -0.26728985 -0.70628595 0
-0.017458363 -0.0025454566 0.0074109486 -0.31230831 -0.5545705 -0.77130735 0
-0.012472415 -0.0031250166 0.0073188525 0.020433526 -0.8008092 -0.59857094 0
-0.0075552808 -0.0028762852 0.007367298 0.016714141 -0.87233102 -0.48863 0
-0.0025479509 -0.0029367022 0.0073661432 0.082352877 -0.89228457 -0.44389892 0
0.0025082177 -0.001721761 0.0075948033 0.33969587 -0.79746574 -0.49865326 0
0.0065370686 -0.00064334407 0.0088826045 0.38664454 -0.81759351 -0.42666948 0
-0.021023015 0.0025428783 0.0086091626 -0.8138864 0.014506886 -0.58084285 0
-0.018554403 0.002592409 0.0060751238 -0.61940819 -0.080847681 -0.78089511 0
0.0044731023 0.00032976951 0.0057878392 0.47531775 -0.80982369 -0.34388748 0
0.0079805795 0.0016186956 0.0068613398 0.39672345 -0.68656087 -0.60929865 0
0.011952657 0.003391467 0.0080761919 0.5530501 -0.61401427 -0.56313598 0
0.015099321 0.0045574987 0.0098666754 0.6921283 -0.57980055 -0.42987174 0
-0.020700216 0.0071430164 0.0089191794 -0.81740183 0.14028049 -0.55872667 0
-0.01847226 0.0075676045 0.0064611658 -0.71377271 0.1499549 -0.68413609 0
0.013559519 0.0067459759 0.0065312395 0.58749825 -0.48692754 -0.64633387 0
0.016299795 0.008110431 0.0083414325 0.70299536 -0.46081933 -0.54170394 0
-0.020366115 0.011952335 0.0094049042 -0.86370218 0.11550775 -0.49058786 0
-0.0180698 0.01249233 0.0069174506 -0.69242001 0.083898529 -0.71659994 0
0.014473582 0.010799875 0.0053871535 0.61230528 -0.33246586 -0.71732056 0
0.017355584 0.012571182 0.0074519394 0.80506897 -0.17429376 -0.56699705 0
-0.020247614 0.015932927 0.0095973695 -0.84968328 0.1741762 -0.49769574 0
-0.017771997 0.017576594 0.0070986757 -0.72202885 0.055818904 -0.6896075 0
0.014632402 0.018677605 0.0053146612 0.72873455 0.16464336 -0.66470933 0
0.017403049 0.017569188 0.007690161 0.67066222 0.23891652 -0.7022329 0
-0.017135527 0.022318812 0.0077139293 -0.6965673 0.31337669 -0.64543706 0
-0.014420965 0.023482071 0.005489883 -0.61053079 0.32260886 -0.72330886 0
0.013979945 0.022685608 0.0058175884 0.66640627 0.10485446 -0.73817909 0
0.016503446 0.022442596 0.0085305581 0.7496382 0.031014027 -0.66112083 0
-0.016001292 0.025989696 0.0088763032 -0.57693452 0.64936703 -0.49544826 0
-0.012576609 0.02737746 0.0074508572 -0.49655107 0.68295926 -0.53572726 0
-0.0082451794 0.029034607 0.0060078423 -0.39126527 0.62277448 -0.67754227 0
-0.0047005042 0.029956263 0.005082286 -0.3768886 0.46360224 -0.80189025 0
0.0089689204 0.028714666 0.0058911131 0.56573367 0.36304906 -0.74036527 0
0.012618133 0.027491586 0.0070900046 0.36769632 0.50985163 -0.77772141 0
0.015979137 0.026613472 0.0085222507 0.73493576 0.38101435 -0.56097895 0
-0.010573854 0.030673498 0.009388431 -0.54009944 0.62198287 -0.56694782 0
-0.0071761808 0.031584051 0.0080195349 -0.35625535 0.71789777 -0.59808433 0
-0.002624132 0.032687776 0.007248187 -0.18010373 0.81869161 -0.54525834 0
0.0023065661 0.032967247 0.0074360212 0.066348121 0.88824677 -0.45454982 0
0.0074360282 0.032794636 0.0074094273 0.18153465 0.7292881 -0.65968472 0
0.011552907 0.031490251 0.008688841 0.5824334 0.50540423 -0.63666159 0
-0.020753991 -0.0056638685 0.013284087 -0.49249777 -0.85045069 -0.18487741 0
-0.017473344 -0.0062521868 0.012337771 -0.078346714 -0.96083742 -0.26580667 0
-0.012694228 -0.0058019483 0.012785385 0.22436745 -0.94903624 -0.22133556 0
-0.0085441004 -0.0052406047 0.013982266 0.13670939 -0.97959417 -0.1473287 0
-0.0035016248 -0.0050073005 0.014394679 -0.13184322 -0.94334275 -0.30450255 0
-0.022392463 -0.0025353471 0.012451043 -0.91432405 -0.28320858 -0.28948969 0
-0.019646516 -0.0047429316 0.010139745 -0.14759783 -0.46676406 -0.87197834 0
-0.010920518 -0.0046711913 0.01074262 0.2525669 -0.8875882 -0.38522357 0
-0.0070632002 -0.0045926776 0.011939108 0.064243674 -0.97005057 -0.23425326 0
-0.0024605715 -0.0044426387 0.012373373 0.079788759 -0.98672676 -0.14143589 0
0.0024302795 -0.0034498493 0.012567192 0.31150368 -0.94178039 -0.12655103 0
0.0073926388 -0.0014402639 0.01255137 0.43237576 -0.87814277 -0.20473513 0
0.010342686 -0.00019399945 0.013845067 0.50560844 -0.85864985 -0.084145382 0
-0.022715429 0.0025098945 0.012365255 -0.95328081 0.11538831 -0.27917933 0
0.009730028 0.00020060931 0.010647428 0.60002816 -0.75423563 -0.26663598 0
0.012672096 0.0016682055 0.012321302 0.5794428 -0.78440607 -0.22125377 0
0.015937174 0.0041006035 0.012832701 0.68857849 -0.67743021 -0.25874329 0
-0.021989735 0.007415799 0.012522736 -0.95902383 0.11934242 -0.25696412 0
0.017722899 0.0074031726 0.012400538 0.8766588 -0.42086747 -0.2331091 0
-0.021547357 0.012454355 0.012457646 -0.94217408 0.067117825 -0.32833403 0
0.019199941 0.012446175 0.012397828 0.96090353 -0.17456335 -0.21492328 0
0.020041052 0.014467485 0.014822858 0.99411422 -0.052058663 -0.09500996 0
-0.021068553 0.017415898 0.012591514 -0.94571632 0.13992682 -0.29332793 0
-0.019882787 0.018662326 0.010161362 -0.86379188 0.045374542 -0.50180155 0
0.019832494 0.017087711 0.010936912 0.92356664 -0.22254731 -0.31224579 0
0.020661635 0.017550079 0.012721126 0.96190327 -0.11697645 -0.24710023 0
-0.020524958 0.021950083 0.013112514 -0.93934727 0.22974034 -0.25464889 0
-0.019315409 0.0235758 0.011435617 -0.827398 0.39423323 -0.39999095 0
0.019001611 0.023092037 0.011386115 0.78292143 0.2442725 -0.57215816 0
0.020471262 0.022066334 0.013711505 0.92447579 0.21009396 -0.31812742 0
-0.017009446 0.027079172 0.012664148 -0.65511918 0.6989677 -0.2868152 0
-0.013927183 0.0292536 0.011565724 -0.54033631 0.73292291 -0.413353 0
0.017984381 0.027714692 0.012265082 0.77982801 0.37458286 -0.5015536 0
0.020088119 0.025953611 0.014726604 0.9180156 0.14466326 -0.3692151 0
-0.011828567 0.031676918 0.012835958 -0.61715198 0.71617299 -0.32591388 0
-0.0080108652 0.033832472 0.011909971 -0.42145148 0.7821129 -0.4589968 0
-0.002283985 0.034581855 0.010916661 -0.024402034 0.90759814 -0.41913018 0
0.0029625739 0.034509584 0.01137858 0.089011908 0.93150175 -0.35267726 0
0.0071205082 0.03461048 0.011563295 -0.068457395 0.9653306 -0.25189364 0
0.012468491 0.033271682 0.012282574 0.4588812 0.79280436 -0.40110999 0
0.01628097 0.031236369 0.013351317 0.62171549 0.64045268 -0.4508771 0
-0.0064424174 0.035408221 0.013806206 -0.12774602 0.95907122 -0.25271195 0
-0.0024345815 0.035946392 0.013458933 -0.11712496 0.88398618 -0.45260382 0
0.0021912358 0.036057584 0.013775414 0.17378412 0.73961478 -0.65020686 0
0.0076065343 0.035298638 0.013217138 0.038352724 0.96475977 -0.2603223 0
0.010437943 0.035088673 0.014653267 0.30931911 0.92058617 -0.23841742 0
-0.020892454 -0.0056243222 0.016909385 -0.53263146 -0.82085842 0.20614368 0
-0.017601235 -0.0062853112 0.017507898 -0.083650209 -0.97639424 0.19914052 0
-0.01250426 -0.0059864852 0.01749794 0.13575619 -0.98687607 0.087440461 0
-0.0074648205 -0.0053048115 0.017458526 0.11815329 -0.99298769 -0.0039119059 0
-0.0042987284 -0.0050585214 0.017881544 0.090894446 -0.99583739 0.0067933197 0
-0.022514051 -0.0024847866 0.017586395 -0.92723286 -0.30510381 0.21714258 0
-0.0020568669 -0.004695884 0.017212583 0.16832748 -0.9854877 0.021904835 0
0.0024455953 -0.0038518796 0.0174089 0.22294441 -0.97483069 0.0009346382 0
0.0074146995 -0.0021546041 0.017539142 0.41688222 -0.9080416 -0.040860835 0
0.010667196 -0.00050973851 0.017742146 0.51228958 -0.85589975 -0.070675254 0
-0.023195146 0.0023760877 0.017499804 -0.99799711 0.017055502 0.060917076 0
0.013289439 0.0012347966 0.017320788 0.57894373 -0.81292391 -0.063077897 0
0.016310256 0.0036727141 0.017658437 0.71424264 -0.69912106 -0.032974336 0
-0.022747338 0.0073623159 0.017502891 -0.99428004 0.10039451 -0.036443215 0
0.018629748 0.0074994899 0.01738346 0.92386234 -0.38171118 -0.027837148 0
-0.022563901 0.012593639 0.017564988 -0.99828506 0.024199924 -0.053304221 0
0.019698067 0.012128233 0.017068202 0.98399794 -0.15593445 -0.086212546 0
0.020298693 0.0132758 0.018455178 0.93862438 -0.16534761 -0.302728 0
-0.022239963 0.017481292 0.017464388 -0.97551435 0.081975386 -0.20408775 0
0.019988311 0.015111434 0.017454803 0.9486416 -0.26493743 -0.17287976 0
0.021031998 0.0175512 0.017357199 0.96588963 -0.25336006 -0.05353453 0
-0.021303879 0.022642497 0.017494563 -0.92265654 0.35631156 -0.14746898 0
-0.019966099 0.024918541 0.01512809 -0.71018118 0.62802416 -0.31816402 0
0.021196052 0.022594333 0.017597109 0.98977536 0.12061097 -0.076143369 0
-0.020187909 0.02526168 0.019088963 -0.85371596 0.51427227 -0.081810474 0
-0.017851356 0.027660737 0.017325461 -0.72512567 0.67232633 -0.14889599 0
-0.014923759 0.029942635 0.015091015 -0.49439895 0.81790453 -0.29428199 0
0.019588931 0.029093303 0.016763248 0.84565538 0.46826133 -0.25612146 0
0.020526817 0.026995892 0.017780581 0.96314222 0.24390036 -0.11344483 0
-0.015433365 0.03042879 0.018478459 -0.56172383 0.77853674 -0.27990499 0
-0.012507995 0.032703422 0.017503919 -0.65546936 0.71826768 -0.23334841 0
-0.0095847873 0.034658171 0.015571806 -0.52855343 0.79097635 -0.30820072 0
0.013758779 0.034448557 0.016747963 0.40979189 0.87724334 -0.25002953 0
0.017388927 0.032045159 0.017588412 0.68548995 0.70322537 -0.18862008 0
-0.010217416 0.035079818 0.018959336 -0.48285285 0.86524469 -0.13492472 0
-0.0074224407 0.035938162 0.017541362 -0.3042123 0.94119543 -0.14699043 0
-0.0025091367 0.036783639 0.01756854 -0.12573698 0.99204373 -0.0062836069 0
0.0023680546 0.037684985 0.017542051 0.046735901 0.99770439 -0.049006779 0
0.0074923481 0.036442969 0.017487695 0.23259135 0.94936013 -0.21122654 0
0.0116702 0.035544772 0.017980283 0.2753239 0.93637186 -0.21772578 0
-0.016838167 -0.0053556813 0.020950161 -0.12969589 -0.92659253 0.35299468 0
-0.012544322 -0.0053302064 0.021754894 -0.027141841 -0.97957653 0.19923164 0
-0.0077807233 -0.0052541522 0.02169382 0.082451254 -0.99377936 0.074862115 0
-0.0047755348 -0.0050500249 0.021069134 0.20114398 -0.97910786 -0.029814623 0
-0.021274336 -0.0020621587 0.022058859 -0.7553038 -0.53907192 0.37271667 0
-0.017841348 -0.0039547058 0.023283433 -0.34212783 -0.82512987 0.44956565 0
-0.012980984 -0.0046714591 0.024066314 -0.14021648 -0.94047219 0.30959883 0
-0.0072964998 -0.0047564735 0.024159444 0.079397753 -0.96789223 0.23849662 0
-0.0023091401 -0.0044533 0.022534631 0.15924007 -0.97767317 0.13710506 0
0.0024564168 -0.0034942108 0.022462247 0.22907832 -0.9687236 0.095381491 0
0.0074945935 -0.0019162709 0.022461312 0.38223505 -0.91844326 0.10177553 0
0.010711481 -0.00037150824 0.022362452 0.46677807 -0.88118792 0.075007237 0
-0.022638479 0.0023237239 0.022601541 -0.97929734 -0.11711344 0.16510971 0
0.013232446 0.0013017463 0.022573173 0.59825438 -0.79453635 0.10394076 0
0.015968272 0.0037057202 0.022299832 0.75032049 -0.62991488 0.2005651 0
-0.022642734 0.007502337 0.022561574 -0.99657041 0.082371213 0.0079014301 0
0.017861247 0.0074404823 0.022518745 0.88593042 -0.39072716 0.24991913 0
-0.022319689 0.012524819 0.022357548 -0.99621153 0.042097494 0.076094873 0
0.019259959 0.011636863 0.023372572 0.81573772 -0.3885507 0.4284862 0
0.02065712 0.013274584 0.021999227 0.91705728 -0.32326937 0.23345831 0
-0.02210821 0.01748581 0.022586832 -0.96525073 0.047955289 0.25688791 0
0.020980176 0.017395308 0.022525603 0.96593493 0.0010734561 0.25878268 0
-0.021192271 0.022389468 0.022501038 -0.91390592 0.33937049 0.22271885 0
-0.019873401 0.024772607 0.024493275 -0.84197807 0.47619867 0.25358978 0
0.020845814 0.022442447 0.022419183 0.98379272 0.047121938 0.17300706 0
-0.020189 0.025194447 0.021399457 -0.83838737 0.53528106 0.10286334 0
-0.018094953 0.027652727 0.02264316 -0.77155268 0.62404251 0.1236021 0
0.018997451 0.028723037 0.023383563 0.72817069 0.48744938 0.48183036 0
0.020506857 0.02660336 0.021999026 0.9606269 0.22308324 0.16561964 0
-0.01554134 0.030657997 0.022388471 -0.76757789 0.62985265 0.11878441 0
-0.013078389 0.033295155 0.022559419 -0.6868633 0.72670639 -0.010802229 0
0.014192011 0.034219913 0.023430485 0.6087597 0.65570265 0.44661576 0
0.016902439 0.03211119 0.022369204 0.69881696 0.63864052 0.32216942 0
-0.01061118 0.035279464 0.022580847 -0.37748972 0.92492914 -0.044805963 0
-0.0075545544 0.036466878 0.022404579 -0.30067095 0.94580585 -0.12267131 0
-0.0024677927 0.03734307 0.022689842 -0.04132979 0.95305097 -0.29997602 0
0.0023382155 0.037410047 0.022431944 -0.010646468 0.99990243 -0.0090452842 0
0.0074167247 0.03676375 0.02248838 0.17776343 0.98071986 0.081171095 0
0.012032221 0.035817347 0.022433015 0.32462439 0.93904853 0.113168 0
-0.020544872 -0.00048760162 0.025609035 -0.56428987 -0.64629978 0.5136863 0
-0.017220179 -0.0017733775 0.027302375 -0.5023042 -0.69116956 0.51959127 0
-0.012555415 -0.003632514 0.02766696 -0.20402752 -0.9270646 0.31452155 0
-0.0075485208 -0.0040797307 0.027486168 0.0050355862 -0.97226065 0.23384573 0
-0.0025353429 -0.0037457857 0.027576264 0.099886946 -0.98664021 0.12870021 0
0.0025251196 -0.0028770699 0.027501451 0.24542861 -0.95658201 0.15721174 0
0.0075408528 -0.0012611538 0.027408749 0.36422154 -0.92189372 0.13211559 0
0.010276075 -0.00014630795 0.027087793 0.38002944 -0.92369694 0.04859671 0
-0.021271201 0.0027732628 0.027009517 -0.81443542 -0.31370923 0.48814088 0
-0.018882731 0.0012550792 0.028958706 -0.60728264 -0.5235129 0.59761363 0
0.012952894 0.0018441908 0.027712993 0.65507346 -0.74032694 0.15097907 0
0.015495625 0.0042902967 0.026587823 0.83958 -0.51845288 0.16220969 0
-0.022163836 0.0075140726 0.027575945 -0.95476449 -0.13340209 0.26576057 0
0.016591368 0.007338807 0.027617825 0.91307092 -0.3751958 0.15978022 0
-0.022172533 0.012493221 0.027645769 -0.98451954 0.13545549 0.11123468 0
0.018500654 0.012490601 0.027418353 0.95406079 -0.29492378 0.052801177 0
-0.021051418 0.017367272 0.027434038 -0.94592404 0.30171517 0.11914602 0
-0.019875515 0.019701948 0.028993133 -0.90130794 0.41821858 0.11285882 0
0.019364936 0.017457306 0.028029205 0.94968265 -0.060781211 0.30725971 0
0.020159386 0.018088363 0.025589051 0.95737135 -0.055803027 0.28341854 0
-0.020379124 0.021665676 0.025789523 -0.88472527 0.23224521 0.40413287 0
-0.018871518 0.022929385 0.027935794 -0.83453029 0.34371641 0.43060207 0
0.019411478 0.022530025 0.028261779 0.93046814 0.041422006 0.36402389 0
0.020181445 0.022434305 0.025775654 0.9739849 0.020253563 0.22570598 0
-0.016845718 0.027189469 0.02723106 -0.7541393 0.55246371 0.35504609 0
-0.014576728 0.029261857 0.029060019 -0.78595054 0.5074324 0.35326201 0
0.014560006 0.029381478 0.029802272 0.50304872 0.23939526 0.83044088 0
0.017706359 0.027434202 0.027538801 0.81919634 0.43621185 0.37233943 0
0.020076178 0.025491789 0.025161244 0.92955738 0.26912096 0.25198591 0
-0.015126804 0.030437168 0.025494874 -0.84703845 0.42976087 0.3127805 0
-0.012601899 0.03237183 0.027565053 -0.65191585 0.67043245 0.35429633 0
-0.0081361486 0.034398623 0.028987208 -0.34394377 0.78972811 0.5079686 0
-0.0042947601 0.034875806 0.029816318 -0.14661743 0.78866386 0.59708685 0
0.0091234315 0.034746677 0.029530538 0.26119474 0.87169278 0.4146432 0
0.012699327 0.033123121 0.027744088 0.53930086 0.7579062 0.36705965 0
0.01614742 0.031253017 0.027125383 0.74485415 0.62098968 0.24405783 0
-0.010636158 0.035285525 0.025767166 -0.44144988 0.86060351 0.25393611 0
-0.0072408207 0.036392134 0.026880797 -0.4109095 0.81560749 0.40735465 0
-0.0025469104 0.037274379 0.027679691 -0.071957029 0.8673771 0.49242172 0
0.0025577859 0.036895484 0.027586838 0.19998524 0.94180495 0.27020258 0
0.0074307425 0.035867084 0.027459931 0.22038139 0.94057786 0.25835094 0
0.010956037 0.035373122 0.025930339 0.35192257 0.87492424 0.33265314 0
-0.01551802 -0.00036456244 0.030736959 -0.69323069 -0.54620439 0.4702042 0
-0.012201391 -0.0015690721 0.03209753 -0.35008538 -0.75867003 0.54941791 0
-0.0075629423 -0.0023557998 0.03263019 -0.094586961 -0.88986552 0.44630998 0
-0.0026317362 -0.002586046 0.032576315 0.040150754 -0.92946035 0.36673078 0
0.00269079 -0.0017436537 0.032449193 0.22179884 -0.93154734 0.28814027 0
0.0066443537 -0.00068880228 0.032011572 0.33096832 -0.90973896 0.250669 0
-0.020092167 0.0047966479 0.030067276 -0.51545292 -0.38572842 0.765194 0
-0.017032573 0.0027227669 0.032034904 -0.61969256 -0.51930654 0.58847415 0
-0.013667446 0.0011701471 0.033774909 -0.54399151 -0.55833966 0.62636256 0
0.0086975638 0.00085003936 0.033419341 0.48309249 -0.77048814 0.41589618 0
0.012276426 0.0029611704 0.032343086 0.63907212 -0.68727124 0.34531873 0
0.015021726 0.0049775285 0.030074257 0.85261118 -0.47658685 0.21428779 0
-0.020699155 0.0078881476 0.031072563 -0.78614289 -0.26550713 0.55810881 0
-0.018921677 0.0070836144 0.033288181 -0.78215581 -0.37883535 0.49468794 0
0.014159868 0.0070292004 0.033745252 0.8002215 -0.30070093 0.51886839 0
0.016351469 0.0081474604 0.031763181 0.74044019 -0.56260544 0.36772737 0
-0.020915484 0.012521716 0.031860486 -0.89738405 0.010664326 0.4411214 0
-0.01953638 0.012761919 0.034337118 -0.89019656 -0.02889807 0.45465925 0
0.014666898 0.012159742 0.034733824 0.60646981 -0.10610553 0.78799498 0
0.017190566 0.012614002 0.032761324 0.76480389 -0.031348206 0.64349997 0
-0.020448137 0.016460948 0.03166743 -0.90943986 0.26330981 0.32184961 0
-0.019163029 0.018155262 0.033184662 -0.85388273 0.34666842 0.38820764 0
0.017189268 0.017416753 0.032603923 0.83928287 0.037402805 0.54240698 0
-0.017463675 0.02243679 0.032384362 -0.87074184 0.44775441 0.20328458 0
0.014671416 0.024024118 0.034760498 0.70174009 0.21966809 0.67772174 0
0.016883776 0.022345651 0.03246551 0.79941577 0.10409613 0.5916912 0
-0.015580426 0.026137855 0.032111611 -0.859312 0.45765114 0.22833827 0
-0.013753799 0.028611097 0.032717362 -0.75521719 0.61908603 0.21535906 0
0.013788536 0.028429717 0.033133261 0.70620227 0.520118 0.48037043 0
0.016278179 0.026495785 0.031760234 0.73912251 0.47603446 0.47653872 0
-0.011464519 0.031159215 0.032218121 -0.57988721 0.75418335 0.30812058 0
-0.0075508659 0.032730687 0.032449391 -0.1931906 0.87824887 0.43744281 0
-0.0024539013 0.033646412 0.032320414 -0.1972857 0.92193866 0.33332789 0
0.002385434 0.034177259 0.03306004 -0.0098577961 0.92581564 0.37784669 0
0.0076367324 0.033291906 0.032628272 0.29940933 0.78670084 0.53986645 0
0.011601375 0.031703621 0.032089259 0.53622997 0.68763596 0.48950413 0
-0.0011014603 0.035331462 0.030203488 -0.16161567 0.39273739 0.90533847 0
0.0026373956 0.0355612 0.030618533 -0.0090030516 0.7731657 0.63414013 0
0.0057426249 0.035293199 0.030422218 0.25198841 0.86564428 0.43262196 0
-0.010080278 -0.00031613035 0.035021663 -0.28322107 -0.51898289 0.80650026 0
-0.007202894 -0.00054261729 0.035656847 -0.17835757 -0.70515126 0.6862582 0
-0.0026490767 -0.00075499032 0.03581465 0.048913267 -0.70327902 0.70922923 0
0.0019921723 -0.00049814238 0.035519797 0.10075899 -0.70298994 0.70402616 0
0.0051979236 -7.6942e-05 0.035075322 0.23289819 -0.86186099 0.45050433 0
-0.0154565 0.0043674875 0.035539929 -0.57057381 -0.63333797 0.52280825 0
-0.012053327 0.0029933564 0.036682528 -0.36711794 -0.59177572 0.7176531 0
-0.0075980532 0.0024291819 0.037785888 -0.20002121 -0.55387372 0.80821741 0
-0.0025385101 0.0023494132 0.038300943 0.030990588 -0.59604758 0.80235088 0
0.0024880236 0.0023668555 0.037994545 0.057069279 -0.6386894 0.76734537 0
0.0072608809 0.0027739366 0.037162188 0.32970059 -0.67909873 0.65583724 0
0.010960788 0.0040263655 0.036188159 0.55071366 -0.63510114 0.54162806 0
-0.016636437 0.0077197202 0.036764611 -0.6836254 -0.32695144 0.65250212 0
-0.012916529 0.0071519176 0.038952019 -0.3576569 -0.40598419 0.84098655 0
-0.0083632786 0.0055697127 0.039623629 -0.20099977 -0.4977569 0.84370446 0
-8.9269866e-05 0.0050903405 0.039986692 0.10653122 -0.59448856 0.79701596 0
0.0010631367 0.0051485817 0.039941523 0.018834991 -0.52971798 0.8479647 0
0.0085928869 0.0062183901 0.039352525 0.45451242 -0.48622569 0.74632633 0
0.011927287 0.0076816157 0.037340734 0.72679049 -0.28417665 0.62531519 0
-0.017225308 0.012591149 0.037296783 -0.70973539 -0.051580869 0.70257753 0
-0.014531469 0.012366878 0.039663468 -0.63616294 -0.089698441 0.76632297 0
0.012846842 0.012397124 0.037511893 0.85928971 -0.15894133 0.48616761 0
-0.016904861 0.017440073 0.037205387 -0.76909196 0.15079935 0.62109351 0
-0.014695481 0.018067295 0.039621264 -0.70206308 0.10942923 0.70365667 0
0.0093805352 0.018953132 0.039761975 0.22776967 0.14378858 0.96303982 0
0.013076268 0.017613508 0.037965257 0.71682417 0.079020135 0.69276172 0
0.015250096 0.017955469 0.035334364 0.79981726 -0.009497622 0.60016847 0
-0.016062556 0.022196425 0.036525261 -0.81406176 0.30701947 0.49299338 0
-0.01423159 0.02286738 0.038855202 -0.7934404 0.27689862 0.54201424 0
0.0095369518 0.022930717 0.039621465 0.67217958 0.088662162 0.73506033 0
0.012378134 0.022438707 0.037398603 0.64559758 0.21826227 0.73182333 0
0.015124938 0.020797094 0.03518261 0.79104072 0.11730246 0.60041213 0
-0.015206584 0.025417401 0.035727322 -0.86402601 0.41668373 0.28254834 0
-0.012580722 0.027338069 0.037479963 -0.6220668 0.58738637 0.51769692 0
-0.007878677 0.029025501 0.038969874 -0.20974739 0.70826817 0.67406398 0
-0.0021482583 0.028773542 0.039157987 0.15736765 0.62267995 0.76648885 0
0.0024453835 0.028499037 0.038502306 -0.0030665188 0.71515405 0.69896013 0
0.0077998061 0.028101157 0.038172267 0.40055594 0.60232919 0.69047415 0
0.011780205 0.02689749 0.036217064 0.56230915 0.38114667 0.73384988 0
-0.010789139 0.030334262 0.035407644 -0.33739293 0.83808392 0.42869732 0
-0.0071713552 0.030962056 0.03664298 -0.32290813 0.83871365 0.43850857 0
-0.0024850485 0.03208949 0.037010036 -0.068352044 0.72135198 0.68918735 0
0.0022746283 0.031934001 0.036658905 0.17783649 0.58351696 0.79239017 0
0.0068546385 0.0309682 0.036018658 0.32631123 0.66815168 0.6686511 0
-0.0022030564 0.0047679232 0.040151857 -0.031395789 -0.49252987 0.86972904 0
0.0039658383 0.0049085645 0.040109362 0.019352224 -0.62312454 0.78188318 0
0.0051000579 0.0049725208 0.040021438 0.2765598 -0.72808903 0.62721694 0
-0.011178609 0.0088000074 0.040416729 -0.30821142 -0.28539655 0.90749907 0
-0.007412063 0.0078058378 0.041098807 -0.22869009 -0.43847454 0.86916107 0
-0.0025122534 0.007472374 0.041643936 -0.072612561 -0.50014943 0.86288941 0
0.0025242453 0.0074595502 0.041930363 0.015206013 -0.57148945 0.8204686 0
0.0071285088 0.0079689715 0.041132983 0.42215198 -0.40303943 0.81200182 0
-0.012134163 0.012521063 0.040977426 -0.43352979 -0.14524257 0.88935733 0
-0.0075118886 0.012566217 0.042971607 -0.30813453 -0.30799383 0.90010715 0
-0.0025726242 0.012272488 0.044128958 -0.15494499 -0.36947522 0.91623151 0
0.0024892264 0.012571105 0.044182979 0.19960195 -0.19353984 0.96057355 0
0.0075184442 0.012595325 0.042291429 0.43394357 -0.085987583 0.89682722 0
0.011083891 0.01308516 0.040672824 0.56223714 -0.14552769 0.8140707 0
-0.012199744 0.017515652 0.04151842 -0.56292254 -0.046940539 0.82517564 0
-0.0074814567 0.017415045 0.04391928 -0.35774145 -0.055313505 0.932181 0
-0.0043236394 0.016911862 0.044881482 -0.11704154 0.00417729 0.99311829 0
0.003366892 0.017318795 0.04429815 0.43174583 -0.075010404 0.89887089 0
0.0072590783 0.017429115 0.041721117 0.57269496 0.10518466 0.81299245 0
0.010793585 0.016363388 0.040471725 0.29671925 0.30569252 0.9047153 0
-0.011953461 0.022324586 0.041379936 -0.58825576 0.22099826 0.77789128 0
-0.0075119636 0.022465279 0.043471489 -0.23783216 0.29530424 0.92532766 0
-0.0024830739 0.022685563 0.043865409 0.01634253 0.4334529 0.90102798 0
0.0024741469 0.022803443 0.043909691 0.07381992 0.45338771 0.88825125 0
0.0072499276 0.022476517 0.041778337 0.60643768 0.15983959 0.77889961 0
-0.010759111 0.025843037 0.040710941 -0.43961108 0.55400759 0.70697784 0
-0.0073490883 0.026486993 0.041337896 -0.16765413 0.60571748 0.77781647 0
-0.0025973634 0.026651016 0.041385166 0.096072316 0.66067779 0.74449646 0
0.0025336538 0.026332235 0.041379761 -0.023677211 0.71821767 0.6954155 0
0.0064008362 0.025945053 0.040914387 0.43660286 0.5237143 0.73150617 0
-0.00089797459 0.014472299 0.045102078 0.031329446 -0.25008458 0.96771699 0
2.6183674e-05 0.014301771 0.045017265 0.31655744 0.091011688 0.94419712 0
-0.0021445099 0.01775066 0.045210332 -0.048887398 0.017124932 0.99865746 0
0.0010716865 0.018043496 0.045154501 0.081082754 -0.083425932 0.99320978 0
-0.0027192794 0.020109311 0.045025259 0.0010413677 0.35967448 0.93307728 0
0.0020798063 0.020748826 0.045175668 0.05003551 0.20862418 0.97671509 0
