# .PCD v0.7 - Point Cloud Data file format
VERSION 0.7
FIELDS x y z normal_x normal_y normal_z curvature
SIZE 4 4 4 4 4 4 4
TYPE F F F F F F F
COUNT 1 1 1 1 1 1 1
WIDTH 648
HEIGHT 1
VIEWPOINT 0 0 0 1 0 0 0
POINTS 648
DATA ascii
0.029608821 0.014430237 0.015831603 0.78182101 0.47985414 -0.39811546 0
0.031432196 0.012451649 0.017679613 0.84874302 0.40744683 -0.33707914 0
-0.026366271 0.016767994 0.017997991 -0.7697168 0.53530681 -0.34782544 0
-0.024127634 0.018934598 0.016782243 -0.71112609 0.61240703 -0.34533674 0
0.024901222 0.019765718 0.015254129 0.60963529 0.66966426 -0.42413995 0
0.027900118 0.017751263 0.017483262 0.72381192 0.59487951 -0.34959224 0
0.030392721 0.015612032 0.019459939 0.7880742 0.5259456 -0.31987545 0
-0.021998668 0.021544401 0.017785337 -0.62474483 0.71164316 -0.32133785 0
-0.018270947 0.023970388 0.016915863 -0.50334913 0.78947675 -0.35123527 0
0.018905833 0.024590775 0.016442597 0.42551765 0.80814689 -0.40722635 0
0.022473745 0.022845851 0.017465999 0.54346603 0.75089431 -0.37523639 0
0.025685262 0.020516865 0.018044995 0.64294291 0.68900305 -0.33451349 0
-0.016192183 0.025765641 0.018354943 -0.43158275 0.84040833 -0.32779598 0
-0.012728381 0.026879726 0.017544361 -0.3123807 0.87911779 -0.35995865 0
-0.0074377833 0.028332861 0.017471716 -0.19650717 0.90559077 -0.37588596 0
-0.002527538 0.028908711 0.017305035 -0.049171571 0.90841937 -0.41515842 0
0.002645137 0.028860422 0.01718837 0.043702908 0.89377761 -0.44637614 0
0.0074157328 0.028554529 0.017440701 0.12097859 0.89411163 -0.43119434 0
0.012295067 0.02750973 0.017258737 0.23988174 0.87886941 -0.41236567 0
0.017265761 0.026068382 0.017899271 0.37434793 0.84323901 -0.38576096 0
0.020435125 0.025345655 0.019825805 0.46628627 0.81132013 -0.35261416 0
-0.00086079538 0.030079756 0.019780463 -0.04326275 0.93623936 -0.34868911 0
0.002109579 0.030076047 0.019774199 0.03908952 0.9358561 -0.3502076 0
-0.01552625 -0.035241608 0.023924628 -0.48075336 -0.84557313 -0.23212574 0
-0.012434389 -0.03632411 0.022429008 -0.38778695 -0.88473213 -0.25859287 0
-0.0075280545 -0.038109418 0.022649599 -0.25213265 -0.93544835 -0.24772057 0
-0.0025540509 -0.039060239 0.022518406 -0.12484107 -0.9618299 -0.24351181 0
0.0024877898 -0.039306048 0.022473879 0.039187565 -0.96786046 -0.24841568 0
0.007451931 -0.038666971 0.022417746 0.18775949 -0.9505831 -0.24726123 0
0.012721567 -0.037254557 0.022575267 0.32625401 -0.91583484 -0.23410426 0
0.016716566 -0.035735261 0.022883981 0.40255621 -0.88837773 -0.22075643 0
-0.021020157 -0.030996148 0.022995893 -0.63129312 -0.73250443 -0.25476676 0
-0.017732894 -0.03336712 0.022543008 -0.54705799 -0.79424399 -0.26439404 0
-0.014648775 -0.034705505 0.020625032 -0.46102032 -0.83979446 -0.286715 0
0.019081881 -0.034429606 0.022249168 0.44805822 -0.86274719 -0.23433129 0
0.022552691 -0.032375444 0.022566877 0.54965764 -0.80508095 -0.22298236 0
0.025479835 -0.030369833 0.023113267 0.63301194 -0.74653471 -0.20489444 0
-0.025590489 -0.026095202 0.022846896 -0.75955606 -0.59793752 -0.25601822 0
-0.023472885 -0.028322132 0.022239074 -0.71160567 -0.65282398 -0.25968871 0
0.024872949 -0.029970974 0.020120354 0.60546666 -0.76728112 -0.2113996 0
0.027882349 -0.027770208 0.022381108 0.71165758 -0.66817456 -0.21699366 0
0.030294018 -0.025397297 0.023533769 0.78588116 -0.58737981 -0.19332819 0
-0.027896507 -0.022528186 0.022675756 -0.83006984 -0.48508289 -0.27509746 0
0.029770095 -0.024733022 0.020141089 0.76639944 -0.57677424 -0.2827782 0
0.031990089 -0.022430573 0.022622114 0.8352173 -0.49900809 -0.23109116 0
-0.030758321 -0.016870046 0.022993017 -0.89268965 -0.353194 -0.27992713 0
-0.029465806 -0.018923318 0.021640027 -0.87188226 -0.40024999 -0.28217244 0
0.034137778 -0.01771732 0.022093713 0.90250343 -0.35122448 -0.24925682 0
0.035370883 -0.015725203 0.024030084 0.93196839 -0.28391761 -0.22544552 0
-0.032102432 -0.01249964 0.02270134 -0.9287349 -0.24673818 -0.27671599 0
0.034747876 -0.014425335 0.020353096 0.93003356 -0.23748867 -0.2804223 0
0.03577118 -0.012590123 0.022713238 0.94980532 -0.18844792 -0.24971424 0
-0.033064403 -0.0075866729 0.022467086 -0.95247573 -0.14780749 -0.26635081 0
0.036380071 -0.0074875769 0.022444086 0.96770358 -0.071852267 -0.24163413 0
-0.033525579 -0.0025004004 0.022428317 -0.96087247 -0.021217715 -0.2761772 0
0.036431547 -0.002900362 0.02230959 0.97175264 0.042641241 -0.23211738 0
-0.033225387 0.0026464837 0.022398984 -0.94980186 0.11819165 -0.28966755 0
0.035994656 0.0024060237 0.022758255 0.96136147 0.14728482 -0.23257546 0
-0.032403346 0.0075282524 0.022679552 -0.91858065 0.24543832 -0.3097896 0
0.034512293 0.0080484459 0.021780221 0.92526335 0.27844489 -0.25759691 0
0.035403032 0.0064689578 0.023541022 0.94661599 0.22913297 -0.22675152 0
-0.030964226 0.012117783 0.023112752 -0.87788159 0.37537903 -0.29734567 0
-0.029496239 0.013757282 0.021037893 -0.84775943 0.41993642 -0.32397136 0
0.032952458 0.012655733 0.02249646 0.87688583 0.41211429 -0.2474533 0
-0.030100834 0.015022531 0.024674401 -0.82863218 0.46892878 -0.30573612 0
-0.027652657 0.01754244 0.022540219 -0.7721833 0.56898183 -0.2828297 0
0.028875535 0.018888151 0.02199409 0.74648231 0.61472726 -0.25470459 0
0.030884501 0.016486041 0.022791654 0.81192267 0.5338034 -0.23629537 0
-0.02565599 0.020529989 0.02366863 -0.6915037 0.67528659 -0.25653607 0
-0.022849917 0.022609696 0.022446923 -0.62190425 0.74106246 -0.2531037 0
-0.019459503 0.024713963 0.02087854 -0.53266484 0.80740541 -0.2537019 0
0.023614233 0.023908619 0.021755222 0.59227037 0.75125766 -0.29125205 0
0.02655332 0.021707781 0.022803171 0.67377478 0.6925931 -0.25757021 0
-0.020379674 0.025118774 0.024329942 -0.54821479 0.8084783 -0.21406414 0
-0.017288771 0.026502954 0.022603966 -0.47293279 0.85222858 -0.22369866 0
-0.012490618 0.028645823 0.022578523 -0.32569972 0.91516447 -0.23747358 0
-0.0081327148 0.029613085 0.02146955 -0.22860783 0.93061966 -0.2858068 0
0.0084563699 0.029817628 0.020722821 0.16239756 0.92838955 -0.33424518 0
0.012833811 0.029298851 0.022171944 0.26216978 0.91839325 -0.29634577 0
0.017634992 0.027689366 0.022525182 0.38459229 0.87724859 -0.28726956 0
0.021413622 0.025881041 0.022931529 0.50644928 0.82019508 -0.26606217 0
-0.0067342324 0.030458324 0.023322193 -0.20938884 0.94756514 -0.2414057 0
-0.0023133189 0.030940689 0.022647105 -0.089414649 0.95072299 -0.29686838 0
0.0025717127 0.031026756 0.02243492 0.022975789 0.94837463 -0.31631887 0
0.0074062445 0.030838115 0.023190018 0.15147887 0.94119847 -0.30199283 0
0.011351887 0.030340321 0.024146864 0.23400667 0.93207192 -0.27655515 0
-0.0053021982 -0.040021311 0.029735168 -0.22786884 -0.96254951 -0.14688154 0
-0.001784751 -0.040279668 0.02811251 -0.097424507 -0.98434263 -0.14689513 0
0.0024660972 -0.040391739 0.027728301 0.029645018 -0.98816967 -0.15047216 0
0.0062587932 -0.040217072 0.02885358 0.16642217 -0.97477561 -0.14871538 0
-0.016257744 -0.035721134 0.027660439 -0.48727363 -0.85506219 -0.17729382 0
-0.012427274 -0.037522413 0.027486159 -0.37709624 -0.91175652 -0.16278353 0
-0.0076142708 -0.039080292 0.027387751 -0.24232344 -0.95713818 -0.1586376 0
-0.0031126004 -0.039792296 0.026245072 -0.14665721 -0.97403085 -0.17249797 0
0.0033980755 -0.039926808 0.025309993 0.067625359 -0.98032886 -0.18542433 0
0.0080058798 -0.039569624 0.027052956 0.20582679 -0.96326834 -0.17248008 0
0.012436333 -0.038393952 0.027452022 0.32289216 -0.93214554 -0.16384548 0
0.017517462 -0.036343921 0.027543217 0.41571435 -0.89621603 -0.15484941 0
0.020273827 -0.035220403 0.028994249 0.47072527 -0.87435734 -0.11797021 0
-0.021762129 -0.031733412 0.027490243 -0.64074612 -0.74137121 -0.19953246 0
-0.018714994 -0.034044635 0.027248412 -0.56357878 -0.80198801 -0.19797513 0
0.019836077 -0.034877744 0.025641726 0.48621559 -0.85232294 -0.19271752 0
0.022714138 -0.033394277 0.027383033 0.55846781 -0.81481707 -0.15552105 0
0.026117167 -0.030820131 0.027507579 0.64180607 -0.75299412 -0.1452063 0
-0.02646994 -0.026853694 0.02758288 -0.76535857 -0.6057567 -0.21745127 0
-0.024194488 -0.029264705 0.026904339 -0.70571297 -0.67150998 -0.22592805 0
0.028550839 -0.028443599 0.027381828 0.72210169 -0.6747669 -0.15250851 0
0.030790742 -0.025860166 0.027587013 0.7875275 -0.60141402 -0.13454227 0
-0.030463731 -0.020978808 0.028334389 -0.86971307 -0.44508386 -0.21330638 0
-0.028756613 -0.023487991 0.027300788 -0.8273471 -0.51287192 -0.22903985 0
0.033107176 -0.022416348 0.027605943 0.85008359 -0.50546771 -0.14785245 0
-0.031769276 -0.017515989 0.027483096 -0.90501171 -0.36067089 -0.22554415 0
0.034693107 -0.019128781 0.026718769 0.90419781 -0.38988641 -0.17439876 0
0.035764068 -0.016971717 0.027960125 0.92819852 -0.33077806 -0.17039198 0
-0.033429008 -0.012509326 0.027725043 -0.94919735 -0.23417296 -0.21020833 0
0.036898542 -0.012332282 0.027476087 0.96694273 -0.17680921 -0.18373992 0
-0.035057098 -0.0052633272 0.029577916 -0.97578609 -0.1084644 -0.18993942 0
-0.03433999 -0.0076002586 0.027595742 -0.96907145 -0.1395108 -0.20356148 0
0.037557211 -0.0076804073 0.027749131 0.98035854 -0.071967155 -0.18362395 0
-0.035163522 -0.0020573116 0.029144941 -0.98058587 -0.034076083 -0.1931069 0
-0.034664135 -0.0028436915 0.026879152 -0.97498631 -0.042595997 -0.21814513 0
0.037496485 -0.0025021248 0.027489157 0.98193729 0.065372624 -0.17755438 0
-0.035165884 0.0013773673 0.029321229 -0.97163033 0.075706668 -0.22406042 0
-0.034449294 0.0027005535 0.026857618 -0.96635348 0.099724688 -0.23709913 0
0.036968384 0.0024004641 0.027412342 0.97469699 0.14065042 -0.17373362 0
-0.033853509 0.0076012406 0.027682647 -0.94355732 0.23278436 -0.23560809 0
0.034896806 0.0098333079 0.025602218 0.93113124 0.31398097 -0.18550076 0
0.035985928 0.0073684282 0.027651047 0.95194989 0.25834158 -0.16447164 0
-0.032110155 0.012454493 0.0274326 -0.8881796 0.39476565 -0.23515335 0
0.03396884 0.012823016 0.0271188 0.89879119 0.40352094 -0.17130442 0
0.035242755 0.010589959 0.029119847 0.92563218 0.34191924 -0.1621612 0
-0.030570565 0.015992207 0.028613754 -0.83674502 0.51125753 -0.19614641 0
-0.028639385 0.01833863 0.027441181 -0.7811296 0.58963323 -0.20535153 0
0.029631972 0.019528901 0.026390515 0.77868021 0.59835029 -0.18877019 0
0.031732194 0.016986443 0.027648428 0.81923103 0.54758275 -0.17033422 0
-0.026317198 0.021196639 0.027819879 -0.69920701 0.68740582 -0.1964253 0
-0.02323219 0.023716459 0.027344188 -0.5968942 0.78238016 -0.17775975 0
0.024646096 0.024659153 0.02649604 0.61360788 0.76110703 -0.21024138 0
0.027186591 0.022524163 0.027593924 0.69533283 0.69701523 -0.17516267 0
-0.020605009 0.025632726 0.0275508 -0.54164928 0.82582998 -0.15691011 0
-0.017357221 0.027487045 0.027484672 -0.45571464 0.87840509 -0.14397468 0
-0.013196611 0.029345412 0.02726122 -0.36458009 0.91902304 -0.14992686 0
0.014464783 0.029807312 0.025439836 0.30065361 0.91869092 -0.25615314 0
0.017762447 0.02892229 0.027322333 0.39676037 0.89693463 -0.19516544 0
0.022313563 0.026524372 0.027650166 0.53788394 0.82636148 -0.1667558 0
0.025022414 0.025035201 0.029816262 0.59094167 0.80347878 -0.07217937 0
-0.010920732 0.030293649 0.027939891 -0.30378959 0.94032699 -0.15328741 0
-0.0072939289 0.031218413 0.027572414 -0.2295008 0.95964295 -0.16252662 0
-0.0025683723 0.032121584 0.027542787 -0.13169445 0.97459352 -0.18117385 0
0.0025622882 0.032387268 0.027391283 0.0093437675 0.97691798 -0.21341026 0
0.0076863049 0.031982984 0.027666086 0.15746091 0.96426225 -0.21308303 0
0.012284703 0.030962193 0.027613668 0.26836935 0.93943393 -0.21317087 0
0.015548798 0.030135922 0.028607376 0.35609171 0.9174912 -0.17722477 0
-0.0060802526 -0.040187005 0.032882951 -0.20691164 -0.97445923 -0.087274954 0
-0.0026451745 -0.040686179 0.032559134 -0.11220174 -0.99014312 -0.083829351 0
0.0025234856 -0.040958539 0.03270556 0.016333126 -0.99734378 -0.070983462 0
0.0073056296 -0.040485404 0.032837164 0.18716882 -0.97821873 -0.089754365 0
-0.017019045 -0.036148485 0.032778151 -0.49125057 -0.86169273 -0.1271164 0
-0.01255151 -0.038184166 0.032472339 -0.35162738 -0.93052089 -0.10241552 0
-0.008400375 -0.03951899 0.032297023 -0.27192301 -0.95718771 -0.099244893 0
0.0093499441 -0.03988808 0.031157851 0.24605015 -0.96226889 -0.11618132 0
0.012615043 -0.039010894 0.032532819 0.328336 -0.94095773 -0.082426399 0
0.017487831 -0.036989547 0.03256901 0.43188101 -0.89931631 -0.068621665 0
0.020632461 -0.035403449 0.032743707 0.47915351 -0.87479961 -0.071677849 0
-0.025108352 -0.030250203 0.034357574 -0.69878268 -0.68784982 -0.19638073 0
-0.02239329 -0.032306921 0.032325041 -0.63637507 -0.75660133 -0.15027031 0
-0.019310078 -0.034562878 0.031697515 -0.55341578 -0.81930083 -0.14992386 0
0.023138363 -0.03384177 0.032218158 0.55901366 -0.82520813 -0.080840349 0
0.026453575 -0.031312469 0.032520238 0.65132445 -0.75499588 -0.07587935 0
-0.027029693 -0.027628379 0.032477587 -0.76113331 -0.62715214 -0.16539717 0
-0.024791636 -0.029776625 0.030761078 -0.68783849 -0.70667356 -0.16580345 0
0.028930737 -0.028942497 0.03244698 0.7305252 -0.67874759 -0.075063758 0
0.031107139 -0.026372053 0.032440592 0.78386837 -0.61519319 -0.084188566 0
-0.030938329 -0.021834757 0.032709539 -0.87337738 -0.46006691 -0.15984488 0
-0.029530864 -0.024222223 0.032452054 -0.83849692 -0.51843059 -0.16778731 0
0.033690311 -0.022613702 0.032546218 0.85370779 -0.51355934 -0.086254396 0
0.035090238 -0.02028852 0.033334523 0.90213013 -0.42424548 -0.078593478 0
-0.03284109 -0.017525744 0.032668568 -0.92576873 -0.34532961 -0.15394704 0
0.034960799 -0.019808538 0.030200709 0.88017946 -0.45885608 -0.12138891 0
0.036251638 -0.017356675 0.032558415 0.93117499 -0.35284612 -0.09172073 0
-0.03506536 -0.010418965 0.034549985 -0.97890449 -0.15861331 -0.12879416 0
-0.034284182 -0.012730975 0.032526758 -0.96290207 -0.2254183 -0.14834483 0
0.037610304 -0.012572196 0.032511 0.97671384 -0.19306886 -0.093565948 0
-0.03535533 -0.0069465223 0.032843091 -0.98175055 -0.1272679 -0.14131077 0
-0.03482984 -0.0088852365 0.031130435 -0.97344941 -0.16082062 -0.16288941 0
0.038240615 -0.0074650617 0.032574873 0.99479914 -0.052212194 -0.08745566 0
-0.035743814 -0.0027666176 0.032582019 -0.98505008 -0.067309208 -0.15857424 0
0.038185697 -0.0024742901 0.032562278 0.99406749 0.059018191 -0.091360345 0
-0.035709482 0.0024056756 0.032467403 -0.97931701 0.075769328 -0.18760954 0
0.037699167 0.0023103005 0.032392047 0.98421234 0.14211588 -0.10549406 0
-0.035396367 0.0063029435 0.033591621 -0.96353608 0.19016165 -0.18824644 0
-0.034591015 0.0083579607 0.031720996 -0.94754529 0.25416762 -0.19379506 0
0.036628269 0.0075930627 0.032647077 0.96103853 0.25687525 -0.10207882 0
-0.033171587 0.012603446 0.032474242 -0.89473838 0.41535178 -0.16409181 0
0.034314699 0.013735778 0.032102853 0.8948105 0.43546066 -0.098429449 0
0.035484005 0.011246987 0.032681137 0.92908204 0.35728744 -0.09566772 0
-0.031049661 0.016583756 0.032803737 -0.83035225 0.53641462 -0.15091246 0
-0.029232476 0.018996844 0.032197177 -0.78053284 0.60676259 -0.15035862 0
0.032161556 0.017541919 0.032616805 0.83397132 0.54364127 -0.094582967 0
-0.02680265 0.021751346 0.032653596 -0.68292105 0.72125328 -0.11581267 0
-0.023907229 0.02415265 0.032505464 -0.59260231 0.79656935 -0.11958171 0
0.02792448 0.022697719 0.032392282 0.70556617 0.70166749 -0.099192418 0
0.030241063 0.020434929 0.033943359 0.77209383 0.62935072 -0.088254139 0
-0.021380188 0.025897212 0.032594051 -0.53031337 0.84204531 -0.098627418 0
-0.017841954 0.027913824 0.032409687 -0.4630973 0.88190573 -0.088221923 0
-0.01410025 0.029664403 0.032257318 -0.38086721 0.91997373 -0.092674255 0
0.018732989 0.029341426 0.032325998 0.43741339 0.89240456 -0.11083174 0
0.022661235 0.027078219 0.032462038 0.548648 0.82913339 -0.10734664 0
0.025347618 0.025278216 0.033617534 0.6343748 0.76632512 -0.10155998 0
-0.011544311 0.030647725 0.032630872 -0.32458079 0.94237417 -0.081105724 0
-0.0075081857 0.031853352 0.032480299 -0.25318876 0.96161819 -0.10576367 0
-0.0027594345 0.032832265 0.032506067 -0.13278453 0.98495448 -0.11060292 0
0.0023347118 0.033186655 0.032449964 -0.020110924 0.99423605 -0.10531013 0
0.0072781057 0.032877129 0.032223072 0.13572635 0.9808383 -0.1397659 0
0.012735878 0.031724527 0.032340426 0.27702954 0.95035505 -0.14170359 0
0.016322521 0.030517381 0.032823708 0.38707811 0.91376752 -0.12328617 0
-0.0064497944 -0.040360976 0.037757821 -0.19430833 -0.98088497 -0.01043687 0
-0.0026390147 -0.040907595 0.037214343 -0.10452829 -0.99436754 -0.017521262 0
0.0021674086 -0.041148845 0.037403472 0.0051287864 -0.99989212 -0.013760979 0
0.0073105064 -0.040704716 0.037310712 0.17991774 -0.98365575 -0.0071323221 0
0.010153845 -0.040073592 0.037917834 0.29168463 -0.95651275 -0.0018404493 0
-0.020056216 -0.035037834 0.039241329 -0.51129389 -0.85851878 -0.039038636 0
-0.017665764 -0.036292348 0.037537239 -0.480847 -0.87490177 -0.057732496 0
-0.012230603 -0.038721617 0.037448816 -0.32473519 -0.94443315 -0.050921809 0
-0.0089740902 -0.039745275 0.037478827 -0.28274614 -0.95868897 -0.031146815 0
0.012661736 -0.039239805 0.037692185 0.32853153 -0.94448882 -0.0028196846 0
0.017447285 -0.03720035 0.037721694 0.44557509 -0.89522535 0.0058722775 0
0.020811146 -0.03541676 0.037159856 0.49601537 -0.86808729 0.019832099 0
-0.025412442 -0.030497469 0.038050395 -0.70972645 -0.69901001 -0.087598175 0
-0.022540968 -0.032991197 0.037469484 -0.62919313 -0.77168965 -0.092795812 0
-0.019763499 -0.034977552 0.036284044 -0.52897137 -0.84307635 -0.097012833 0
0.023150682 -0.03398494 0.037729748 0.54204643 -0.83994269 0.02611318 0
0.026584238 -0.031405538 0.037528038 0.65533465 -0.75528258 0.0092061246 0
-0.030020881 -0.025101181 0.039800167 -0.83465254 -0.54377574 -0.087539069 0
-0.02800172 -0.027477754 0.037421461 -0.77680755 -0.62304485 -0.091570318 0
0.029055541 -0.029058233 0.037455224 0.72465754 -0.68906516 -0.0077879042 0
0.031255011 -0.02649248 0.037368227 0.78348857 -0.62138915 -0.0046019061 0
-0.031292476 -0.022507314 0.037630234 -0.87989902 -0.46609813 -0.092359699 0
-0.029906597 -0.024639847 0.035997044 -0.85292417 -0.50815445 -0.11958057 0
0.033647362 -0.023107825 0.037460357 0.84978491 -0.52711433 0.0040069697 0
0.03522357 -0.020386958 0.037204023 0.88604587 -0.46357113 -0.0049565923 0
-0.033467885 -0.017632989 0.037565436 -0.93283367 -0.34632275 -0.099408709 0
0.036457852 -0.017571846 0.037300661 0.92966855 -0.36783499 -0.020345302 0
-0.035195481 -0.011272243 0.037865732 -0.97739387 -0.19885337 -0.071823448 0
-0.034646176 -0.013514193 0.037016626 -0.97126132 -0.22326073 -0.082498454 0
0.03793171 -0.012627641 0.037624072 0.98108184 -0.19248618 -0.020676205 0
-0.035857394 -0.0074777398 0.037482366 -0.9833203 -0.15470541 -0.095642246 0
0.038483355 -0.0075158323 0.037430137 0.99910277 -0.039306678 -0.015767161 0
-0.036387078 -0.0024707839 0.037494007 -0.99472326 -0.049816608 -0.089687981 0
0.038457625 -0.0024037925 0.037373111 0.99859798 0.046944238 -0.024458775 0
-0.036386263 0.0026283725 0.037402619 -0.99442977 0.060142606 -0.08655829 0
0.037983451 0.0026676222 0.037450336 0.98919201 0.14426169 -0.026225414 0
-0.035680372 0.0074263485 0.037429351 -0.96625966 0.2362453 -0.10261773 0
-0.034863375 0.0097043961 0.035701822 -0.94418347 0.31091216 -0.10886288 0
0.036908798 0.0075941142 0.037321005 0.96343839 0.26722115 -0.019476211 0
-0.035059199 0.010252448 0.03904156 -0.93059748 0.34971973 -0.10809465 0
-0.033841375 0.012657431 0.03738708 -0.90164417 0.4233956 -0.088169456 0
0.034577049 0.013959467 0.03755315 0.89501929 0.44517791 -0.027515573 0
0.035718337 0.011371983 0.037737004 0.93256503 0.36085063 -0.010454312 0
-0.031258956 0.0172689 0.037623979 -0.82671285 0.55692995 -0.079843111 0
-0.029540973 0.019528521 0.037096329 -0.74094331 0.66828114 -0.066357516 0
0.03242879 0.017674586 0.037305418 0.83738196 0.54588264 -0.028348805 0
-0.027267402 0.021870211 0.037604503 -0.68643504 0.72518831 -0.053933751 0
-0.024170019 0.024453331 0.037421912 -0.58550227 0.80930513 -0.047034439 0
0.028060433 0.023077562 0.037578285 0.70751131 0.70591033 -0.033443302 0
0.030315893 0.020635227 0.037601061 0.77189541 0.63479996 -0.034733649 0
-0.021790324 0.026037732 0.037444301 -0.5269497 0.84946972 -0.026929701 0
-0.017706191 0.028280837 0.037472118 -0.44327056 0.89607346 -0.023740837 0
-0.014481056 0.029793246 0.037264496 -0.40772268 0.91290545 -0.019125875 0
0.019276075 0.029502802 0.03730065 0.47212359 0.88080549 -0.035789695 0
0.022730885 0.027450416 0.037560463 0.55206668 0.8332091 -0.031382039 0
0.025555929 0.025421401 0.03788691 0.64137942 0.76690722 -0.022041092 0
-0.012061858 0.030758627 0.037378002 -0.34435117 0.9382112 -0.034379128 0
-0.0075455653 0.032188252 0.037437644 -0.26151341 0.96444166 -0.038249247 0
-0.0024172738 0.033190172 0.037441231 -0.10872702 0.99382836 -0.021992516 0
0.0025832404 0.033525441 0.037657943 -0.019732809 0.99951184 -0.02422009 0
0.0075146966 0.033303428 0.037479218 0.1061808 0.99390996 -0.029473061 0
0.012465556 0.032289889 0.037532661 0.28630707 0.95740575 -0.037449427 0
0.016844356 0.03068622 0.037875891 0.40303859 0.91455078 -0.034011841 0
-0.0063355966 -0.040275674 0.042370871 -0.1871084 -0.98021108 0.064627573 0
-0.0024897403 -0.04083487 0.042527631 -0.10680497 -0.99259728 0.057821099 0
0.002341466 -0.041053571 0.042661171 0.028110931 -0.99877536 0.040713824 0
0.0073920647 -0.040519413 0.042200454 0.19069473 -0.97894496 0.072816268 0
-0.020101445 -0.035073262 0.042633943 -0.47396785 -0.88053548 0.0034308136 0
-0.017366286 -0.036567092 0.042559724 -0.45924103 -0.88807088 0.020679664 0
-0.01273534 -0.038597215 0.042419687 -0.32425195 -0.94523579 0.037283394 0
-0.0087325387 -0.039719973 0.042894501 -0.22974661 -0.97152567 0.057916675 0
0.0096211135 -0.039943628 0.043573931 0.22573154 -0.9698782 0.091550976 0
0.012573915 -0.039118223 0.042427208 0.32406655 -0.94412917 0.060008448 0
0.0174383 -0.037045985 0.042579755 0.44647592 -0.89322692 0.052962344 0
0.020593965 -0.035380188 0.04239298 0.50239921 -0.86349702 0.04436158 0
-0.025679402 -0.030631501 0.042313877 -0.69930285 -0.71396297 -0.035104565 0
-0.022785863 -0.033196736 0.042423438 -0.62008691 -0.784159 -0.024226241 0
0.023180883 -0.033667251 0.042439766 0.57174087 -0.81709677 0.073927999 0
0.026489841 -0.031228103 0.042237069 0.62450826 -0.77868152 0.060369931 0
-0.030071689 -0.025059277 0.042755146 -0.82348984 -0.56724119 -0.010091246 0
-0.02812022 -0.027832689 0.04258129 -0.79355139 -0.60809553 -0.022272896 0
0.028926726 -0.029035967 0.042504638 0.71466607 -0.69625998 0.06689138 0
0.031157017 -0.026393883 0.042168811 0.79760212 -0.5993157 0.068201609 0
-0.031437933 -0.022733152 0.042538818 -0.87671417 -0.4809362 -0.0085309846 0
0.033643253 -0.022678599 0.042667754 0.84494191 -0.53020895 0.07036718 0
0.03516791 -0.020228945 0.041801993 0.89056331 -0.45090133 0.059874617 0
-0.033778455 -0.017476814 0.04279248 -0.94452238 -0.32840213 -0.0054337881 0
0.036391992 -0.017387364 0.042546283 0.92342693 -0.37830734 0.064546414 0
-0.035319179 -0.0117306 0.042527538 -0.97928178 -0.20158987 -0.019202553 0
-0.034754068 -0.014271399 0.042510472 -0.96808803 -0.25013721 -0.015396036 0
0.037852824 -0.012489738 0.042440858 0.97990668 -0.19202027 0.053954002 0
-0.036114547 -0.0075241835 0.042587541 -0.98605967 -0.16521251 -0.019774025 0
0.038441282 -0.0074181254 0.042553701 0.9982326 -0.038938385 0.044893205 0
-0.036670156 -0.0025508604 0.042590272 -0.99839902 -0.052952122 -0.019888403 0
0.038391687 -0.0022542963 0.042579707 0.99782163 0.053889848 0.038049914 0
-0.036687322 0.0023931377 0.042413231 -0.9985013 0.049803715 -0.022683565 0
0.037864774 0.0026127663 0.042490069 0.9841544 0.16380234 0.067888543 0
-0.035988469 0.0077096405 0.04234919 -0.97222054 0.23356022 -0.015388706 0
0.036824793 0.0074899211 0.042506441 0.96352357 0.25982362 0.064139716 0
-0.035187587 0.010446846 0.042685896 -0.9211145 0.38895389 -0.01621474 0
-0.034048636 0.012846705 0.042370707 -0.8897959 0.45578974 -0.022781234 0
0.034504838 0.013917563 0.042556569 0.8998639 0.43382725 0.045154005 0
0.035575852 0.0114253 0.04249474 0.93450665 0.35177225 0.05434778 0
-0.031600095 0.017020948 0.042526595 -0.82728124 0.56151819 0.017409312 0
-0.0296454 0.019595576 0.04268438 -0.7531653 0.65702325 0.032594301 0
0.032386545 0.017585211 0.042585094 0.8414489 0.53812957 0.048788395 0
-0.02725633 0.022031309 0.042440873 -0.67212343 0.74021721 0.018127833 0
-0.024196578 0.024454959 0.042525996 -0.55865043 0.82834715 0.041841093 0
0.028202597 0.022975078 0.04264288 0.72034216 0.69323629 0.023035409 0
0.030404078 0.020484479 0.042506445 0.78670496 0.61512184 0.052158386 0
-0.021762036 0.026000494 0.042559166 -0.52173799 0.85232818 0.036416635 0
-0.017745422 0.028229702 0.042538207 -0.45811611 0.88831431 0.032049842 0
-0.014627676 0.02975619 0.042776331 -0.41660601 0.90889794 0.018548049 0
0.01914298 0.029572122 0.042875234 0.47341284 0.87999988 0.038476031 0
0.022551633 0.027558105 0.042311087 0.54310787 0.83887792 0.036300868 0
0.025631869 0.025377607 0.042451866 0.62503934 0.78020376 0.02465483 0
-0.012079838 0.030811114 0.042450335 -0.35151106 0.93594325 0.021218933 0
-0.0074934992 0.032197036 0.042601708 -0.23283422 0.9714402 0.045740589 0
-0.0024152366 0.033131439 0.042505395 -0.13517956 0.98915362 0.057460152 0
0.0024209092 0.03354213 0.04226898 -0.012879239 0.99924082 0.036768988 0
0.0074161445 0.033184543 0.042812459 0.12419521 0.98912245 0.078818597 0
0.012580444 0.032168142 0.042714614 0.27394137 0.95992392 0.059179839 0
0.016738789 0.030720538 0.042449016 0.39022544 0.92007101 0.034546688 0
-0.0055799419 -0.040133212 0.045607544 -0.16659038 -0.98095107 0.099913396 0
-0.0020838669 -0.040441416 0.047216218 -0.11037023 -0.98556328 0.12838767 0
0.00219008 -0.040648211 0.047438893 0.015147084 -0.99008358 0.13966028 0
0.0064502689 -0.040259842 0.046884596 0.17115618 -0.97930157 0.10804649 0
-0.01742924 -0.036242325 0.047428731 -0.44186699 -0.89249229 0.090614423 0
-0.012391641 -0.038277332 0.04750691 -0.31245062 -0.94269019 0.11708898 0
-0.0077343187 -0.03949549 0.047605108 -0.19467916 -0.97310323 0.12316713 0
-0.0042210356 -0.039924335 0.048929848 -0.15751348 -0.97829056 0.13467371 0
0.0085794413 -0.039666075 0.048053235 0.23393047 -0.96350586 0.13012671 0
0.01228262 -0.038654529 0.047758672 0.30791771 -0.94205505 0.13311316 0
0.017476011 -0.03656441 0.04741678 0.4402855 -0.89025891 0.11656729 0
0.020221259 -0.035248376 0.04662092 0.50953406 -0.85500818 0.096623681 0
-0.02572299 -0.03067624 0.047539808 -0.69054514 -0.72208327 0.041753087 0
-0.022548284 -0.033176787 0.047434159 -0.57691729 -0.81338453 0.074645743 0
-0.0198227 -0.034892302 0.048275318 -0.49637058 -0.86455745 0.078464516 0
0.01991472 -0.034969904 0.049812309 0.50375408 -0.8527503 0.13801718 0
0.022617875 -0.033452284 0.047676582 0.58170801 -0.80271596 0.13138773 0
0.026213231 -0.030828852 0.047082946 0.61074865 -0.77936417 0.1399205 0
-0.028174272 -0.027655723 0.047533978 -0.81434321 -0.57886058 0.042018581 0
0.028587915 -0.028470585 0.047924899 0.72688907 -0.66648591 0.1656162 0
0.030828323 -0.025859054 0.04750403 0.79334748 -0.59044486 0.14823815 0
-0.031360056 -0.022594573 0.047508974 -0.8747257 -0.48240924 0.046220697 0
-0.029942837 -0.024964597 0.047665492 -0.86839896 -0.49550042 0.019040324 0
0.033001307 -0.022673396 0.047618017 0.83471203 -0.53072029 0.1469415 0
-0.03368336 -0.017427627 0.047454298 -0.9421742 -0.33005342 0.05807275 0
0.034742113 -0.019410353 0.048685651 0.87488031 -0.45848891 0.15611658 0
0.035937596 -0.017183157 0.04753904 0.91583896 -0.37391376 0.14638147 0
-0.035284132 -0.011393616 0.047214709 -0.97944897 -0.19514892 0.050957348 0
-0.034749407 -0.013789027 0.047751255 -0.97429252 -0.21979025 0.049460962 0
0.037317883 -0.012674162 0.047395609 0.96826512 -0.20247403 0.14651608 0
-0.035985488 -0.0075060083 0.047620591 -0.98445845 -0.16195947 0.067901753 0
0.037944783 -0.0075272936 0.047797211 0.98832285 -0.068050042 0.13633454 0
-0.03653644 -0.0024624476 0.04749117 -0.99556899 -0.06894137 0.063948989 0
0.038021374 -0.0025606253 0.047542304 0.99015087 0.067762576 0.12251317 0
-0.036578398 0.0023726874 0.047340665 -0.99346113 0.084447034 0.076835558 0
0.037376363 0.002485682 0.047777709 0.9781543 0.16328326 0.12865709 0
-0.035766028 0.0076158582 0.047721561 -0.96991271 0.22408429 0.095160119 0
-0.034985185 0.0097649731 0.049718834 -0.94115829 0.31758031 0.11560193 0
0.036400251 0.0073008812 0.047549371 0.96051383 0.25331545 0.11508469 0
-0.035128083 0.01023738 0.047113597 -0.92552561 0.36399016 0.10446799 0
-0.034065466 0.012453889 0.047667373 -0.89697874 0.43302834 0.088969685 0
0.034318537 0.01327019 0.047840398 0.90204209 0.41243649 0.12734266 0
0.03532939 0.011078429 0.047038067 0.93858826 0.32486269 0.11626015 0
-0.031359248 0.016892903 0.047572941 -0.80263525 0.58908916 0.093545318 0
-0.029449718 0.019252323 0.048019785 -0.75738192 0.64207804 0.11877892 0
0.03202736 0.017492829 0.047390372 0.83361495 0.54228508 0.10494249 0
-0.026929924 0.02181026 0.047557771 -0.64952826 0.74791604 0.13687477 0
-0.023819515 0.024151189 0.048005309 -0.56716907 0.81181818 0.13881788 0
0.027876614 0.022814911 0.047550581 0.71431422 0.69063407 0.1130473 0
0.03016898 0.020357972 0.046438094 0.79554307 0.59807783 0.09702605 0
-0.021259112 0.02594739 0.047134817 -0.51870614 0.84820968 0.10716494 0
-0.017639738 0.027919199 0.047678221 -0.4644568 0.87839633 0.11269268 0
-0.014011241 0.029614275 0.048183065 -0.39477035 0.90906072 0.13328527 0
0.018669929 0.02937286 0.04745796 0.44325092 0.88639814 0.13351719 0
0.022685463 0.027031908 0.04755972 0.55319875 0.82526124 0.11364455 0
0.025374793 0.025235916 0.046707217 0.5939303 0.79800498 0.10215125 0
-0.011818229 0.03056795 0.047422767 -0.33358139 0.93583059 0.11377385 0
-0.0076300763 0.031781986 0.04734594 -0.21825089 0.96891034 0.11653039 0
-0.0025903734 0.032579098 0.047661435 -0.1157148 0.98115921 0.15471499 0
0.002484933 0.03294608 0.047603339 -0.0052652443 0.98605841 0.16631624 0
0.0075424332 0.032625291 0.047523789 0.12497341 0.98046297 0.15190108 0
0.012454083 0.031699739 0.047494635 0.24162138 0.9587577 0.14967559 0
0.016382966 0.030417694 0.047547385 0.37413564 0.91729337 0.13636521 0
-0.0010006758 -0.040052135 0.050518256 -0.062683687 -0.9796167 0.19084527 0
0.0025513419 -0.040126279 0.050570548 0.0246953 -0.97858173 0.20437181 0
0.0053661112 -0.040050745 0.050115764 0.13590395 -0.968822 0.20715715 0
-0.016713141 -0.035861172 0.052299757 -0.40340775 -0.89596581 0.18576196 0
-0.012557898 -0.037418935 0.052441947 -0.29946995 -0.93438929 0.19296192 0
-0.0075633014 -0.038724944 0.052459117 -0.20039964 -0.9589355 0.20070581 0
-0.0025780352 -0.039473783 0.052523121 -0.094258927 -0.97192174 0.21560016 0
0.0027121482 -0.039519921 0.053193666 0.035014007 -0.97012311 0.24007306 0
0.0074567054 -0.039161582 0.052393664 0.1835617 -0.9612304 0.2057697 0
0.012338269 -0.037776526 0.052602131 0.31918201 -0.92506337 0.20586558 0
0.016947703 -0.035966657 0.052452799 0.42103598 -0.88582683 0.19503751 0
-0.025555817 -0.030354792 0.051423762 -0.64158422 -0.751688 0.15275754 0
-0.022558022 -0.032486781 0.052361514 -0.57529229 -0.80300933 0.15561074 0
-0.019094599 -0.034519412 0.053240724 -0.45451695 -0.8678019 0.20083398 0
0.019200146 -0.034657497 0.053102497 0.48629391 -0.84742147 0.21306114 0
0.022656824 -0.032426924 0.05268158 0.5868969 -0.78695905 0.19038747 0
0.025534419 -0.030480212 0.051435526 0.62805158 -0.75838298 0.17437446 0
-0.027605841 -0.027662143 0.052494463 -0.77977353 -0.60708159 0.15298735 0
0.027946468 -0.02767933 0.052728321 0.72227877 -0.65599316 0.21905798 0
0.0302887 -0.025521046 0.051014967 0.78204393 -0.57902414 0.23051749 0
-0.031222861 -0.022100683 0.052070238 -0.88367349 -0.4525359 0.11971863 0
-0.029807393 -0.024471425 0.052704167 -0.84672791 -0.5161342 0.129063 0
0.029868549 -0.024822868 0.054504558 0.76787871 -0.59701073 0.23225093 0
0.032012794 -0.022544187 0.052428849 0.81546056 -0.53579795 0.21896236 0
-0.033251047 -0.017169258 0.052569985 -0.93586171 -0.31914648 0.14935972 0
0.034247626 -0.018297598 0.053090192 0.88008887 -0.40976799 0.23986177 0
0.035410732 -0.016263299 0.051886186 0.91324556 -0.33916083 0.22572674 0
-0.035163596 -0.010727605 0.050881296 -0.97874993 -0.18069707 0.096939646 0
-0.034468904 -0.01279657 0.052823011 -0.96636516 -0.21349403 0.14338309 0
0.036346335 -0.012798645 0.05238362 0.94688964 -0.23373884 0.22083065 0
-0.035561901 -0.0072811944 0.052323323 -0.98178649 -0.14525639 0.12245705 0
-0.034877006 -0.0096403314 0.05454943 -0.95972902 -0.20790915 0.18892843 0
0.037137378 -0.0074910377 0.05243801 0.97517484 -0.069937944 0.21010132 0
-0.036041953 -0.0025132226 0.052524421 -0.98762023 -0.0487145 0.14910792 0
0.037201121 -0.0024261526 0.052251901 0.97470552 0.068355381 0.21278279 0
-0.035944194 0.0025013818 0.052384265 -0.98263872 0.086646177 0.1640534 0
0.03657734 0.0024137299 0.052630089 0.96739101 0.14868139 0.20505713 0
-0.035432898 0.0066162553 0.052097838 -0.96697664 0.18752207 0.17260219 0
-0.034640279 0.0086655337 0.053390466 -0.92345995 0.30032247 0.23880559 0
0.034830831 0.0091226147 0.053719569 0.93096638 0.28706247 0.22560306 0
0.035669763 0.0071507753 0.052429244 0.94878459 0.24800861 0.19570257 0
-0.03316284 0.01261459 0.052518785 -0.86841881 0.44378942 0.22113302 0
0.033831503 0.012426208 0.05253049 0.89967215 0.38752517 0.20103316 0
0.035143971 0.010285145 0.050408259 0.93516171 0.32009408 0.15169826 0
-0.031042455 0.016233923 0.052241705 -0.78260952 0.58980531 0.19912831 0
-0.028703626 0.018725429 0.052846946 -0.69086444 0.67859811 0.24942099 0
0.029623071 0.019297939 0.053620927 0.75567806 0.61733991 0.21872839 0
0.031470697 0.016944237 0.052579295 0.82869375 0.52233827 0.20107041 0
-0.026146363 0.021287637 0.05236727 -0.62929416 0.73701525 0.24657136 0
-0.022920959 0.023622075 0.052823704 -0.55452824 0.79292423 0.25252652 0
-0.019852642 0.024912454 0.054983292 -0.48538208 0.82171142 0.29865476 0
0.024315858 0.024672922 0.053429648 0.58221948 0.77205288 0.25486249 0
0.027268535 0.022356221 0.052319922 0.69727832 0.68800616 0.20112294 0
-0.020772291 0.025525108 0.051310539 -0.52001977 0.83251882 0.19102861 0
-0.017663117 0.02697444 0.052407466 -0.45582405 0.85827017 0.23578979 0
-0.012993993 0.029041348 0.052826103 -0.35747319 0.89968252 0.25056803 0
-0.0092079807 0.029793845 0.054567005 -0.25324008 0.91236264 0.32165802 0
0.013854494 0.029744852 0.053987205 0.26593804 0.91356033 0.30770847 0
0.017959466 0.028619654 0.052573144 0.40153062 0.87793815 0.26076409 0
0.022095105 0.026383119 0.052509956 0.51757157 0.82372588 0.23150659 0
-0.010835805 0.030298207 0.051123697 -0.30424964 0.92666799 0.22072299 0
-0.0073766173 0.030858809 0.052366976 -0.20047276 0.94528347 0.25739053 0
-0.0024678321 0.031635385 0.052377481 -0.11013297 0.96244889 0.24811839 0
0.0025604924 0.031840056 0.052671377 0.0038451683 0.96498936 0.26226085 0
0.0073339357 0.031608764 0.052368551 0.12176684 0.95680833 0.26398987 0
0.012128018 0.03073805 0.052166056 0.23729801 0.93142748 0.2759214 0
0.015404508 0.030204868 0.050789956 0.33400413 0.91689432 0.21850884 0
-0.015732104 -0.035464503 0.05575728 -0.36839172 -0.89034665 0.26752639 0
-0.012311178 -0.036091622 0.057448518 -0.28457707 -0.89902598 0.33281866 0
-0.0075551998 -0.037277639 0.057511706 -0.18370479 -0.91997218 0.34627119 0
-0.0027440065 -0.038064156 0.057401381 -0.10160226 -0.93468273 0.34065422 0
0.0027097717 -0.038279384 0.05730455 0.041766949 -0.93860781 0.3424485 0
0.0075650234 -0.03766641 0.057493031 0.17727759 -0.92048967 0.34824038 0
0.012476268 -0.036230113 0.057740059 0.30084834 -0.89102197 0.33995602 0
0.015953561 -0.035479188 0.056155454 0.39290583 -0.87647802 0.27822864 0
-0.022048479 -0.031416196 0.057384115 -0.55145687 -0.774836 0.30907035 0
-0.017684378 -0.033789773 0.057924755 -0.41392571 -0.84444296 0.33997288 0
-0.014071593 -0.03484318 0.059170656 -0.31329727 -0.867553 0.38625968 0
0.017915726 -0.033875924 0.057688233 0.44503003 -0.83038479 0.33527508 0
0.022159887 -0.031437617 0.057187941 0.55673015 -0.77608967 0.29620323 0
-0.026628438 -0.027205192 0.057107009 -0.75093251 -0.59392571 0.28870848 0
-0.02417453 -0.029299682 0.058491655 -0.64457321 -0.68929058 0.33076254 0
0.024368357 -0.029213734 0.05837648 0.63316894 -0.69807929 0.33433893 0
0.026925977 -0.027083825 0.057288669 0.70997709 -0.64189339 0.28966442 0
-0.030668516 -0.021170922 0.056747437 -0.85638976 -0.42296383 0.29613876 0
-0.029055042 -0.023186089 0.057945307 -0.80540055 -0.48603719 0.33926082 0
0.02918607 -0.02381371 0.058232825 0.77408332 -0.53582549 0.33717328 0
0.031112732 -0.021727622 0.05694323 0.80355233 -0.50670075 0.31234261 0
-0.031933524 -0.017419597 0.057489626 -0.88897085 -0.33219963 0.31523678 0
-0.0299857 -0.019774718 0.059956189 -0.81518501 -0.43447876 0.38301659 0
0.033172436 -0.017493539 0.057437491 0.85848159 -0.38940156 0.33373001 0
-0.033498593 -0.012325959 0.057324328 -0.92564833 -0.21148214 0.31376794 0
0.03438155 -0.013111392 0.058506206 0.89077753 -0.2648232 0.36930209 0
0.035448689 -0.012073911 0.05633292 0.93143451 -0.21359342 0.29463145 0
-0.035214443 -0.0060728346 0.055643842 -0.96915364 -0.11232432 0.21937273 0
-0.034192551 -0.0077134036 0.057874292 -0.92149723 -0.14014123 0.36221984 0
0.034898099 -0.0079064993 0.059733067 0.91613722 -0.089590713 0.39072499 0
0.035833694 -0.0074803522 0.05728285 0.94621921 -0.078408062 0.3138814 0
-0.035352703 -0.0025717993 0.0559792 -0.96547836 -0.030845631 0.25865027 0
-0.03440021 -0.0025316391 0.058655802 -0.91645783 -0.037847802 0.39833713 0
0.034830898 -0.00092631049 0.059717428 0.91044748 0.090657607 0.40356749 0
0.035881221 -0.0028112363 0.057236459 0.94750971 0.052180339 0.31544033 0
-0.035271101 0.001953708 0.055947293 -0.95823371 0.092159577 0.27073017 0
-0.03431318 0.002741623 0.058263313 -0.91022718 0.12574984 0.39455464 0
0.034538645 0.0028051625 0.059169196 0.90075994 0.16658229 0.40110075 0
0.035463545 0.002251541 0.056954786 0.94125855 0.13806777 0.30817145 0
-0.035019293 0.0055067367 0.055024181 -0.94633222 0.1686683 0.27569252 0
-0.033461232 0.0075496375 0.057695691 -0.87869722 0.26932162 0.39415342 0
0.033941697 0.007858308 0.057647057 0.89484334 0.27379644 0.35254908 0
0.035227258 0.0057384763 0.055718131 0.93902653 0.20718189 0.27441737 0
-0.031589605 0.012352339 0.057269249 -0.80075347 0.45555753 0.38892311 0
-0.029536042 0.014099878 0.059151448 -0.73327643 0.49690875 0.46409842 0
0.029951267 0.014874893 0.059933919 0.8030774 0.42845312 0.41411915 0
0.032279514 0.012477162 0.057526559 0.8524403 0.38904279 0.34927234 0
-0.030449834 0.015651261 0.055274803 -0.75926948 0.56216002 0.32785064 0
-0.027447747 0.017585544 0.057682555 -0.65735418 0.63550085 0.4049989 0
-0.024451548 0.019491861 0.059211291 -0.57559806 0.66576666 0.47480702 0
0.028716845 0.018219402 0.057916492 0.75139797 0.54941541 0.3654364 0
0.030670239 0.016128056 0.056783158 0.79995131 0.49956313 0.33243731 0
-0.025615275 0.020329574 0.055969354 -0.61244214 0.70906502 0.34948757 0
-0.022301652 0.022185875 0.057285361 -0.53790188 0.74997544 0.38496557 0
-0.01867969 0.024046438 0.058342818 -0.47367471 0.77776384 0.41317743 0
0.019725088 0.024773972 0.059572108 0.42262191 0.77270395 0.47362369 0
0.023183363 0.023639517 0.057763897 0.51143992 0.75593543 0.40864509 0
0.026331048 0.021432504 0.057232581 0.64815402 0.67300045 0.35632396 0
-0.016728174 0.025853725 0.056944642 -0.42922565 0.82576144 0.3659009 0
-0.012648581 0.02743536 0.057540588 -0.33527672 0.85684568 0.39166936 0
-0.0074700355 0.02892267 0.057763562 -0.21403378 0.89256179 0.39689162 0
-0.0025440587 0.029414505 0.058718052 -0.10314929 0.90206814 0.41908649 0
0.0027701857 0.029510461 0.058983259 0.024751585 0.89562154 0.44412762 0
0.0079248827 0.029272312 0.058339361 0.15644072 0.88417035 0.44019195 0
0.012462489 0.028612873 0.057644933 0.23193491 0.88022083 0.41402596 0
0.017320279 0.02701723 0.057492085 0.36705187 0.83864343 0.40243042 0
0.021093346 0.025637189 0.056411229 0.46537578 0.8114112 0.35360628 0
-0.0057462021 0.030240139 0.055449683 -0.15562215 0.92603117 0.34387201 0
-0.0021323911 0.030428264 0.056299224 -0.10676382 0.93618757 0.33489454 0
0.0025225363 0.030608201 0.056511041 0.015792865 0.93159121 0.36316454 0
0.0072346339 0.030394711 0.056119174 0.13710207 0.92237669 0.36114314 0
0.010608821 0.030040096 0.055376571 0.19210295 0.92435509 0.32964242 0
-0.010723082 -0.035269108 0.060486335 -0.21926385 -0.86513329 0.45107394 0
-0.0072638053 -0.035644837 0.061211213 -0.17098862 -0.8574276 0.48536664 0
-0.0024663645 -0.035968829 0.061863758 -0.081576422 -0.83916676 0.53772157 0
0.0025804595 -0.036030881 0.061953001 0.03706263 -0.84264535 0.53719199 0
0.007125169 -0.035906006 0.061433438 0.14115922 -0.8503958 0.50685412 0
0.011202196 -0.035413921 0.060624175 0.25847617 -0.85673386 0.44631517 0
-0.020774862 -0.030607542 0.060880877 -0.48801681 -0.75174814 0.44352493 0
-0.017158167 -0.031813763 0.062183887 -0.38794264 -0.7655561 0.5132488 0
-0.012589207 -0.033385798 0.062623166 -0.25952613 -0.80338812 0.53592324 0
-0.0076912325 -0.034063261 0.063528776 -0.15190771 -0.78910393 0.59517986 0
-0.0028473451 -0.034241069 0.064150989 -0.065800369 -0.74452055 0.6643489 0
0.00277684 -0.034317777 0.064288564 0.021871451 -0.75040948 0.66061133 0
0.0075780456 -0.034037713 0.064009018 0.1395265 -0.76824629 0.62476385 0
0.01272993 -0.033479478 0.062922746 0.27591538 -0.7933532 0.54264319 0
0.017298091 -0.031789716 0.06237473 0.4164485 -0.76163888 0.49646428 0
0.020951204 -0.030577578 0.060920119 0.47906077 -0.76083302 0.43776017 0
-0.025793502 -0.0260092 0.06094962 -0.71196342 -0.53707117 0.4523966 0
-0.022622801 -0.027710609 0.06274315 -0.56192482 -0.60322422 0.56600451 0
-0.018906722 -0.029264109 0.064313546 -0.43086016 -0.63178349 0.64436722 0
0.019368486 -0.029422699 0.064084135 0.42742065 -0.69819182 0.57431674 0
0.022819355 -0.027723897 0.062878579 0.5637396 -0.64515263 0.51572829 0
0.025882216 -0.025968987 0.061401322 0.66851246 -0.59005147 0.45269233 0
-0.02718783 -0.022266261 0.062230069 -0.73016322 -0.42016551 0.53881603 0
-0.024370926 -0.024131536 0.064227529 -0.6273123 -0.41414154 0.65951949 0
0.024649281 -0.024439536 0.06457524 0.58691669 -0.53861356 0.60450321 0
0.027534761 -0.02275301 0.062553979 0.70801997 -0.50724119 0.49133903 0
0.030362271 -0.020602884 0.060259335 0.78524333 -0.46608767 0.40762129 0
-0.030633908 -0.016481644 0.061180852 -0.82799911 -0.28880557 0.48063383 0
-0.028701358 -0.017943133 0.063065499 -0.73549426 -0.30689207 0.60404098 0
0.029237408 -0.018427877 0.064012453 0.74034554 -0.39474991 0.54411489 0
0.031172263 -0.017227668 0.061919279 0.80393612 -0.37343141 0.46285608 0
-0.031375028 -0.01238411 0.061811827 -0.82606614 -0.19484818 0.52881843 0
-0.02931853 -0.012954805 0.064297214 -0.69541579 -0.16992889 0.69822711 0
-0.0064854897 -0.010931266 0.064497031 0.25788364 0.35365584 0.89912385 0
-0.0022367141 -0.011717634 0.064011618 0.042250846 0.47945514 0.87654871 0
0.0017114067 -0.011229808 0.06423299 -0.25367817 0.48794547 0.83519864 0
0.032499012 -0.012370528 0.062642559 0.83676362 -0.22912562 0.49732086 0
-0.031812247 -0.0075922282 0.062378705 -0.80621499 -0.10018808 0.58307785 0
-0.029699003 -0.0080292877 0.064755507 -0.65207535 -0.085008882 0.75337327 0
-0.01020056 -0.0066232556 0.064893082 0.38670275 0.042977821 0.92120242 0
-0.007431292 -0.0073769116 0.063853361 0.37182659 0.13718833 0.91810912 0
-0.0023854822 -0.0076839463 0.063177533 -0.13626516 -0.31422082 0.93951964 0
0.0023073768 -0.0073274099 0.063225009 -0.11135574 0.083052061 0.99030405 0
0.0055050584 -0.0066858772 0.064516217 -0.55933738 0.056759689 0.8269946 0
0.033333074 -0.0077266088 0.062647149 0.85160398 -0.069031067 0.51962036 0
-0.032098278 -0.0024331296 0.062418859 -0.7885744 0.0071386597 0.61489797 0
-0.029803565 -0.0016880922 0.064838029 -0.62024254 0.035669208 0.78359872 0
-0.010105566 -0.004446283 0.064897485 0.37970042 -0.10296711 0.91936135 0
-0.0073103006 -0.0028432168 0.063926473 0.37978572 -0.17760995 0.90786421 0
-0.0025726848 -0.0025810963 0.063308321 -0.25792524 0.06643109 0.96387833 0
0.0022708718 -0.0027167306 0.063741118 -0.15561695 -0.18500122 0.97033906 0
0.0053806063 -0.0038441797 0.064665467 -0.54946792 -0.19355372 0.81278652 0
0.033280272 -0.0022181384 0.062738433 0.84853953 0.056445554 0.52611279 0
-0.031968247 0.0025612991 0.062128935 -0.77525145 0.11595165 0.62091893 0
-0.0295419 0.0028444913 0.064653881 -0.63721663 0.10710506 0.76320612 0
-0.0063434262 0.00069019519 0.064627461 0.22027613 -0.36860764 0.90310955 0
-0.0028124352 0.0011486678 0.064427756 -0.0034697456 -0.51675642 0.85612541 0
0.001323159 0.00057231297 0.06466236 -0.25011224 -0.53214455 0.8088671 0
0.032743379 0.0025403071 0.062526405 0.8351413 0.16682711 0.52412564 0
-0.031296439 0.0072583123 0.061557073 -0.76625919 0.26174462 0.58680207 0
-0.028850915 0.0077545806 0.063986339 -0.63862932 0.26091525 0.7239309 0
0.029463613 0.0091912076 0.064572141 0.72289544 0.28644174 0.62878716 0
0.031748019 0.0074299686 0.06219219 0.8204757 0.24297133 0.517479 0
-0.030540975 0.010978512 0.060506772 -0.74673861 0.39920789 0.53199106 0
-0.027825449 0.012402722 0.062530845 -0.63259906 0.42275831 0.64891744 0
-0.024165571 0.01431579 0.064424679 -0.48200956 0.44453412 0.75502074 0
0.028546613 0.013075679 0.063249551 0.69636166 0.41447675 0.58590913 0
0.030827999 0.011264178 0.061502405 0.79110271 0.35194072 0.50029421 0
-0.026123123 0.016251607 0.061237618 -0.59708494 0.57538497 0.55894709 0
-0.022722345 0.017833615 0.062734507 -0.51226634 0.57247388 0.64020056 0
-0.019030452 0.019182969 0.064286932 -0.42414507 0.53882492 0.72785211 0
0.023433164 0.018653566 0.063867599 0.50870317 0.57796949 0.63810056 0
0.026903566 0.017031314 0.061981089 0.64745659 0.51582706 0.5610013 0
-0.021060454 0.020867981 0.061039943 -0.50022113 0.68719494 0.52682257 0
-0.017263282 0.022260686 0.062337045 -0.42498937 0.6948179 0.58018279 0
-0.012650904 0.02365925 0.063556865 -0.29519236 0.69469631 0.65594101 0
-0.0079483185 0.024488444 0.064449608 -0.18914098 0.68226808 0.70621246 0
-0.0045876442 0.024879867 0.064858884 -0.14011091 0.69570404 0.70453161 0
0.0092383344 0.024784666 0.064808451 0.16787761 0.7428661 0.64804876 0
0.013353247 0.024338325 0.064065605 0.25118262 0.73175114 0.63359886 0
0.017676672 0.02337529 0.062922619 0.37034637 0.71237594 0.59612423 0
0.022194268 0.02161295 0.061779492 0.4697322 0.67706358 0.56651258 0
0.025252681 0.020436985 0.060430977 0.5808621 0.63081938 0.51445705 0
-0.011815059 0.025893062 0.061146457 -0.3088854 0.80039346 0.51377052 0
-0.0075718062 0.026598634 0.061966557 -0.20051287 0.80545938 0.55770028 0
-0.0025068244 0.027042881 0.062578455 -0.089576721 0.7931428 0.60241216 0
0.0025275701 0.027294241 0.062539093 0.016218754 0.80535769 0.59256727 0
0.0075738379 0.026707629 0.062666252 0.1404139 0.80178958 0.58087641 0
0.012176902 0.026276132 0.061929993 0.21167402 0.80889976 0.54852092 0
0.016335189 0.025615806 0.06086136 0.34038118 0.78793681 0.51312399 0
-0.015548795 -0.030246215 0.06520696 -0.30544135 -0.65738803 0.68887347 0
-0.012464444 -0.030812899 0.065757394 -0.21534683 -0.62367535 0.7514351 0
-0.0073474199 -0.031464573 0.066220835 -0.11263844 -0.59622604 0.7948755 0
-0.0023946897 -0.031720813 0.066481151 -0.047389358 -0.58897793 0.80675852 0
0.0025560018 -0.031926271 0.066466942 0.0014486088 -0.60304081 0.79770899 0
0.0074886899 -0.031625032 0.066431381 0.086373687 -0.64158231 0.76217574 0
0.012422622 -0.031064982 0.065977104 0.21675687 -0.66707093 0.7127642 0
0.015570858 -0.030467013 0.065343209 0.33935797 -0.69156301 0.63763368 0
-0.020888779 -0.025986049 0.065657817 -0.46033087 -0.46864736 0.75396621 0
-0.017291771 -0.027173016 0.066558443 -0.3016445 -0.45557621 0.83753252 0
-0.012670095 -0.027597629 0.067490935 -0.14102638 -0.35054624 0.9258666 0
-0.0073239584 -0.027442498 0.06803792 -0.067521885 -0.22659607 0.97164553 0
-0.0025408391 -0.027543183 0.068318218 -0.056442086 -0.20290655 0.97757012 0
0.0024581563 -0.027435776 0.068662994 -0.062033791 -0.2333661 0.9704082 0
0.0074572787 -0.027682535 0.068746939 0.011672563 -0.35383299 0.93523574 0
0.012516463 -0.02760954 0.068389475 0.14008385 -0.47069788 0.87110269 0
0.017435689 -0.027340321 0.067114495 0.34604359 -0.56214869 0.75116098 0
