# .PCD v0.7 - Point Cloud Data file format
VERSION 0.7
FIELDS x y z normal_x normal_y normal_z curvature
SIZE 4 4 4 4 4 4 4
TYPE F F F F F F F
COUNT 1 1 1 1 1 1 1
WIDTH 599
HEIGHT 1
VIEWPOINT 0 0 0 1 0 0 0
POINTS 599
DATA ascii
-0.015291441 0.018821707 -4.1817861e-05 -0.10752388 -0.014136074 -0.994102 0
-0.012533085 0.018671881 -0.0001276644 0.011624198 -0.063587792 -0.99790853 0
-0.0094479863 0.019359654 -5.3605312e-05 0.057981033 -0.090086438 -0.99424481 0
-0.015283395 0.021392958 -2.5782996e-05 -0.12020124 0.025744513 -0.99241567 0
-0.012423112 0.02201771 -0.00013957264 0.00014804438 0.04257153 -0.99909341 0
-0.0084062926 0.022019146 -6.9959351e-05 0.026477261 0.0049519371 -0.99963707 0
-0.021017944 0.0045808917 0.0047549224 -0.20532374 -0.46605486 -0.86060154 0
-0.01740399 0.003929724 0.0045310948 -0.09343186 -0.47728091 -0.87376964 0
-0.012590284 0.0038133652 0.0044149319 0.043019626 -0.50502741 -0.86203051 0
-0.0085203331 0.0043402603 0.0046003158 0.16794525 -0.51762283 -0.83896422 0
-0.026105313 0.0086952215 0.0045238468 -0.36646628 -0.30392784 -0.87939197 0
-0.022490773 0.0076124608 0.0037269171 -0.25005054 -0.3718842 -0.89396703 0
-0.017557316 0.0076321899 0.0027520324 -0.1074645 -0.38762951 -0.91552973 0
-0.012483458 0.0076380935 0.0025214688 0.0099917101 -0.39568958 -0.91832995 0
-0.0075577502 0.0073297536 0.0031775306 0.17270957 -0.44064951 -0.88090825 0
-0.0028987085 0.0081156436 0.0039718412 0.26102144 -0.44366878 -0.85733646 0
0.00083406962 0.0091707865 0.0047007557 0.35916963 -0.43078795 -0.82790035 0
-0.027003156 0.012546606 0.0039549503 -0.40308836 -0.16880007 -0.89945889 0
-0.022543561 0.012483367 0.0022554558 -0.29146111 -0.20071809 -0.93528754 0
-0.017626103 0.012519938 0.0011365761 -0.13561408 -0.22791989 -0.96418947 0
-0.01242022 0.012414373 0.00088849297 0.010958773 -0.24301507 -0.96996063 0
-0.0076489695 0.012592789 0.0011371418 0.12814568 -0.26422736 -0.95590931 0
-0.0025465321 0.01253691 0.0022219308 0.26138023 -0.28688949 -0.92161536 0
0.0020722325 0.012808758 0.0038050802 0.39808705 -0.30203623 -0.86619902 0
0.0053069163 0.014706818 0.0047373837 0.50989777 -0.31988794 -0.79854614 0
-0.027304078 0.017615231 0.0036616186 -0.46116582 0.01137721 -0.88724107 0
-0.022537639 0.017462377 0.0016437417 -0.32900214 -0.025426127 -0.94398683 0
-0.01779939 0.017403366 0.0004230573 -0.16686743 -0.063765787 -0.98391527 0
-0.012576971 0.01602567 0.00014482874 0.016928248 -0.14292811 -0.98958826 0
-0.0075070616 0.017263362 0.00022329245 0.06658382 -0.10270985 -0.99248034 0
-0.0024318695 0.017632486 0.0011145878 0.28138581 -0.14402029 -0.94872552 0
0.0025057183 0.017385589 0.0029337765 0.36612132 -0.12380617 -0.92229456 0
0.0059753587 0.017901914 0.0043852003 0.50719631 -0.15087286 -0.84852183 0
-0.026847558 0.022326555 0.0039197728 -0.50032073 0.19622381 -0.8433122 0
-0.022471663 0.02237427 0.0019031329 -0.34735781 0.12683162 -0.92911595 0
-0.01753995 0.022673011 0.00044737398 -0.21033208 0.077789061 -0.97453028 0
-0.012104332 0.024508784 4.2418251e-05 0.00070677302 0.11326567 -0.99356449 0
-0.0067483117 0.022752555 0.00012776021 0.088693768 0.053422909 -0.99462527 0
-0.0024972183 0.022408385 0.00086154713 0.25074261 0.04612704 -0.96695417 0
0.0025107532 0.022658959 0.0026140739 0.39164302 -0.010647537 -0.92005563 0
0.0063608284 0.022378607 0.0043348293 0.4391925 0.04772076 -0.89712471 0
-0.025696713 0.026383679 0.0044205491 -0.53493476 0.31746528 -0.78298181 0
-0.022582589 0.02760308 0.0031811178 -0.43018004 0.29823297 -0.85205758 0
-0.017593369 0.027526502 0.0012821072 -0.24393485 0.26309106 -0.93342316 0
-0.012580309 0.027537981 0.00053127605 -0.04482184 0.20109557 -0.97854567 0
-0.007620268 0.027564185 0.00074828608 0.11306915 0.20736063 -0.97170824 0
-0.0024547307 0.027440837 0.0014896236 0.19318311 0.17733267 -0.96500432 0
0.0025287396 0.027505569 0.0028991259 0.34900215 0.14528747 -0.92579108 0
0.0060218796 0.027371623 0.0045210165 0.49057364 0.062877491 -0.86912829 0
-0.021434488 0.031406857 0.0042091445 -0.40536287 0.44736326 -0.79721206 0
-0.017521717 0.032636728 0.0031562203 -0.29322484 0.39960241 -0.86852586 0
-0.012318898 0.032395512 0.0020013917 -0.07739716 0.36059552 -0.92950553 0
-0.0076939934 0.032486282 0.0019397718 0.022397477 0.27919212 -0.95997399 0
-0.0025475363 0.032487508 0.0026460844 0.21833348 0.27624488 -0.93595898 0
0.0020563158 0.032232374 0.0039207349 0.32308918 0.28687826 -0.90183938 0
0.0055424394 0.030749802 0.0047172038 0.41106987 0.23242152 -0.881477 0
-0.016272856 0.035672456 0.0043987124 -0.30941442 0.58576822 -0.74909168 0
-0.012400774 0.036839236 0.0039229076 -0.17451037 0.46630681 -0.86723936 0
-0.007327334 0.03725408 0.0038258783 0.026756622 0.44354999 -0.89585012 0
-0.0027340231 0.037091956 0.0041568303 0.1582215 0.36849302 -0.916067 0
0.00094071386 0.035934273 0.0046308534 0.28075564 0.30276325 -0.91077477 0
-0.02523056 -0.00012974486 0.0098763797 -0.32767099 -0.70222872 -0.6320653 0
-0.02212433 -0.00077255839 0.0091623981 -0.26998687 -0.70603836 -0.65468842 0
-0.017399844 -0.0015822031 0.0085556256 -0.1391826 -0.73324794 -0.66556418 0
-0.01262951 -0.0014437292 0.0084735071 0.13369611 -0.69494504 -0.70652443 0
-0.0078738499 -0.00085199828 0.0090542287 0.21533087 -0.71650648 -0.66351414 0
-0.0048359074 -0.00045164867 0.009876675 0.35510802 -0.75331092 -0.55355304 0
-0.030522006 0.00453729 0.0097192368 -0.48998713 -0.58036453 -0.65045345 0
-0.027188741 0.0029362673 0.0083809718 -0.4715496 -0.5354324 -0.70068038 0
-0.022619218 0.0022541059 0.006752078 -0.25957823 -0.57002556 -0.77954477 0
-0.017806118 0.0016447994 0.0059485622 -0.11443247 -0.54712349 -0.829193 0
-0.012481948 0.0013686451 0.0060967938 0.099756368 -0.60329384 -0.79125541 0
-0.0071570603 0.002081048 0.0065778433 0.20653136 -0.61645645 -0.75981992 0
-0.0027566233 0.0026285173 0.0078202318 0.35843158 -0.65157366 -0.66856456 0
0.0015975102 0.0040524076 0.0090007437 0.42638242 -0.65332502 -0.62559134 0
-0.031721134 0.008078035 0.0085000973 -0.60785896 -0.36119446 -0.70713931 0
-0.02807924 0.0070696538 0.0063045654 -0.48088789 -0.40717074 -0.77650428 0
-0.02419954 0.0053994469 0.0052264258 -0.33449391 -0.43590686 -0.83552313 0
-0.0014425108 0.005946707 0.005696848 0.33476198 -0.50089061 -0.79814976 0
0.0027870887 0.007463281 0.0068972562 0.46433887 -0.5051406 -0.72747666 0
0.0062195733 0.0084536197 0.008680569 0.55928499 -0.48555183 -0.67189264 0
-0.035185043 0.014501714 0.0098409383 -0.83512968 0.06443166 -0.54626632 0
-0.032520119 0.012507662 0.0075879595 -0.66042322 -0.17615797 -0.72993809 0
-0.029362667 0.01153874 0.0053232545 -0.51872832 -0.19530627 -0.83233196 0
0.0040691425 0.011186415 0.0054946505 0.51338512 -0.36662436 -0.77590096 0
0.0074994587 0.012502947 0.007302315 0.55734885 -0.37560657 -0.74046069 0
0.010700648 0.013700758 0.0093241194 0.71083236 -0.35418594 -0.60767573 0
-0.035075784 0.01528246 0.0098169036 -0.82076186 0.16898599 -0.54570472 0
-0.032501012 0.017494218 0.0075137182 -0.70006317 0.113598 -0.70498723 0
-0.029836664 0.017612018 0.0051631192 -0.63382393 0.046269827 -0.77209216 0
0.0083878422 0.017356589 0.0061684288 0.58238411 -0.1871434 -0.79107916 0
0.011528783 0.017702878 0.0086683407 0.68477452 -0.16423914 -0.71000665 0
-0.031869702 0.022353955 0.008035806 -0.69495428 0.24911161 -0.67452347 0
-0.02921729 0.022897495 0.0057241931 -0.60980886 0.25994259 -0.74870753 0
0.0087559419 0.022750076 0.0057754754 0.57003492 0.019427478 -0.82139075 0
0.011775445 0.022637783 0.008346417 0.6891855 -0.033677995 -0.72380185 0
-0.030841203 0.026469713 0.0089449836 -0.69469398 0.37539139 -0.61358088 0
-0.027921638 0.027698554 0.0068414528 -0.60929489 0.37855002 -0.69674927 0
-0.024736689 0.029464403 0.0052656736 -0.54306018 0.4038474 -0.7362017 0
0.0084443484 0.027569091 0.0060298839 0.55685335 0.12514231 -0.82112956 0
0.011522416 0.02743515 0.0084237438 0.67635536 0.17299514 -0.71597213 0
-0.026571114 0.032133587 0.0083828541 -0.60757411 0.45310411 -0.65234214 0
-0.023113236 0.033226155 0.0062447307 -0.4993619 0.45888287 -0.73489064 0
-0.019825205 0.034699738 0.0052340459 -0.39041272 0.49720335 -0.77483332 0
0.0042700316 0.033958845 0.0053016567 0.37512857 0.26657706 -0.88781494 0
0.0079108132 0.03274997 0.0071366006 0.59392333 0.31301478 -0.7411322 0
0.010627883 0.031768374 0.0091106715 0.67348731 0.33110267 -0.66089773 0
-0.025441224 0.035382137 0.0096840682 -0.61338079 0.51489455 -0.59887195 0
-0.022056881 0.036750101 0.0083631827 -0.44197622 0.62445605 -0.64398122 0
-0.017802563 0.037876099 0.0069034584 -0.37347212 0.59723669 -0.70980769 0
-0.013330819 0.03916328 0.0057585281 -0.30368239 0.60523909 -0.73584139 0
-0.007945599 0.039748427 0.0051483135 -0.032121133 0.50033873 -0.86523372 0
-0.0019944233 0.039380822 0.00534643 0.20227242 0.46875954 -0.85985494 0
0.0028829041 0.037834309 0.0063892668 0.44291151 0.43834293 -0.78210288 0
0.0068134135 0.037134703 0.0085017327 0.51434886 0.44935355 -0.73042911 0
-0.016662408 0.040999543 0.0089416541 -0.38161218 0.62903714 -0.67726249 0
-0.012232723 0.042112563 0.0078732874 -0.2651026 0.64555269 -0.71622783 0
-0.007461051 0.042637944 0.0072438284 -0.07525868 0.65237278 -0.75415236 0
-0.0024340807 0.042472925 0.0074692243 0.19938426 0.62376893 -0.75575006 0
0.002138179 0.041784033 0.0087208524 0.39972892 0.58194607 -0.70820588 0
0.0056000957 0.040334292 0.0098590869 0.42232257 0.60092461 -0.67862606 0
-0.0067929165 0.045180492 0.0097087678 -0.040880054 0.79931659 -0.59951812 0
-0.0037055889 0.045206424 0.0097103911 0.08275263 0.78846884 -0.60948241 0
-0.016245633 -0.0053951931 0.014285617 -0.1763397 -0.87966448 -0.44169512 0
-0.012530676 -0.0054219291 0.01406036 0.071406923 -0.87798738 -0.47332788 0
-0.0094685033 -0.005238221 0.014657859 0.18063956 -0.89371055 -0.41067114 0
-0.030213306 -0.00037149995 0.014881626 -0.6080249 -0.61924565 -0.49683055 0
-0.027099499 -0.0012268769 0.012977567 -0.43360269 -0.7605027 -0.48334694 0
-0.02272323 -0.0027515092 0.012481568 -0.28885061 -0.85479921 -0.43114233 0
-0.017689543 -0.0039259135 0.012077435 -0.15996253 -0.87499881 -0.45693436 0
-0.012526683 -0.0039581037 0.011708249 0.076623127 -0.84011948 -0.53696209 0
-0.0073349681 -0.0031649463 0.012284371 0.28857902 -0.80293745 -0.52154934 0
-0.0027960299 -0.0014920982 0.01297423 0.41858301 -0.77322626 -0.47635004 0
0.0005108699 -0.00034591983 0.014214845 0.52538484 -0.74037427 -0.419305 0
-0.031884909 0.0030158507 0.012889309 -0.65017593 -0.55704051 -0.51669836 0
-0.02880501 0.0010871062 0.011440077 -0.56313652 -0.63874191 -0.52429575 0
-0.0011743734 0.0006784182 0.011035952 0.4195036 -0.72240853 -0.54967511 0
0.0026057172 0.0022550356 0.012259798 0.49045363 -0.73354608 -0.47049487 0
0.0060208822 0.0039088875 0.013452897 0.59269673 -0.68622613 -0.42166847 0
-0.035659857 0.0082113706 0.0135911 -0.85053974 -0.31295052 -0.42266324 0
-0.033860605 0.0067983367 0.011732089 -0.73464191 -0.44926348 -0.50839299 0
0.0047879736 0.005325953 0.010091213 0.54862887 -0.58614099 -0.59619218 0
0.0080942465 0.0070427777 0.012106591 0.65641338 -0.58268124 -0.47917011 0
0.010766508 0.0090126107 0.013635693 0.71357727 -0.56438488 -0.41506273 0
-0.036507979 0.012535761 0.012688856 -0.87105 -0.16313358 -0.46331343 0
-0.034747746 0.010846735 0.010344842 -0.77498215 -0.21228521 -0.59526265 0
0.0095051304 0.010363461 0.010424352 0.56044817 -0.53650153 -0.63092315 0
0.012288777 0.012497313 0.012501995 0.77741665 -0.41518772 -0.47248545 0
-0.036521304 0.017418491 0.012686153 -0.86200672 0.11919239 -0.49268401 0
-0.034758776 0.018411523 0.010282806 -0.78755921 0.14701672 -0.59844512 0
0.013948294 0.017056027 0.011922549 0.8115232 -0.25483751 -0.52582121 0
0.01546458 0.01828739 0.01385311 0.85998744 -0.1944125 -0.47183201 0
-0.035993565 0.022404065 0.013445397 -0.85567409 0.22547999 -0.46581173 0
-0.034268912 0.022909343 0.011023897 -0.7706126 0.26595262 -0.57915938 0
0.014191739 0.022713343 0.010974248 0.80759346 0.014653464 -0.58955741 0
0.015889654 0.022435026 0.013614842 0.86360955 -0.042501692 -0.50236654 0
-0.035451408 0.025838863 0.014456119 -0.81559169 0.34263885 -0.46627107 0
-0.032786235 0.027747469 0.012153895 -0.71962655 0.41060492 -0.55994749 0
0.013946266 0.027679728 0.011526871 0.81470323 0.18741575 -0.54875684 0
0.015695997 0.027201468 0.013923311 0.82462251 0.15417601 -0.54426777 0
-0.031284034 0.031886131 0.013517427 -0.70032072 0.46487948 -0.54169911 0
-0.028770912 0.03314396 0.011485668 -0.66856068 0.48464206 -0.5640468 0
0.0099001341 0.034902949 0.010177363 0.75003177 0.39278549 -0.53213894 0
0.012851555 0.032565046 0.012381581 0.76888341 0.36600766 -0.52426785 0
0.015294658 0.030649999 0.014633837 0.75858414 0.33853912 -0.55672377 0
-0.030147424 0.035092823 0.01484822 -0.69367087 0.53187966 -0.4857209 0
-0.026913099 0.036985159 0.012867102 -0.6332804 0.54885012 -0.54563689 0
-0.023309052 0.038859401 0.011296956 -0.46035728 0.61341971 -0.64170671 0
0.0091462843 0.03809404 0.01147304 0.72486115 0.422858 -0.54384494 0
0.011167352 0.037014406 0.013365159 0.73550063 0.41247377 -0.53749806 0
-0.02540765 0.04022776 0.014629636 -0.57895511 0.66098011 -0.47740591 0
-0.02196479 0.041628953 0.013168132 -0.47148097 0.66413385 -0.5801999 0
-0.017804332 0.043173011 0.011896154 -0.39978781 0.68480051 -0.60927659 0
-0.013398293 0.044473618 0.010644914 -0.31251737 0.75016296 -0.58274215 0
-0.000276201 0.044863217 0.010241698 0.24379548 0.75987655 -0.60262042 0
0.0034048685 0.043819599 0.011566242 0.50466734 0.6660201 -0.54929787 0
0.0070119756 0.041924119 0.012882851 0.55326879 0.65695292 -0.51215863 0
0.010135002 0.040335283 0.014798508 0.73959857 0.52757603 -0.41792029 0
-0.016410053 0.045597441 0.013958121 -0.34814194 0.75083905 -0.56128234 0
-0.012219713 0.046449274 0.012905464 -0.21680714 0.8140732 -0.53877604 0
-0.0074916054 0.046925895 0.012615568 -0.04923185 0.85781521 -0.51159477 0
-0.0024643545 0.046739478 0.012468264 0.12589316 0.85629189 -0.50091434 0
0.001911755 0.045919415 0.013365279 0.39156821 0.81367594 -0.42965776 0
-0.021050224 -0.0053628911 0.018533856 -0.30559912 -0.92271703 -0.2349519 0
-0.017419768 -0.0061992118 0.01745769 -0.22661212 -0.93810636 -0.26192272 0
-0.012484019 -0.0066176141 0.017548211 0.074017733 -0.96402568 -0.25529552 0
-0.0079067908 -0.0058069224 0.017737702 0.27699831 -0.92193294 -0.27076134 0
-0.0046314658 -0.0051565585 0.019581538 0.40006375 -0.90520972 -0.14333299 0
-0.03158766 -0.0014444164 0.018142911 -0.58313811 -0.66782951 -0.46255139 0
-0.027478322 -0.0031237307 0.017365891 -0.27533069 -0.89772421 -0.34392485 0
-0.023067016 -0.0043389052 0.017061559 -0.28451711 -0.92004323 -0.26938912 0
-0.019622089 -0.0049034529 0.015284632 -0.31709895 -0.87970567 -0.3543531 0
-0.0059740939 -0.0045928857 0.016024742 0.35813925 -0.87884462 -0.31522754 0
-0.0024067392 -0.0033414101 0.017356744 0.45855713 -0.84502059 -0.27507371 0
0.0015750682 -0.001008624 0.017616216 0.53946972 -0.8016901 -0.25742078 0
-0.035801884 0.0037386417 0.018526925 -0.78658777 -0.47008196 -0.40037817 0
-0.03363467 0.0016344172 0.016982686 -0.71212775 -0.54816574 -0.43862104 0
0.0038610322 0.00077658513 0.016946618 0.54841012 -0.78844905 -0.27855781 0
0.0071201292 0.0031182808 0.017562022 0.64113754 -0.73355287 -0.2254836 0
-0.037303958 0.0074911085 0.017565934 -0.85655236 -0.32418686 -0.40152329 0
0.0094261719 0.0055728205 0.016764294 0.71452051 -0.64477587 -0.27152252 0
0.011602343 0.0079443716 0.017611632 0.79144841 -0.5796994 -0.19379914 0
-0.038368959 0.012372141 0.017435964 -0.95438665 -0.093774021 -0.28346533 0
0.01404201 0.011816942 0.017083311 0.8238166 -0.5052923 -0.25691625 0
0.015435416 0.013881257 0.01815604 0.90590543 -0.36032885 -0.22248241 0
-0.038481653 0.017498855 0.017557524 -0.9560706 0.041515209 -0.29018179 0
0.016605226 0.017580071 0.017402541 0.92699111 -0.28847322 -0.23973036 0
-0.03778594 0.022562159 0.017584052 -0.92001718 0.19900355 -0.33758852 0
0.017746538 0.022578886 0.017541047 0.9472639 -0.10470439 -0.30286628 0
-0.036395542 0.027363859 0.017819937 -0.85727036 0.37131256 -0.35667142 0
-0.034494165 0.029157039 0.015675394 -0.77044129 0.45471278 -0.44682944 0
0.017465327 0.027612163 0.017444078 0.91347229 0.19057755 -0.35951149 0
-0.035286691 0.03068337 0.019145317 -0.80359828 0.49113378 -0.33618054 0
-0.033039831 0.032713994 0.017167306 -0.7685371 0.50830406 -0.38855848 0
0.014372772 0.03379136 0.016092248 0.7593689 0.4336119 -0.48511806 0
0.016306365 0.032226339 0.017795432 0.83883429 0.31828859 -0.44164398 0
-0.030933483 0.036170322 0.01796511 -0.74745214 0.58397329 -0.31668684 0
-0.028549613 0.038401209 0.016962923 -0.69069922 0.6299569 -0.35508993 0
0.013094889 0.037588812 0.017363559 0.79773468 0.45336205 -0.39759555 0
0.015518229 0.035725094 0.019073321 0.63563597 0.53657919 -0.55502236 0
-0.026355376 0.041155413 0.017961549 -0.6428616 0.70827472 -0.29167742 0
-0.022937223 0.043537538 0.017162358 -0.56517148 0.75223076 -0.33871835 0
-0.019807292 0.044759635 0.015267342 -0.47292295 0.71983886 -0.50811011 0
0.0080725644 0.043305319 0.017363515 0.58955258 0.77806526 -0.21689217 0
0.011226683 0.041186437 0.018149104 0.63324106 0.58391064 -0.5079903 0
-0.020876022 0.045628414 0.018555861 -0.53598309 0.80101752 -0.26663277 0
-0.017355446 0.046965312 0.017405704 -0.36188954 0.87446886 -0.32301751 0
-0.012565973 0.048590392 0.017507825 -0.23335622 0.92003638 -0.31476653 0
-0.0077824285 0.049172789 0.01705825 -0.047567308 0.92786342 -0.36987397 0
-0.0025062123 0.049060453 0.017445873 0.14223933 0.93788838 -0.31643856 0
0.0025754508 0.047328405 0.017502734 0.46872005 0.83310652 -0.29365817 0
0.0058150347 0.045583796 0.018591309 0.59720612 0.74298412 -0.30219108 0
-0.0066096582 0.050143383 0.019546574 0.031877048 0.96311289 -0.26720288 0
-0.0047675134 0.050013185 0.019431327 0.097057454 0.96562487 -0.24113989 0
-0.025935467 -0.0051807375 0.02350612 -0.16655327 -0.9843834 -0.057003424 0
-0.02229666 -0.0058195922 0.022499956 -0.24811064 -0.96411598 -0.094453633 0
-0.017500374 -0.0071065733 0.022575915 -0.19035044 -0.97750163 -0.090869799 0
-0.01249889 -0.0074423826 0.022615431 0.044186212 -0.99409026 -0.099157527 0
-0.0074869678 -0.0066136513 0.022539822 0.28881645 -0.95270574 -0.094535373 0
-0.0042083259 -0.0053830221 0.023079921 0.42545751 -0.89887482 -0.10492785 0
-0.035825182 -0.0013490022 0.023726616 -0.70825356 -0.43715408 -0.55432236 0
-0.032699026 -0.0030157834 0.02235993 -0.42721921 -0.80223405 -0.4170182 0
-0.028151201 -0.0045408891 0.022150926 -0.20567957 -0.95356208 -0.2200347 0
-0.024562221 -0.0049043135 0.020500781 -0.20981683 -0.93931794 -0.27140138 0
-0.0017661887 -0.0040430496 0.02234566 0.48370883 -0.86876428 -0.10618113 0
0.0023230715 -0.0014771526 0.022477271 0.56333262 -0.8209576 -0.093193837 0
-0.037188906 0.0025857191 0.022493552 -0.85524315 -0.40315694 -0.32561278 0
-0.034771692 0.00026444835 0.020222452 -0.68696004 -0.49741668 -0.52977598 0
0.004717818 0.00024468722 0.021962363 0.59229106 -0.80169725 -0.08045423 0
0.0075658541 0.0025981709 0.022539983 0.67110056 -0.73803413 -0.070212312 0
0.010193423 0.0048213736 0.024288408 0.72836488 -0.66958636 -0.14539118 0
-0.038913779 0.0074382834 0.022543011 -0.96850586 -0.20012687 -0.14814043 0
0.0099134138 0.0051446222 0.021117968 0.72933823 -0.68060982 -0.069541223 0
0.012166178 0.0075305616 0.022465659 0.77601671 -0.61549032 -0.13773064 0
-0.040168121 0.013720298 0.02411587 -0.97701311 -0.12893972 -0.1697643 0
-0.039526258 0.012206381 0.022034518 -0.97157168 -0.10681228 -0.21128075 0
0.014514955 0.010748736 0.022330977 0.80858755 -0.56952316 -0.14774857 0
0.016021071 0.013257084 0.022570752 0.88599241 -0.44698679 -0.1233702 0
-0.040276803 0.017515093 0.023938568 -0.97351009 0.061830137 -0.22012557 0
-0.039590877 0.017560259 0.021350672 -0.96001929 0.031552017 -0.27814981 0
0.01771011 0.017610449 0.02229267 0.92843139 -0.29282531 -0.22862303 0
-0.040053111 0.020411473 0.024548277 -0.97172195 0.16340899 -0.17045248 0
-0.039274678 0.022539504 0.022534469 -0.95623332 0.1908915 -0.22176172 0
0.01893736 0.022247257 0.022423316 0.96317953 -0.14843501 -0.22417015 0
-0.037679147 0.027595757 0.022374272 -0.9027887 0.39051223 -0.18020217 0
0.018660305 0.027574258 0.022614235 0.96042293 0.23404372 -0.15103434 0
-0.035789527 0.03122223 0.022665765 -0.83021337 0.54405522 -0.12144888 0
-0.034031957 0.033711918 0.022090342 -0.81251556 0.56666082 -0.13679904 0
0.017689835 0.032387283 0.022433721 0.98173904 0.13639608 -0.13260752 0
-0.031637274 0.036854099 0.022662738 -0.75176483 0.65343302 -0.088740192 0
-0.029264338 0.039377633 0.022242064 -0.70931298 0.69927341 -0.088836201 0
0.014520848 0.038973901 0.022061376 0.92459762 0.23946585 -0.29626909 0
0.016410751 0.036762767 0.022542583 0.80624974 0.52982366 -0.26315033 0
-0.026997954 0.041577436 0.022575825 -0.65700495 0.75171298 -0.057201535 0
-0.023791002 0.044172402 0.022399288 -0.61389405 0.78570688 -0.07614965 0
0.0085398443 0.044225588 0.022076206 0.42621669 0.87778139 -0.21872169 0
0.012767315 0.042659324 0.022486541 0.6253925 0.7607668 -0.17354554 0
-0.02142364 0.045829345 0.022805113 -0.52111739 0.85269612 -0.036688376 0
-0.017463649 0.047932882 0.022436745 -0.42091432 0.90419376 -0.072559372 0
-0.013344337 0.049479444 0.022102708 -0.28503883 0.95186764 -0.11269812 0
-0.0012991065 0.049797464 0.021620544 0.22273387 0.96492541 -0.13895541 0
0.0026218945 0.048398972 0.022465076 0.45761129 0.88266706 -0.10719495 0
0.0062270681 0.046125356 0.02266725 0.61845356 0.77093101 -0.15225214 0
-0.01102364 0.050217744 0.023033632 -0.242909 0.96654379 -0.082391202 0
-0.0075276964 0.050702944 0.022444963 -0.052236494 0.98730165 -0.15002266 0
-0.0032896823 0.050388921 0.022677619 0.18164249 0.96848357 -0.17042746 0
-0.035209473 -0.0050359303 0.027542448 -0.34058508 -0.93339878 -0.11299832 0
-0.033698525 -0.0051237145 0.027940022 -0.0052674455 -0.99967253 0.025040757 0
-0.026064729 -0.0051664845 0.027398409 -0.14266644 -0.98923153 0.032670017 0
-0.022362795 -0.0058078617 0.027431794 -0.23212627 -0.97219312 0.030948717 0
-0.017563557 -0.0071030422 0.027671071 -0.22660752 -0.97097903 0.076477297 0
-0.012493534 -0.0076564285 0.027274519 0.057943609 -0.99702841 0.050762787 0
-0.0073581627 -0.0066950759 0.027411552 0.2787393 -0.95844299 0.060757902 0
-0.0039409944 -0.0054676998 0.027317772 0.40344825 -0.91428536 0.036219742 0
-0.037157472 -0.0025524283 0.027498787 -0.80722243 -0.58134216 -0.1021429 0
-0.032270461 -0.0046418286 0.027518816 0.040262163 -0.99089891 0.12844601 0
-0.028738966 -0.0047172294 0.027603835 -0.14168967 -0.98650414 0.082059421 0
-0.0012564486 -0.0040644207 0.027590059 0.50260669 -0.86365038 0.038659826 0
0.0023046765 -0.0017564211 0.027451118 0.57748616 -0.81623346 0.016510153 0
-0.03831223 0.0025003999 0.027601501 -0.99748641 0.021459639 -0.067530379 0
0.0048344061 0.00014217297 0.027441194 0.62557214 -0.78006029 0.012865413 0
0.0075454232 0.0023074769 0.027573837 0.64101565 -0.76742572 0.012521276 0
0.010256601 0.0047391951 0.026909208 0.75588423 -0.65470332 0.0016113356 0
-0.039286591 0.007533276 0.027570648 -0.96312648 -0.25831333 0.0752436 0
0.012464287 0.0075756032 0.027625417 0.79610997 -0.60432601 0.031606093 0
-0.040295057 0.013023675 0.027377823 -0.99343383 -0.10588156 0.043339867 0
-0.039887998 0.011023049 0.028375166 -0.97756606 -0.16140579 0.13532472 0
0.014612194 0.010587585 0.028022384 0.83420759 -0.54820234 0.05976614 0
0.016206939 0.013036666 0.02748023 0.87237513 -0.48867044 0.012761656 0
-0.04049648 0.017380755 0.027505666 -0.99508613 0.029497111 0.094516702 0
0.018195324 0.017453987 0.027565083 0.93404204 -0.35529017 0.036527719 0
-0.040151354 0.020857068 0.02730974 -0.98615646 0.16098659 0.039731726 0
-0.039703883 0.02329977 0.027669275 -0.97904897 0.2036251 0.00014029673 0
0.019512385 0.022422353 0.027539108 0.99640709 -0.082472585 0.019266265 0
-0.038084548 0.027542006 0.027527573 -0.89297324 0.44943234 0.024683414 0
0.019243009 0.027462263 0.027542111 0.99078888 0.13329718 -0.023859108 0
-0.035887815 0.031443126 0.027409233 -0.83970755 0.54202133 0.033228464 0
-0.034206953 0.033881716 0.027769886 -0.81415302 0.57977706 0.031834196 0
0.01813088 0.032462716 0.02745096 0.9661448 0.25775799 -0.011184381 0
-0.03175592 0.036874168 0.027566902 -0.74132675 0.67082775 0.020610737 0
-0.029460078 0.039371271 0.027485928 -0.74967128 0.66176409 0.0078251921 0
0.014792147 0.039700676 0.027266476 0.8141039 0.58007348 -0.027379543 0
0.016500648 0.037274972 0.027479855 0.86992007 0.47934312 0.11605699 0
-0.026981791 0.04168852 0.027424661 -0.63659149 0.7712009 0.00061512092 0
-0.023792826 0.044088446 0.02766845 -0.58543307 0.80950773 0.044333395 0
0.0093909074 0.044655748 0.02783072 0.52950853 0.84829116 0.0047743688 0
0.012554553 0.042215835 0.027418323 0.68103153 0.72925293 0.066228963 0
-0.021250065 0.045937397 0.027330179 -0.54700166 0.83585215 0.046262633 0
-0.017548656 0.047968488 0.027463967 -0.42504236 0.90048993 0.091961719 0
-0.013413006 0.049522001 0.027775729 -0.28281537 0.95441735 0.095409252 0
-8.2077422e-05 0.049904756 0.027544543 0.31584537 0.94701946 0.058274206 0
0.0027666427 0.048920829 0.027453076 0.43007284 0.90279394 -0.00060700841 0
0.0069656181 0.046429031 0.027296999 0.57682472 0.81684107 -0.006632803 0
-0.010975232 0.050242532 0.027053326 -0.2183457 0.97317702 0.072469085 0
-0.0074395356 0.050856493 0.027632117 -0.13820034 0.98496246 0.10367957 0
-0.0024563447 0.050647933 0.027595619 0.20901875 0.97765821 0.022260286 0
0.00028881562 0.050071873 0.028084788 0.25899237 0.96585518 0.006834825 0
-0.025513669 -0.0050795269 0.030245692 -0.138326 -0.97311717 0.18414351 0
-0.021894898 -0.0054593058 0.03171093 -0.2382541 -0.94498467 0.22414048 0
-0.017555634 -0.0063363011 0.032559533 -0.21930553 -0.94804406 0.23047256 0
-0.012442538 -0.0067858435 0.0325781 0.078042433 -0.97285116 0.21787611 0
-0.007591736 -0.0059348582 0.032362822 0.25058994 -0.94017649 0.2308093 0
-0.0044179042 -0.0052433498 0.030984495 0.37795746 -0.9100033 0.17041726 0
-0.036315374 -0.0015544202 0.030822396 -0.47907066 -0.38345531 0.7895906 0
-0.032593492 -0.0022161885 0.032436214 -0.36667311 -0.75496435 0.54367238 0
-0.027419806 -0.0037019304 0.032382108 -0.21650515 -0.9027034 0.37182257 0
-0.023186134 -0.0043354146 0.033669274 -0.32213062 -0.86254567 0.39018822 0
-0.0054807002 -0.0047764634 0.034496207 0.30982032 -0.89204514 0.32903931 0
-0.0022820327 -0.0038177241 0.032768995 0.43517044 -0.87183756 0.22477974 0
0.0020026457 -0.0014175212 0.032344799 0.54681128 -0.81882215 0.17472211 0
-0.036988366 0.00268004 0.032207187 -0.78219074 -0.29901469 0.54659671 0
-0.034262992 0.0010784623 0.034034532 -0.71081728 -0.48933011 0.50526702 0
0.0043442161 0.00042950382 0.033278052 0.58020341 -0.78725719 0.20878267 0
0.0073381597 0.0027547271 0.032445017 0.66495395 -0.72640228 0.17371193 0
0.010155954 0.004872126 0.030050972 0.7387197 -0.66661859 0.099563554 0
-0.038310345 0.0077220229 0.032613374 -0.93295902 -0.23856135 0.26958504 0
0.0096356981 0.0053672749 0.033794012 0.63954973 -0.74353141 0.19528767 0
0.012015157 0.0076239542 0.032413915 0.77594137 -0.61027485 0.15962324 0
-0.039214384 0.012457602 0.032625515 -0.9574275 -0.1248943 0.26025745 0
0.01437531 0.01102298 0.032575585 0.82787055 -0.53544515 0.16711949 0
0.015828874 0.013394957 0.032364439 0.859119 -0.47192562 0.19799159 0
-0.04001271 0.017196756 0.030108571 -0.97687799 -0.00090177101 0.21379536 0
-0.039564732 0.017504333 0.032677654 -0.98327631 -0.030133802 0.17960995 0
0.017585421 0.017395431 0.032476682 0.91540593 -0.32797542 0.23337547 0
-0.039367389 0.022630891 0.032427743 -0.97140837 0.1583605 0.17688341 0
0.018692324 0.022650659 0.032470062 0.945472 -0.019672757 0.32510868 0
-0.037666149 0.027492236 0.032561086 -0.8785603 0.44673097 0.16900636 0
0.018477939 0.02754825 0.032439016 0.95353144 0.09349706 0.28641939 0
-0.035685014 0.030991614 0.032454394 -0.82848215 0.53701234 0.15885553 0
-0.033881739 0.033493564 0.03272371 -0.78346145 0.58850574 0.19962296 0
0.017269703 0.0326492 0.032489032 0.9203766 0.29106092 0.26113269 0
-0.03128079 0.03683598 0.032377169 -0.76717591 0.62196743 0.15683632 0
-0.029052738 0.039179605 0.032941747 -0.65837681 0.73128825 0.17820655 0
0.014197039 0.038912602 0.033444528 0.77883071 0.53345042 0.32992947 0
0.015732598 0.036780767 0.032080524 0.87889296 0.42139551 0.2235465 0
-0.02676999 0.041351091 0.032409512 -0.63402438 0.75359744 0.17350523 0
-0.023081137 0.043898381 0.032731317 -0.50069296 0.83247334 0.23726518 0
-0.019709641 0.044879299 0.034811705 -0.35933048 0.84284723 0.40061226 0
0.0088965772 0.0442371 0.032831728 0.54612541 0.81181556 0.20664594 0
0.011983544 0.04177627 0.032230336 0.65094233 0.68127531 0.33487016 0
-0.020982625 0.045430876 0.031554855 -0.4317607 0.87396765 0.22307698 0
-0.017422875 0.046697214 0.032503042 -0.37268689 0.86581904 0.33385918 0
-0.012681218 0.048577234 0.032632798 -0.31286177 0.89047611 0.33040854 0
-0.0078621199 0.0495217 0.033523466 -0.12512556 0.92537451 0.35780659 0
-0.0020308297 0.049409006 0.033336464 0.21329191 0.90803879 0.36051655 0
0.0025137626 0.047907323 0.03247885 0.42291346 0.85499394 0.30021578 0
0.0065896632 0.045839213 0.032242782 0.50142008 0.85060126 0.15828882 0
-0.0070414264 0.050271682 0.031350844 -0.098412938 0.97212678 0.21280146 0
-0.0033073148 0.050285794 0.031305529 0.10772306 0.97075945 0.21452701 0
-0.01700446 -0.0054434789 0.036107074 -0.19460815 -0.92522657 0.32570466 0
-0.012655343 -0.0056112721 0.036395006 0.066788539 -0.91270149 0.40313184 0
-0.0088264616 -0.005351353 0.035616215 0.23923841 -0.90009117 0.36414403 0
-0.031102076 -0.00097682572 0.036176041 -0.53050852 -0.67317593 0.51516497 0
-0.027436523 -0.0017101276 0.037513375 -0.28245753 -0.8611834 0.42258841 0
-0.022559032 -0.0031955764 0.037437987 -0.28594825 -0.90737003 0.30807972 0
-0.017870428 -0.0041953232 0.038386941 -0.22304173 -0.87592733 0.42778927 0
-0.012066063 -0.0043618083 0.038901482 0.10282665 -0.87189466 0.47877595 0
-0.0070765303 -0.0038329032 0.037752815 0.26561159 -0.86364436 0.42844948 0
-0.002516337 -0.0020854345 0.037657976 0.38823563 -0.82077986 0.41903856 0
0.00112662 -0.00069404289 0.036422443 0.5115881 -0.78613484 0.34679917 0
-0.035528842 0.0044036894 0.035635691 -0.63489664 -0.462493 0.61887515 0
-0.032317333 0.0023482689 0.037365064 -0.68257731 -0.40156159 0.61060339 0
-0.029356215 0.0006137676 0.039485984 -0.58856267 -0.55047762 0.59208816 0
-2.9882451e-05 0.0003576111 0.039842241 0.43827724 -0.71522498 0.54439533 0
0.0032293962 0.0014412076 0.037812177 0.52849114 -0.7575044 0.38325483 0
0.0064932671 0.0035771434 0.037146404 0.6233471 -0.70213926 0.34414962 0
-0.036398154 0.0079081859 0.037019487 -0.78417432 -0.34745628 0.51414472 0
-0.033657879 0.0061873565 0.03890812 -0.60395002 -0.56355309 0.5636065 0
0.0086903702 0.0063761873 0.038196605 0.66643894 -0.6238851 0.40819907 0
0.011071995 0.0084771458 0.037051283 0.7478801 -0.5409621 0.38475361 0
-0.037519272 0.012667682 0.037649471 -0.89851916 -0.22020084 0.37970358 0
0.013172829 0.012410061 0.037730984 0.79280031 -0.41809979 0.44346389 0
0.015270304 0.014336837 0.035523694 0.82071304 -0.37621805 0.42998835 0
-0.03828495 0.017589243 0.037733216 -0.93398994 -0.02673188 0.35629776 0
0.014405117 0.016750973 0.038867865 0.82394701 -0.27430815 0.49584916 0
0.016003385 0.018024392 0.03679084 0.85580176 -0.23017879 0.46327215 0
-0.037709225 0.022538109 0.037613038 -0.88138539 0.22123775 0.41738915 0
0.014811113 0.021926081 0.039693639 0.79288447 -0.049874678 0.60732752 0
0.016496614 0.022486595 0.037123892 0.86121684 -0.081737764 0.5016219 0
-0.036264472 0.027132118 0.037113506 -0.81508291 0.40579021 0.41349027 0
-0.034424793 0.028916117 0.038729329 -0.75367218 0.45748344 0.4718973 0
0.014972128 0.027283825 0.039946795 0.86580139 -0.0015174242 0.50038546 0
0.016404251 0.027542846 0.037394598 0.87930334 0.061492551 0.47227564 0
-0.035196017 0.030391889 0.035554748 -0.79728979 0.51888776 0.30835789 0
-0.032604396 0.032558806 0.037478343 -0.73377979 0.54593283 0.4043816 0
-0.029804701 0.034704853 0.03951665 -0.68373233 0.55221933 0.4770366 0
0.014540446 0.033190988 0.039112329 0.84599113 0.29637852 0.44323659 0
0.015792094 0.032030374 0.036971834 0.89164108 0.25234666 0.37589538 0
-0.030758144 0.035891213 0.036201674 -0.75010931 0.56459755 0.34433359 0
-0.027905416 0.038047422 0.038001344 -0.63653016 0.65602344 0.4055399 0
-0.02471425 0.03973021 0.039279882 -0.6024375 0.73438829 0.31263855 0
0.0096805673 0.039483987 0.039639793 0.66166222 0.44044349 0.60680521 0
0.012756376 0.037772957 0.037720431 0.70960623 0.54574984 0.44566369 0
0.01522992 0.03556836 0.035447642 0.85900736 0.39380389 0.32714647 0
-0.025927864 0.040704921 0.036349986 -0.44452041 0.77333933 0.45204857 0
-0.022546645 0.042238187 0.037440583 -0.469172 0.7831344 0.40813977 0
-0.018083554 0.044116564 0.038081471 -0.36065304 0.8401953 0.40497065 0
-0.013959052 0.044804145 0.039772302 -0.26293826 0.79281789 0.54982108 0
-0.00030293994 0.044988908 0.03976677 0.17454784 0.86701137 0.46671659 0
0.0034965202 0.044701483 0.039220888 0.26429456 0.84229702 0.46977025 0
0.0081384247 0.042832203 0.03757301 0.61403167 0.67187339 0.4141874 0
0.010787839 0.040674351 0.036531501 0.68713623 0.65587306 0.31252894 0
-0.016533291 0.045525555 0.036270678 -0.35620588 0.87096608 0.33843079 0
-0.012295938 0.046712857 0.037271064 -0.27802715 0.85448587 0.43881071 0
-0.0074543487 0.047417335 0.03761382 -0.036228698 0.83476293 0.54941642 0
-0.0025159945 0.046947312 0.037600234 0.16806448 0.80509847 0.56883276 0
0.0022217212 0.046028327 0.037229814 0.24841073 0.86746651 0.43103814 0
0.0056699193 0.045366127 0.0361178 0.38490349 0.85221934 0.35436076 0
-0.026187958 -0.00042498647 0.040857796 -0.39455274 -0.78387719 0.47944194 0
-0.022447385 -0.0013310555 0.041879535 -0.27508986 -0.83790517 0.47142383 0
-0.017551538 -0.0018434905 0.04263708 -0.082116328 -0.81628346 0.57178503 0
-0.012429389 -0.002164999 0.042147238 0.099065661 -0.78084898 0.61681527 0
-0.0076875668 -0.0013979317 0.041827071 0.23823749 -0.74995744 0.61709535 0
-0.0035944083 -0.00069431472 0.04080591 0.33979565 -0.74471426 0.57440364 0
-0.03047972 0.0040470464 0.040949348 -0.75114501 -0.43172523 0.49939418 0
-0.027739992 0.0023773743 0.04270754 -0.58698446 -0.56124848 0.58348048 0
-0.023435779 0.00065091503 0.044310953 -0.30956846 -0.70688736 0.63598555 0
-0.019506246 4.0257422e-05 0.044912033 -0.11479419 -0.74929106 0.6522156 0
-0.011684099 0.00024573784 0.04478623 0.13721082 -0.66382712 0.7351917 0
-0.0072153099 0.00081313879 0.044117011 0.24237931 -0.68409693 0.68794161 0
-0.0021805551 0.0021516082 0.04309712 0.36217368 -0.66177124 0.65642142 0
0.002055984 0.0032904679 0.041657221 0.44110161 -0.63913924 0.63002408 0
0.0053883167 0.0045744292 0.040491626 0.57926434 -0.61291283 0.5373925 0
-0.035119236 0.0097370297 0.040391073 -0.71946228 -0.43056133 0.54496884 0
-0.032147609 0.0077136792 0.042231608 -0.67459768 -0.49229357 0.55005914 0
-0.029334834 0.0060787322 0.044251114 -0.65544546 -0.46335936 0.59639692 0
-0.00027189218 0.0051874579 0.044915285 0.38847351 -0.54560679 0.74256426 0
0.0031258708 0.0064299484 0.043802451 0.45153365 -0.57554406 0.68181115 0
0.0071384534 0.0079470845 0.041937418 0.59880894 -0.52470583 0.6050716 0
0.010080346 0.0097885933 0.040160336 0.75159538 -0.42168823 0.50723112 0
-0.035705619 0.012954202 0.041434832 -0.82306325 -0.2516692 0.50914586 0
-0.033698831 0.01198071 0.043552332 -0.68902582 -0.32679233 0.64687729 0
0.0085872402 0.012109522 0.043400992 0.66955119 -0.36111152 0.64907604 0
0.011100229 0.013176559 0.04131579 0.70539761 -0.37693334 0.60027945 0
-0.036197864 0.017545486 0.041752581 -0.82529408 0.026358871 0.56408763 0
-0.034278724 0.017599545 0.044178654 -0.71091813 0.047472551 0.70167065 0
0.009512594 0.016790066 0.044590589 0.62990093 -0.2353753 0.74015081 0
0.012170882 0.017753739 0.042244188 0.72631723 -0.19661136 0.65864056 0
-0.035833973 0.021903418 0.041228417 -0.80351567 0.22507425 0.55109358 0
-0.033813704 0.022815436 0.04344824 -0.72103363 0.25514624 0.64421332 0
0.012807134 0.022400249 0.042483095 0.78450185 -0.11846264 0.60870636 0
-0.03523856 0.025453573 0.040275324 -0.80025738 0.34221345 0.49242076 0
-0.032406177 0.027414508 0.042471081 -0.67841655 0.40403962 0.61359841 0
-0.029491805 0.028990546 0.044474166 -0.63481325 0.34885895 0.68942696 0
0.013100469 0.027591623 0.042603601 0.78792214 0.048913479 0.61382908 0
-0.030913558 0.0315351 0.041201495 -0.69392669 0.47466156 0.54144448 0
-0.027980145 0.03302367 0.043113235 -0.60514492 0.49751407 0.6215139 0
-0.024783922 0.034574866 0.04478319 -0.61419857 0.43591729 0.6578269 0
0.0091128387 0.033903293 0.04444433 0.54023427 0.38971752 0.74583328 0
0.012381555 0.032308564 0.042252384 0.69490045 0.28222936 0.66140759 0
-0.026537444 0.036461994 0.041660905 -0.60445642 0.54735076 0.57882607 0
-0.022994857 0.038122687 0.042871654 -0.41927478 0.65551597 0.62809837 0
-0.018442901 0.039304648 0.044274684 -0.32582051 0.65086329 0.68572432 0
0.0038871048 0.039281562 0.044484906 0.34319004 0.51881355 0.78297716 0
0.0078233602 0.037718218 0.042898417 0.54937375 0.49187714 0.67545938 0
0.011188629 0.036305223 0.041217167 0.56956035 0.52133435 0.63546169 0
-0.021390336 0.040691134 0.041125957 -0.39869389 0.72276413 0.56449562 0
-0.017346822 0.041800547 0.042075116 -0.28887627 0.73435813 0.61422193 0
-0.012446357 0.042612307 0.042537447 -0.11739162 0.72354335 0.68022364 0
-0.0075211674 0.043030411 0.042792477 -0.060225241 0.75259298 0.65572619 0
-0.0024425057 0.043058477 0.042858608 0.077402808 0.75471532 0.6514703 0
0.0024239647 0.042484783 0.042233411 0.24480873 0.69522429 0.67581946 0
0.0064359577 0.041343454 0.041226085 0.50794578 0.57227904 0.64380729 0
-0.010610702 0.045226064 0.0401958 -0.11540184 0.68817133 0.71631175 0
-0.0070484299 0.045295656 0.040354688 -0.037590295 0.69901538 0.71411794 0
-0.0039699832 0.045281872 0.040310558 0.13252854 0.79753256 0.58853883 0
-0.017492613 -1.9497811e-05 0.04503867 0.022705104 -0.7273497 0.68589133 0
-0.025989575 0.0039408505 0.045672782 -0.47351512 -0.53328812 0.7009902 0
-0.022465527 0.0030401198 0.046580594 -0.25270268 -0.55503422 0.79251391 0
-0.017459262 0.0024529346 0.04701877 -0.043234389 -0.59360635 0.80359334 0
-0.012373739 0.0025843666 0.046907395 0.11338627 -0.62291992 0.77402472 0
-0.0077492171 0.0033824968 0.046537362 0.21748191 -0.60908473 0.76270401 0
-0.0036658298 0.0041069039 0.045692164 0.32595491 -0.59589809 0.73393381 0
-0.030364821 0.0095116775 0.045435186 -0.61480892 -0.35036883 0.70657748 0
-0.027481392 0.0076408586 0.046741143 -0.53924072 -0.36806491 0.75746137 0
-0.022775043 0.0071845162 0.048880417 -0.26515439 -0.39256656 0.88067281 0
-0.017827796 0.006292732 0.049363691 -0.085744374 -0.44251671 0.89265162 0
-0.012465873 0.0062032333 0.049399648 0.066020966 -0.46790135 0.88131124 0
-0.0072079799 0.0069375876 0.048878316 0.22807628 -0.50192523 0.83429754 0
-0.0024280376 0.0074797464 0.047549337 0.32801828 -0.52137262 0.78776562 0
0.0018734428 0.0085190898 0.046213813 0.42035919 -0.52903348 0.73717147 0
0.0050888071 0.0098104961 0.045134716 0.46898779 -0.49783477 0.72952789 0
-0.031350065 0.012881575 0.045978494 -0.57996404 -0.23213097 0.78086931 0
-0.027487135 0.012392082 0.04836116 -0.48972729 -0.19780333 0.84914136 0
-0.024031973 0.010910817 0.049761683 -0.30895358 -0.2097801 0.92765301 0
-0.0014973751 0.01124601 0.049379524 0.3141138 -0.39243397 0.86448139 0
0.0025411074 0.012491189 0.048108589 0.44434813 -0.37882358 0.81181735 0
0.0061861519 0.012871325 0.045969769 0.55237955 -0.35681745 0.7533645 0
-0.031707074 0.017462771 0.046418991 -0.60668784 -0.0082115978 0.79489779 0
-0.027571298 0.017369106 0.048926786 -0.45748895 -0.0073835049 0.88918459 0
0.0034277244 0.017318003 0.049247198 0.43318942 -0.16550066 0.88597775 0
0.0071259914 0.017784048 0.047029953 0.6151793 -0.21065819 0.75972199 0
-0.03121856 0.022178151 0.046093706 -0.595599 0.23916827 0.76685095 0
-0.027482523 0.022552589 0.04837564 -0.4778606 0.20291308 0.85467857 0
-0.024441203 0.023730299 0.049735077 -0.41094646 0.19435242 0.89070201 0
0.0040071006 0.022125352 0.049526017 0.39132446 -0.024285914 0.91993231 0
0.0075603677 0.022413813 0.047508441 0.55966067 -0.052552197 0.8270539 0
0.010430998 0.02318012 0.045459356 0.68731958 -0.13937981 0.71285701 0
-0.030438533 0.025756517 0.045323849 -0.54763019 0.35500887 0.75767398 0
-0.027248446 0.027347226 0.04697755 -0.53713608 0.30920348 0.78477895 0
-0.023255592 0.027814336 0.049173482 -0.42379591 0.27716118 0.86231005 0
-0.019947924 0.029934231 0.049978659 -0.35377592 0.30329713 0.88479012 0
-0.00019301496 0.029980766 0.049958687 0.19007498 0.22915024 0.95465267 0
0.0031606513 0.027803544 0.049344759 0.3752946 0.17309415 0.91060001 0
0.0076328982 0.027569868 0.047158226 0.4795745 0.1222772 0.86893988 0
0.010547209 0.02730567 0.045458473 0.60815638 0.09357591 0.78828251 0
-0.026259476 0.031380448 0.045815054 -0.52367002 0.44732022 0.725034 0
-0.02263822 0.032505274 0.047435232 -0.43854278 0.43670735 0.78547239 0
-0.017966168 0.033374727 0.049001608 -0.27927497 0.48591426 0.82818639 0
-0.012704857 0.034378927 0.049640633 -0.10641723 0.45253479 0.88537437 0
-0.0072226045 0.034288812 0.049718864 0.090168305 0.38570455 0.91820574 0
-0.0021092903 0.033045564 0.04930057 0.18229951 0.33072266 0.92595327 0
0.002578751 0.032577813 0.048104629 0.32471526 0.33843499 0.88318843 0
0.0071675377 0.032140531 0.046287846 0.44536236 0.30584145 0.84149474 0
0.010093508 0.030276984 0.045226648 0.60487837 0.31847098 0.72986197 0
-0.021593919 0.03599054 0.045704704 -0.33811823 0.58555245 0.73675263 0
-0.017250217 0.037108798 0.046619039 -0.26970264 0.59964448 0.75345004 0
-0.012522976 0.037629332 0.047512945 -0.15798639 0.61002827 0.77647018 0
-0.0076003443 0.037555225 0.047954727 0.073318906 0.53937358 0.83886862 0
-0.0024415688 0.037698314 0.04717337 0.13668013 0.50630534 0.85145372 0
0.0023119228 0.037093788 0.046258032 0.31609267 0.41545376 0.85292649 0
0.0059436802 0.035908479 0.045396235 0.42571524 0.4149279 0.80411524 0
-0.011494151 0.040268518 0.045296852 -0.17402707 0.76269674 0.62290311 0
-0.0076754508 0.040565886 0.045656189 -0.031133994 0.70657647 0.70695144 0
-0.0031515411 0.040508267 0.04541013 0.080454767 0.57272857 0.81578732 0
0.00033887717 0.040285684 0.045146991 0.18881182 0.57776225 0.79406607 0
-0.020869674 0.0092957737 0.050248474 -0.19531326 -0.29584295 0.93505597 0
-0.017340677 0.0089566689 0.050570343 -0.076579966 -0.34659284 0.93488443 0
-0.012525436 0.0085688764 0.050520428 0.037182063 -0.38640627 0.92157888 0
-0.008196434 0.0093444595 0.050425477 0.16258195 -0.41913742 0.89324743 0
-0.022081356 0.01258658 0.050660022 -0.25256175 -0.1626853 0.95380616 0
-0.017566601 0.012428937 0.051433656 -0.10690404 -0.17937875 0.97795445 0
-0.012521958 0.012485043 0.051750012 -0.018458672 -0.23350407 0.9721806 0
-0.0073604691 0.012444248 0.051417727 0.16045099 -0.29624203 0.94153923 0
-0.0032210327 0.012948729 0.050583694 0.2707797 -0.3030616 0.91369134 0
0.00023889361 0.01461434 0.050088305 0.31639862 -0.25236133 0.91444284 0
-0.025222545 0.017223999 0.050077803 -0.38386232 -0.014903288 0.92326999 0
-0.022489691 0.017525345 0.050950415 -0.26857039 -0.011503564 0.96319139 0
-0.017568763 0.017537611 0.052034952 -0.16057093 -0.06280978 0.98502386 0
-0.012390033 0.017524667 0.052574575 -0.049159307 -0.085209876 0.99514949 0
-0.0075818789 0.017611418 0.052458063 0.096546851 -0.085097626 0.99168396 0
-0.0024133024 0.017351568 0.051470712 0.2554495 -0.15928382 0.95361114 0
0.001057009 0.017871203 0.050422501 0.38267088 -0.13821967 0.9134869 0
-0.02219989 0.022443 0.050811298 -0.32644048 0.11890845 0.93770862 0
-0.017520174 0.022498265 0.052049067 -0.19326976 0.05814869 0.97942108 0
-0.012545997 0.022570923 0.052596457 -0.029634181 0.057554502 0.99790245 0
-0.0073227505 0.022288004 0.052530911 0.081121258 0.045601495 0.99566048 0
-0.0024574513 0.022413779 0.051715292 0.22609293 0.075837903 0.97114915 0
0.0014457225 0.022655532 0.050571613 0.35343078 0.018119361 0.93528515 0
-0.021105023 0.026711687 0.050464526 -0.36106753 0.222021 0.90572459 0
-0.017481804 0.027540648 0.051383194 -0.22631775 0.22254688 0.94828963 0
-0.012509661 0.027502021 0.051991753 -0.015671657 0.21030082 0.97751117 0
-0.0074680941 0.027669877 0.051823094 0.10057499 0.21977548 0.97035217 0
-0.0025897927 0.027555086 0.050923474 0.19631626 0.20229743 0.95944554 0
0.0010712079 0.026672328 0.050332859 0.25969416 0.1526055 0.95355672 0
-0.016713034 0.031140415 0.050478939 -0.20615116 0.34428704 0.91595209 0
-0.01231698 0.031987984 0.05069166 -0.046462454 0.34233457 0.93842864 0
-0.0075163757 0.031889245 0.050614007 0.11350422 0.31182405 0.94333583 0
-0.0035178638 0.030877322 0.050242778 0.16952857 0.28720212 0.94274867 0
