# .PCD v0.7 - Point Cloud Data file format
VERSION 0.7
FIELDS x y z normal_x normal_y normal_z curvature
SIZE 4 4 4 4 4 4 4
TYPE F F F F F F F
COUNT 1 1 1 1 1 1 1
WIDTH 645
HEIGHT 1
VIEWPOINT 0 0 0 1 0 0 0
POINTS 645
DATA ascii
-0.029124871 -0.027971767 0.0057198117 -0.62961578 -0.21358784 -0.74697006 0
0.014623086 -0.028594723 0.0054208897 0.57970285 -0.24125917 -0.77829212 0
0.017303582 -0.027348803 0.0075394772 0.69952822 -0.22494255 -0.67827809 0
-0.032493927 -0.022476511 0.007715188 -0.71982551 -0.099898838 -0.68692899 0
-0.029726336 -0.023505168 0.0052011893 -0.62039655 -0.12350527 -0.77450287 0
0.018130349 -0.022472808 0.0071223704 0.71479279 -0.12296148 -0.68844151 0
0.020402366 -0.021827573 0.0095609361 0.76531535 -0.11724884 -0.63288641 0
-0.032315921 -0.017416263 0.0073113549 -0.72015715 0.042233575 -0.69252437 0
-0.029938972 -0.015672518 0.0050834892 -0.65526372 0.071621999 -0.75199717 0
0.018196473 -0.017693931 0.0067034494 0.7054016 -0.0087973913 -0.70875329 0
0.020556735 -0.017787488 0.0092936084 0.78163952 0.0024258576 -0.62372565 0
-0.032047138 -0.012704504 0.0077402787 -0.72737449 0.15951756 -0.66744322 0
-0.02965684 -0.012207312 0.0054381955 -0.6589126 0.15391305 -0.73630494 0
0.018070314 -0.012309391 0.0071491464 0.70605028 0.15672192 -0.69060206 0
0.020451155 -0.013282896 0.0095053827 0.77381736 0.15029904 -0.6153186 0
-0.031365123 -0.0076772566 0.0086789737 -0.72478265 0.29297122 -0.62358481 0
-0.028640678 -0.007048876 0.0061292136 -0.64790434 0.29714987 -0.70137143 0
0.014349155 -0.006425607 0.0055671427 0.62609857 0.32137895 -0.71043378 0
0.016999755 -0.007783467 0.0075399 0.68592614 0.28775558 -0.66835773 0
-0.030438427 -0.0041441661 0.0095061371 -0.69676453 0.39666745 -0.59764045 0
-0.027504237 -0.0024638865 0.0075746495 -0.62486815 0.42644516 -0.65397584 0
-0.02390936 -0.00095864135 0.0055700536 -0.49855405 0.48545036 -0.71817946 0
0.0095395297 -0.00056533352 0.0052128145 0.49248341 0.46084556 -0.73829621 0
0.012978333 -0.0021900756 0.0067596305 0.58901864 0.44292828 -0.67592275 0
0.016146593 -0.0034754316 0.0089587634 0.66471857 0.41225928 -0.62305021 0
-0.026245499 0.0012302488 0.0091263428 -0.57010502 0.56207156 -0.59921271 0
-0.022548644 0.002315487 0.0071796249 -0.47012159 0.57026291 -0.67363632 0
-0.018077802 0.0038790796 0.0058637694 -0.32755604 0.61836392 -0.71437597 0
-0.014039466 0.0047990801 0.0050491565 -0.28356886 0.61430472 -0.73635483 0
0.0036658288 0.0042999214 0.0055507733 0.32101053 0.60935301 -0.72501117 0
0.0079392167 0.0030181175 0.0069126156 0.4527891 0.56248844 -0.69180113 0
0.011814829 0.0016553245 0.0086497292 0.53901005 0.55869687 -0.63033801 0
-0.021048537 0.0056695193 0.0094137071 -0.42812756 0.68218827 -0.59272754 0
-0.017570799 0.0065510054 0.0082724122 -0.34021831 0.69399798 -0.63452202 0
-0.012547071 0.0076724715 0.0075230659 -0.19688821 0.72548229 -0.65947741 0
-0.0075128349 0.0081161903 0.0070337085 -0.052146122 0.71545255 -0.69671267 0
-0.0023657242 0.0077296491 0.0068919463 0.12120026 0.70438176 -0.69939756 0
0.0025019336 0.0071726497 0.0077896644 0.28659225 0.6869849 -0.66776985 0
0.0066950331 0.0061668181 0.0089600245 0.41669938 0.66594976 -0.61876696 0
-0.010382776 0.010149541 0.0097408136 -0.22268727 0.79439461 -0.56510854 0
-0.0072043794 0.010405427 0.0095856087 -0.035200328 0.79785323 -0.60182309 0
-0.0033914386 0.01028451 0.0095024481 0.095363885 0.78329843 -0.61428756 0
-0.011660506 -0.050292183 0.014681339 -0.11440282 -0.86902821 -0.48135442 0
-0.007222225 -0.050368741 0.014442796 0.019598849 -0.84327811 -0.5371201 0
-0.0037842623 -0.050261971 0.014631503 0.11834671 -0.85404342 -0.5065608 0
-0.021741524 -0.045994077 0.013630043 -0.43851277 -0.76168907 -0.47700754 0
-0.017569833 -0.047323886 0.012445509 -0.33375007 -0.78349346 -0.52416503 0
-0.01255651 -0.048534203 0.012159324 -0.1243986 -0.81894821 -0.56022203 0
-0.0075489166 -0.048757713 0.011872926 -0.0052736327 -0.83348864 -0.55251139 0
-0.0023910694 -0.048504066 0.012127041 0.12708019 -0.83604842 -0.53373545 0
0.002402107 -0.047483664 0.01240043 0.27663738 -0.80853224 -0.51937211 0
0.0067657297 -0.046211399 0.013318033 0.41492143 -0.76945442 -0.48557186 0
0.010027723 -0.045158871 0.014791377 0.52550232 -0.71311408 -0.46402106 0
-0.030206939 -0.040197756 0.014829711 -0.69656551 -0.57168269 -0.43356127 0
-0.027067721 -0.041643977 0.012813527 -0.56056732 -0.64638203 -0.51764327 0
-0.023004696 -0.043630604 0.011428021 -0.46436718 -0.69196802 -0.55275989 0
-0.019468082 -0.044776291 0.010082847 -0.39514041 -0.67826104 -0.61953694 0
0.0083507914 -0.044004183 0.011565483 0.47611982 -0.69058979 -0.54442239 0
0.012100483 -0.041999497 0.012900706 0.58802915 -0.61914885 -0.52045786 0
0.015252266 -0.040309116 0.014709789 0.65199101 -0.5435009 -0.52869135 0
-0.031497382 -0.036779404 0.012959791 -0.72796983 -0.47161618 -0.49763244 0
-0.028826365 -0.038670227 0.011277013 -0.60756958 -0.55531877 -0.56787342 0
0.014098904 -0.038370099 0.011329851 0.67240566 -0.53613323 -0.51032519 0
0.016409082 -0.036871117 0.012888825 0.6950134 -0.5061515 -0.51065361 0
-0.035441112 -0.030609615 0.014371821 -0.81979483 -0.32417777 -0.472065 0
-0.033122491 -0.032827608 0.012143315 -0.76482993 -0.35626912 -0.5367564 0
0.018507363 -0.032905061 0.012013454 0.72804385 -0.45092985 -0.51634717 0
0.020680552 -0.031428184 0.013863194 0.75720167 -0.42788333 -0.49351957 0
-0.03597787 -0.0271133 0.013225944 -0.81698215 -0.24097785 -0.52389866 0
-0.034200579 -0.027915798 0.010978778 -0.77709079 -0.22647198 -0.58723104 0
0.019608157 -0.028614592 0.010558755 0.74684745 -0.27030194 -0.60758191 0
0.021523664 -0.027250232 0.012624454 0.80000174 -0.22989979 -0.55420524 0
-0.036714081 -0.022351187 0.012903468 -0.83504182 -0.078466676 -0.54456234 0
-0.03477392 -0.022585617 0.010301115 -0.76409292 -0.092153393 -0.63849014 0
0.022480123 -0.022557145 0.012604177 0.82918239 -0.11843911 -0.5462864 0
-0.036554966 -0.017472643 0.012775463 -0.85174203 0.077244446 -0.51823622 0
-0.034882974 -0.017390255 0.010217872 -0.80032927 0.041946959 -0.5980916 0
0.022727624 -0.017514691 0.012368798 0.83939421 -0.022639468 -0.54305148 0
-0.036048438 -0.012715731 0.013071094 -0.84444833 0.18609029 -0.50227237 0
-0.03430343 -0.01176696 0.010730173 -0.79210347 0.20327555 -0.57554424 0
0.022591298 -0.012525206 0.012780204 0.83142668 0.15686612 -0.53303152 0
-0.035514414 -0.0087239686 0.014042022 -0.83641332 0.27969906 -0.47136107 0
-0.03372911 -0.0070469901 0.012174941 -0.79240286 0.31467047 -0.52257079 0
0.01943459 -0.0066040964 0.010845914 0.74168175 0.33397716 -0.58169359 0
0.021415787 -0.0079738908 0.012955337 0.80271983 0.29758653 -0.51680082 0
-0.031938478 -0.002589996 0.012778642 -0.73793501 0.43860176 -0.51291353 0
-0.029380009 -0.00096137781 0.010717001 -0.68837059 0.47897735 -0.54472625 0
0.018180052 -0.0023069219 0.012265566 0.71618819 0.43946514 -0.54216695 0
0.020460067 -0.00368672 0.0143464 0.78382027 0.4063009 -0.46962252 0
-0.030639473 0.00070127251 0.014002312 -0.69564509 0.52145422 -0.49412888 0
-0.027657431 0.0027660131 0.012364323 -0.62834877 0.58617753 -0.51144278 0
-0.024263192 0.0044633783 0.010570657 -0.50464433 0.65969312 -0.55690122 0
0.013305168 0.0032730228 0.011780609 0.60020393 0.59675616 -0.5325762 0
0.016252272 0.0015860945 0.013455279 0.66081703 0.56565309 -0.49331275 0
-0.025897374 0.0056799715 0.013800805 -0.57100344 0.66784525 -0.47742829 0
-0.022388177 0.0072827288 0.012577247 -0.4622862 0.71269721 -0.52759278 0
-0.018017324 0.0089197252 0.011478023 -0.34608489 0.7641716 -0.54430413 0
-0.013971183 0.0097056255 0.010423582 -0.22304226 0.78046644 -0.58405846 0
0.0035999229 0.0094402917 0.010863194 0.33431727 0.75495225 -0.56416237 0
0.0078624403 0.008013377 0.012058993 0.44461012 0.70915478 -0.54719412 0
0.011461947 0.0064478428 0.01349126 0.57680506 0.65126818 -0.49309808 0
-0.016805561 0.010858868 0.013639686 -0.30899835 0.81697947 -0.48689291 0
-0.012486217 0.011476099 0.012578499 -0.19033498 0.83672625 -0.51348001 0
-0.0075964909 0.012164669 0.012435062 -0.072549284 0.86281961 -0.50027889 0
-0.0024616695 0.012122707 0.012524553 0.10392905 0.85533774 -0.50753927 0
0.0021997946 0.011392592 0.012986108 0.26557812 0.81193024 -0.51984376 0
0.0061880946 0.010510143 0.014130704 0.39876044 0.76722521 -0.50235009 0
-0.020162147 -0.050054751 0.019787807 -0.42234352 -0.8513509 -0.31117141 0
-0.016814373 -0.050799746 0.018298121 -0.32142648 -0.87985939 -0.35004619 0
-0.01254669 -0.051368911 0.017142501 -0.1335004 -0.90031999 -0.41424823 0
-0.0072998898 -0.05190498 0.017510444 0.010478226 -0.91545695 -0.40227944 0
-0.0024644057 -0.051544704 0.017706338 0.16438919 -0.90005237 -0.40358627 0
0.0018367977 -0.050650943 0.018057926 0.25760564 -0.89292949 -0.36921018 0
0.0050756079 -0.050027858 0.01936844 0.38693258 -0.87409043 -0.2936821 0
-0.026215762 -0.045809232 0.018331649 -0.55429995 -0.75144202 -0.3578918 0
-0.022598669 -0.047622014 0.017396495 -0.45061785 -0.79689205 -0.40237609 0
-0.018312471 -0.049365729 0.016527727 -0.37663332 -0.825625 -0.42010793 0
-0.00034133915 -0.049930412 0.015238071 0.19994301 -0.88371366 -0.42317021 0
0.0034433096 -0.04936257 0.016272865 0.31377512 -0.85097498 -0.42117307 0
0.0074307527 -0.048061445 0.017398844 0.42916262 -0.81811315 -0.38276678 0
0.01147296 -0.046004463 0.018077696 0.52032095 -0.75532562 -0.39843357 0
-0.031185534 -0.041107077 0.018069984 -0.7060883 -0.61489493 -0.35120296 0
-0.028280476 -0.043455176 0.017083121 -0.61327887 -0.69044858 -0.38362712 0
0.013537776 -0.043669183 0.016813004 0.58524036 -0.67769623 -0.44522077 0
0.016596787 -0.041564155 0.018132171 0.66824818 -0.59675318 -0.4442184 0
-0.03554374 -0.035728239 0.019035628 -0.8049497 -0.4573561 -0.37799662 0
-0.033405717 -0.037618086 0.017179802 -0.76277637 -0.51783913 -0.38731763 0
0.018433517 -0.038185857 0.016941711 0.70674813 -0.50314355 -0.49734667 0
0.02095243 -0.036392704 0.018719651 0.73373008 -0.50465876 -0.45492813 0
-0.036464471 -0.032395702 0.017582005 -0.8309921 -0.36572176 -0.41916555 0
-0.034635235 -0.034172192 0.015557162 -0.81155747 -0.39909485 -0.4267292 0
0.019726096 -0.034545001 0.015369955 0.73437923 -0.45362154 -0.50489068 0
0.022387272 -0.032360982 0.017431377 0.7891894 -0.39832303 -0.4674601 0
-0.038155053 -0.027377663 0.01745487 -0.8882513 -0.23399003 -0.39529499 0
0.02392152 -0.028050574 0.016947392 0.85311389 -0.26238361 -0.45094523 0
0.025350202 -0.0266761 0.019047545 0.89221883 -0.20764096 -0.40103716 0
-0.039024759 -0.022475587 0.017617425 -0.93729621 -0.055906255 -0.34402075 0
0.024448844 -0.023084501 0.015979195 0.87648666 -0.1106215 -0.46854451 0
0.025782924 -0.022433368 0.018484905 0.90333205 -0.10201599 -0.41663396 0
-0.038898356 -0.017504601 0.017408896 -0.92488909 0.073057435 -0.37315229 0
0.024635794 -0.017471403 0.015558036 0.86702567 -0.012010314 -0.49811876 0
0.025843924 -0.017799439 0.018004272 0.91415125 -0.012117704 -0.40519214 0
-0.038241178 -0.012697482 0.017358711 -0.89899904 0.16276638 -0.40658078 0
0.02444325 -0.011996013 0.016136605 0.86881751 0.18503825 -0.4592568 0
0.025635254 -0.012743935 0.018286364 0.90985757 0.1664937 -0.38005131 0
-0.037004437 -0.0073208837 0.017801318 -0.85330248 0.30312341 -0.42425352 0
-0.034886878 -0.0050758328 0.015295365 -0.824166 0.35411879 -0.4419845 0
0.023551766 -0.007330623 0.017190468 0.85194004 0.33163375 -0.40523735 0
0.025169795 -0.0091823479 0.019323722 0.89273566 0.28281578 -0.35076821 0
-0.035770535 -0.0038116346 0.018164948 -0.82625628 0.38727611 -0.40904486 0
-0.034024071 -0.001745421 0.016915897 -0.78177714 0.45290533 -0.42860374 0
0.019526673 -0.00068449107 0.015802158 0.75795108 0.51083964 -0.40565142 0
0.021583844 -0.0026995086 0.017576257 0.80941445 0.44514671 -0.3830049 0
-0.03194873 0.0020944427 0.017782105 -0.72461963 0.54828769 -0.41750091 0
-0.02927383 0.0040211952 0.016068583 -0.64303172 0.62783551 -0.43855768 0
0.01475364 0.004756446 0.015393722 0.63228577 0.63117903 -0.44925255 0
0.017665565 0.0028425041 0.017343674 0.70908833 0.58441091 -0.39453468 0
0.020321313 0.00062526774 0.019202188 0.778705 0.51989722 -0.35117719 0
-0.030406589 0.0052673859 0.019602375 -0.66214615 0.64049375 -0.38901186 0
-0.027266115 0.0070890905 0.017798955 -0.59091163 0.6850664 -0.42603704 0
-0.023791321 0.0091128312 0.01673352 -0.49404159 0.75903231 -0.42401984 0
0.0093096849 0.0096814195 0.015910467 0.51125121 0.74830431 -0.42268518 0
0.01271743 0.0078754434 0.017436069 0.59697211 0.70093668 -0.39027199 0
0.015947672 0.0057633477 0.018893847 0.6446088 0.6772455 -0.35470834 0
-0.021694107 0.011084269 0.01824888 -0.42423648 0.8254844 -0.37228891 0
-0.017653039 0.012516132 0.017540073 -0.32052693 0.86577243 -0.38431838 0
-0.012698234 0.013830012 0.017173331 -0.1928207 0.90065151 -0.38941878 0
-0.0075196116 0.014339446 0.016676497 -0.061725851 0.91259652 -0.40417516 0
-0.0022969858 0.014239548 0.016537031 0.079413079 0.89851725 -0.43169463 0
0.0027671494 0.013537994 0.017251275 0.27228075 0.8778159 -0.39408448 0
0.0074674222 0.011664653 0.017541559 0.45146605 0.80144054 -0.39226466 0
0.010598574 0.010506429 0.019248117 0.5562253 0.75779873 -0.34110785 0
-0.010866268 0.015229191 0.019626472 -0.16065842 0.91436148 -0.37166107 0
-0.0071364311 0.015354434 0.018982422 -0.060352784 0.92666006 -0.3710238 0
-0.0028390326 0.015353845 0.019006712 0.072779581 0.93806708 -0.33872294 0
0.00066084519 0.015095188 0.019696996 0.22746164 0.92956078 -0.29013434 0
-0.021165494 -0.050571036 0.022922957 -0.41447854 -0.87610346 -0.24627267 0
-0.017532768 -0.051920373 0.022521891 -0.32960179 -0.90800589 -0.25862688 0
-0.012368917 -0.053413831 0.022394441 -0.17915325 -0.94351494 -0.27871785 0
-0.0074907076 -0.053784613 0.022439439 0.029632041 -0.95271498 -0.30241704 0
-0.0024690465 -0.053292945 0.022500578 0.1622781 -0.94739664 -0.27587241 0
0.0027600273 -0.051859181 0.022375654 0.3282226 -0.9062925 -0.26627767 0
0.0062981546 -0.050622698 0.022984607 0.38142186 -0.89152861 -0.24432413 0
-0.027138883 -0.046792712 0.022794472 -0.59240192 -0.76638561 -0.24842098 0
-0.023379063 -0.049085587 0.021954825 -0.48687425 -0.83026564 -0.27131626 0
0.0088864109 -0.049211118 0.022300748 0.44734928 -0.85511565 -0.26202276 0
0.01227276 -0.047300193 0.022501538 0.51402432 -0.81635666 -0.26332653 0
0.015579649 -0.045420796 0.023558995 0.60595757 -0.76039743 -0.2336904 0
-0.032063983 -0.042193167 0.022660382 -0.71856159 -0.65557736 -0.23213702 0
-0.029410323 -0.044457022 0.021350799 -0.63769782 -0.72471499 -0.26101679 0
0.0147614 -0.04467478 0.020210901 0.58825773 -0.71467358 -0.37841055 0
0.017862605 -0.042688634 0.022206735 0.68591303 -0.6536603 -0.3197681 0
0.02046613 -0.040486429 0.023799038 0.76653987 -0.582322 -0.2707724 0
-0.036224011 -0.036976546 0.02273982 -0.80621338 -0.52599895 -0.27082303 0
-0.034378745 -0.039034445 0.021607954 -0.76217955 -0.58029509 -0.28694934 0
0.019676952 -0.039506804 0.020361463 0.7417708 -0.53159791 -0.4088763 0
0.022150394 -0.037304278 0.022513418 0.80171514 -0.50506866 -0.31962234 0
-0.040051293 -0.030274646 0.024701312 -0.93635947 -0.27456269 -0.21873805 0
-0.038438991 -0.032706499 0.022585729 -0.88012391 -0.3720147 -0.29493558 0
0.024214298 -0.032907069 0.021722656 0.86830008 -0.38463041 -0.31323239 0
0.025458761 -0.031168213 0.023236251 0.89957643 -0.33521238 -0.27999082 0
-0.040375516 -0.027237207 0.023527976 -0.95674765 -0.14892322 -0.24991141 0
-0.039512459 -0.028117396 0.02126432 -0.92079324 -0.21746777 -0.32380182 0
0.024791351 -0.029988412 0.020007119 0.85817635 -0.34782299 -0.37756148 0
0.026450334 -0.027524959 0.022614293 0.92158276 -0.25703466 -0.29089254 0
-0.04055012 -0.022512721 0.022645924 -0.96918589 -0.0377874 -0.24341506 0
-0.039914623 -0.023264496 0.020352788 -0.95895779 -0.053215787 -0.27851036 0
0.027421126 -0.022337426 0.022591859 0.94743311 -0.10352893 -0.30274138 0
-0.040692847 -0.017360084 0.02291674 -0.96789986 0.011546366 -0.25107065 0
-0.039940916 -0.01707902 0.020220973 -0.9480502 0.048073441 -0.31446725 0
0.027643833 -0.017669041 0.022655314 0.95110404 0.023848077 -0.30794871 0
-0.040552378 -0.012793154 0.023471592 -0.95371699 0.1110494 -0.27944937 0
-0.039671015 -0.012048441 0.021077273 -0.9291876 0.15739574 -0.33442041 0
0.027115213 -0.012774997 0.022584163 0.94133389 0.17659782 -0.28758258 0
-0.040196028 -0.0090768542 0.024211936 -0.93319529 0.22574139 -0.27961996 0
-0.038934018 -0.0072038663 0.022200642 -0.89702535 0.28579623 -0.33714399 0
0.024588812 -0.0056869127 0.021313732 0.88187665 0.37752977 -0.28242671 0
0.025852172 -0.0078855092 0.022757579 0.90928662 0.32340097 -0.2619347 0
-0.037112243 -0.0025337297 0.022477088 -0.83692813 0.42536816 -0.34440273 0
0.023378164 -0.002549676 0.02249934 0.84859478 0.46618187 -0.25012273 0
0.025098031 -0.0046540122 0.024716685 0.87593448 0.42884979 -0.22096743 0
-0.03554884 0.001053651 0.023697114 -0.79278147 0.52666992 -0.30678377 0
-0.033630081 0.0028410372 0.022169605 -0.75911415 0.55737668 -0.33626905 0
0.018913113 0.0038503278 0.021691974 0.74523604 0.60732973 -0.27527043 0
0.020968616 0.0014881585 0.022741597 0.8060962 0.54128474 -0.23920661 0
-0.03113314 0.0061686118 0.022853594 -0.67369002 0.67254311 -0.30631265 0
-0.028247043 0.0085922126 0.02235394 -0.61165023 0.73513967 -0.29232442 0
0.013953988 0.0090317465 0.0220761 0.62224132 0.72883683 -0.28567922 0
0.016688613 0.006650337 0.022574358 0.69037706 0.67580914 -0.25818908 0
-0.025958445 0.0106544 0.023278045 -0.518489 0.81322831 -0.26425165 0
-0.022792641 0.012135758 0.022419145 -0.43817046 0.85354662 -0.28189501 0
-0.017908078 0.014128628 0.022010451 -0.32003018 0.90186423 -0.29020968 0
-0.01440908 0.01473533 0.020406097 -0.24817987 0.91485655 -0.3185032 0
0.0037467612 0.014641327 0.020758493 0.28106225 0.90574324 -0.31722724 0
0.007797786 0.013464119 0.022447946 0.4514873 0.84915417 -0.27403709 0
0.011562929 0.011171412 0.022736408 0.57327873 0.77246338 -0.27322507 0
-0.016048966 0.015330253 0.023898281 -0.28411111 0.92198676 -0.26309928 0
-0.012233203 0.015955484 0.022681395 -0.19080499 0.94148397 -0.27785146 0
-0.0075349878 0.016486133 0.022452381 -0.057005681 0.95967686 -0.27526486 0
-0.002609275 0.016408067 0.022416776 0.08998467 0.95732433 -0.27465039 0
0.0022799957 0.015714429 0.022963123 0.23752211 0.9340694 -0.26664153 0
0.005421747 0.015215845 0.024613863 0.34723318 0.91736799 -0.19458945 0
-0.010421476 -0.05508687 0.028854145 -0.12037458 -0.98927569 -0.082725331 0
-0.0075648716 -0.055116102 0.028650196 0.0090599023 -0.99691314 -0.077987418 0
-0.0045914007 -0.055084098 0.029305419 0.078561269 -0.99410176 -0.0747649 0
-0.022200922 -0.051067736 0.027825797 -0.4494476 -0.88348246 -0.1321193 0
-0.017490912 -0.052996695 0.027429756 -0.31867927 -0.937792 -0.13780271 0
-0.012832119 -0.054340135 0.027383778 -0.23170625 -0.96287245 -0.13852358 0
-0.0073043634 -0.054732315 0.026188334 0.034133203 -0.98148519 -0.18847184 0
-0.0024053715 -0.054461941 0.02734221 0.16764562 -0.96898383 -0.18156312 0
0.0025723197 -0.053166073 0.027487611 0.33229589 -0.92789698 -0.16907576 0
0.007360057 -0.051169515 0.027722301 0.42567977 -0.89533728 -0.13102645 0
0.010068038 -0.050047174 0.029077839 0.44746298 -0.88950807 -0.092478856 0
-0.030436533 -0.045365378 0.02838706 -0.68832535 -0.71795732 -0.1036605 0
-0.027472746 -0.047646433 0.027391294 -0.60103863 -0.78953058 -0.12407263 0
-0.024499157 -0.049620815 0.02655145 -0.51708454 -0.84182811 -0.1547544 0
0.0095619056 -0.049802605 0.025845269 0.4521144 -0.87926149 -0.14997295 0
0.012543325 -0.048295841 0.027236991 0.52377677 -0.83915824 -0.146531 0
0.016162544 -0.045859251 0.027636094 0.62683469 -0.76847064 -0.12857343 0
-0.035194859 -0.040374883 0.028582662 -0.79780823 -0.58999467 -0.12412968 0
-0.032538462 -0.042981248 0.027434612 -0.72040296 -0.67820764 -0.14510022 0
0.018621424 -0.043534249 0.027242798 0.70191348 -0.70181096 -0.12156831 0
0.020910179 -0.04113996 0.027632447 0.75658345 -0.64290631 -0.11938599 0
-0.037000265 -0.037477765 0.027336841 -0.82633066 -0.54700965 -0.13400738 0
-0.034916915 -0.039913483 0.025476092 -0.76234061 -0.61545569 -0.20012753 0
0.023379752 -0.037564136 0.027621899 0.8614338 -0.49565798 -0.11070258 0
-0.040383674 -0.031043317 0.027889868 -0.94107717 -0.31358501 -0.12664187 0
-0.039270788 -0.033596277 0.027458524 -0.89405686 -0.42719266 -0.13479157 0
0.024764903 -0.034460895 0.026044818 0.89646679 -0.39906445 -0.19260007 0
0.025935257 -0.032268263 0.027535351 0.91669881 -0.37564018 -0.13622691 0
-0.041188255 -0.027329424 0.027413025 -0.97246999 -0.16093679 -0.16852707 0
0.027607525 -0.027370103 0.027471744 0.95847917 -0.25367635 -0.13025354 0
-0.041668337 -0.022609849 0.02747024 -0.97694135 -0.056877289 -0.20579281 0
0.028450556 -0.022670189 0.02730537 0.9845472 -0.11035512 -0.13597347 0
-0.041861903 -0.017362202 0.027599955 -0.97490561 0.0081942845 -0.22246757 0
0.028758194 -0.017448002 0.027626228 0.99047357 0.025858266 -0.13525338 0
-0.041569792 -0.012519343 0.027580624 -0.9699567 0.11037526 -0.21679771 0
0.028237939 -0.012444454 0.027714724 0.97140074 0.18870026 -0.14412817 0
-0.04072744 -0.0079964036 0.027663605 -0.94356495 0.26427287 -0.19961235 0
-0.039782744 -0.0058034626 0.026348371 -0.92794585 0.29244825 -0.23106401 0
0.02667395 -0.0072435779 0.027473109 0.92483002 0.35025746 -0.14835502 0
-0.040097583 -0.0048115412 0.029530203 -0.93570751 0.31992084 -0.14866802 0
-0.038755246 -0.0026054345 0.027523302 -0.8917343 0.41033441 -0.19088089 0
0.024020638 -0.0016096301 0.027351802 0.86224985 0.48512018 -0.14554597 0
0.02535497 -0.0041081761 0.027520856 0.88983566 0.43692061 -0.13150264 0
-0.036244132 0.0018826145 0.027644189 -0.81058979 0.54858738 -0.20492955 0
-0.034408398 0.0040654987 0.026555708 -0.77907711 0.57911289 -0.24013974 0
0.019575648 0.0046824026 0.026132077 0.76038158 0.62145239 -0.18872415 0
0.021633072 0.002216279 0.027716301 0.81544185 0.55960703 -0.14796798 0
-0.03216245 0.006923188 0.027653301 -0.68501318 0.69984281 -0.20242766 0
-0.029203353 0.0094377594 0.027311824 -0.60285485 0.77289408 -0.19799189 0
0.014617586 0.0098231938 0.026306238 0.6677714 0.72282696 -0.17777096 0
0.017372901 0.0074323057 0.027545968 0.70489347 0.69196838 -0.15590023 0
-0.02694585 0.011129319 0.027820595 -0.53215224 0.83186489 -0.15752696 0
-0.022579147 0.01348024 0.027577367 -0.43772501 0.88602418 -0.15283321 0
-0.019590402 0.014775811 0.026866741 -0.39177635 0.90579075 -0.16141362 0
0.0084895287 0.0142309 0.027226698 0.47356835 0.87166846 -0.12620296 0
0.012476986 0.011739179 0.027574906 0.58598012 0.79955387 -0.13168462 0
0.015002422 0.010087658 0.029761935 0.65240628 0.74950492 -0.11228719 0
-0.017151043 0.015823899 0.027604692 -0.32097605 0.93339902 -0.16043915 0
-0.012464898 0.017085066 0.027569262 -0.19893329 0.96254891 -0.18418795 0
-0.0075817122 0.017693387 0.027510811 -0.060733553 0.97980934 -0.19048662 0
-0.0024336996 0.017642112 0.027578417 0.10193127 0.97507161 -0.19709264 0
0.002528229 0.016657544 0.027480561 0.26740777 0.95088589 -0.15591386 0
0.0060697147 0.015466898 0.027578084 0.3934209 0.90861368 -0.14014708 0
-0.010769014 -0.055125654 0.032752983 -0.11767826 -0.99280733 -0.022033565 0
-0.0077192187 -0.055229854 0.032538947 -0.014106945 -0.99964142 -0.022760361 0
-0.0036692759 -0.055138137 0.032400589 0.079892308 -0.99639452 -0.028553162 0
-0.022628844 -0.051270485 0.03259686 -0.47302958 -0.88053375 -0.030054213 0
-0.017688395 -0.053408597 0.032293011 -0.32428938 -0.94465601 -0.049613301 0
-0.013180043 -0.054674383 0.032321025 -0.20713097 -0.97776574 -0.032724105 0
-0.001244702 -0.054763775 0.032368291 0.21600583 -0.97534907 -0.045118295 0
0.0025445246 -0.053631105 0.03244558 0.32792118 -0.9442811 -0.028297793 0
0.0074947225 -0.051556814 0.032503136 0.43151948 -0.90093809 -0.045842368 0
0.010439736 -0.050183877 0.033278115 0.42577204 -0.90482402 -0.003416568 0
-0.030777326 -0.045540031 0.032412566 -0.64913172 -0.75844914 -0.058163051 0
-0.027605314 -0.048036724 0.03252618 -0.59762955 -0.80105579 -0.033888455 0
-0.024930403 -0.049917564 0.031755444 -0.56699818 -0.82286114 -0.037585892 0
0.012803049 -0.048734907 0.032617103 0.53423452 -0.84517598 -0.016464213 0
0.016332118 -0.046183329 0.032512218 0.64350015 -0.76544261 -0.0022652873 0
-0.035477463 -0.040570892 0.03281692 -0.80846465 -0.58809322 -0.023048194 0
-0.033174168 -0.043133479 0.032386173 -0.72795516 -0.68289971 -0.061067384 0
0.018746151 -0.043923501 0.032702394 0.70527643 -0.70888245 -0.0084246797 0
0.021228086 -0.041286778 0.032389335 0.76584136 -0.64100212 -0.051022105 0
-0.037472777 -0.037520532 0.032526612 -0.84932512 -0.52716273 -0.027320532 0
0.023785153 -0.037333783 0.032540467 0.88096362 -0.47310728 -0.0085189622 0
-0.040529143 -0.031623784 0.032614965 -0.93188947 -0.36145404 -0.030543402 0
-0.039471984 -0.034020878 0.03215285 -0.89607036 -0.44325411 -0.024160851 0
0.024987007 -0.034919586 0.034566451 0.91520399 -0.39119107 0.096805438 0
0.026122203 -0.032503594 0.032512061 0.92125559 -0.3869426 0.039541669 0
-0.041728903 -0.027648052 0.032548193 -0.97204697 -0.22505042 -0.066909999 0
0.027778476 -0.027615646 0.032519013 0.96769589 -0.247154 0.049794227 0
-0.042501681 -0.022623323 0.032565571 -0.99104786 -0.086781822 -0.10145459 0
0.028637491 -0.022566607 0.032451335 0.99234098 -0.11621783 0.041866831 0
-0.042697255 -0.017781464 0.032623202 -0.99480265 -0.00045689882 -0.10182121 0
0.029039469 -0.017394701 0.032484017 0.99963492 0.00066679664 0.02701186 0
-0.042391658 -0.012324069 0.032499623 -0.98643261 0.12316667 -0.10853902 0
0.028556803 -0.012395591 0.032647759 0.98378366 0.17867589 0.015636053 0
-0.041415088 -0.0075109829 0.032594692 -0.94951832 0.29498109 -0.1067756 0
0.027159866 -0.0074266652 0.032386277 0.93703485 0.3490895 -0.010109782 0
-0.040292583 -0.0043665082 0.033032957 -0.91379339 0.39956665 -0.07299421 0
-0.039062407 -0.0019492026 0.032333933 -0.8895008 0.45407611 -0.051021501 0
0.024257431 -0.0011927249 0.032658804 0.86893666 0.49490559 -0.0041807294 0
0.025575403 -0.0036942302 0.032776244 0.8988747 0.43759832 -0.023065219 0
-0.036502685 0.0024231053 0.03266865 -0.8356334 0.54919243 -0.01022033 0
-0.034835789 0.0048484155 0.032852091 -0.80126554 0.59812355 -0.014894057 0
0.021942465 0.0023968115 0.032498393 0.82366079 0.56675345 0.019324644 0
-0.032657728 0.0072993725 0.032621928 -0.71230507 0.70017135 -0.048801556 0
-0.029767288 0.0098077357 0.031615991 -0.60542059 0.79181576 -0.080583625 0
0.017635429 0.0077586193 0.032405164 0.72247022 0.69125867 -0.014081445 0
0.020086857 0.0050844154 0.032304514 0.79650968 0.60454416 0.0099404603 0
-0.027321544 0.011463203 0.032465432 -0.53343153 0.84282869 -0.071347944 0
-0.022819985 0.013974724 0.032338373 -0.43433672 0.89832246 -0.066092797 0
0.0088426648 0.014440936 0.032462802 0.47077197 0.88225466 0.00071033905 0
0.012417548 0.012242815 0.032262091 0.56603837 0.82395953 -0.026290944 0
0.015193631 0.010250598 0.03296138 0.6537509 0.75656563 -0.014772603 0
-0.020369027 0.015139709 0.03295527 -0.37531367 0.92503732 -0.058699895 0
-0.017330522 0.016283078 0.032576475 -0.34023806 0.93915939 -0.047092989 0
-0.012736411 0.01760008 0.032442838 -0.20297889 0.97821921 -0.043436073 0
-0.0074543389 0.018337106 0.032387875 -0.083338611 0.99440998 -0.064834841 0
-0.002528118 0.018297181 0.032336593 0.12793303 0.98983562 -0.062116846 0
0.0025481011 0.017133253 0.032224711 0.30159777 0.95294005 -0.030724127 0
0.0065400251 0.015590036 0.032642368 0.41659623 0.90892261 0.017528798 0
-0.010946953 -0.055105586 0.036611155 -0.12668788 -0.98985147 0.064375386 0
-0.0074110697 -0.055230755 0.036932986 0.011361242 -0.99753678 0.069219284 0
-0.0038029561 -0.055108521 0.036304563 0.079702809 -0.99273318 0.090157799 0
-0.02237305 -0.051361278 0.037366383 -0.46634579 -0.88307714 0.051926751 0
-0.017647056 -0.05345026 0.037358053 -0.33365831 -0.94078016 0.060041044 0
-0.012871968 -0.054680407 0.03763134 -0.17589311 -0.98042721 0.088453203 0
-0.0075494368 -0.054925125 0.039379694 0.0058916141 -0.9850415 0.1722168 0
-0.0019214305 -0.054656316 0.037756145 0.17622912 -0.97421336 0.14089562 0
0.0027528277 -0.053406298 0.037355326 0.33157232 -0.93563741 0.1210056 0
0.0074207545 -0.051410332 0.037558932 0.43976939 -0.88894731 0.12796697 0
0.010200245 -0.050119743 0.036377285 0.46990138 -0.87716472 0.098867364 0
-0.030712593 -0.045480803 0.037220404 -0.63674563 -0.76801825 0.068578996 0
-0.027570464 -0.047959767 0.037467368 -0.60704792 -0.79246926 0.059036434 0
-0.024910284 -0.049875755 0.038471226 -0.54411954 -0.83326387 0.098005466 0
0.0098095955 -0.049880583 0.039310198 0.46090657 -0.86987686 0.17572527 0
0.012518824 -0.048469622 0.037588198 0.54943031 -0.82177228 0.15105177 0
0.016049605 -0.045882821 0.037408799 0.62059146 -0.76687568 0.16360867 0
-0.035326563 -0.040556595 0.03703187 -0.81296408 -0.57567954 0.087649465 0
-0.033119861 -0.04304919 0.037813455 -0.73028654 -0.67738664 0.08848118 0
0.018585581 -0.043489866 0.03760558 0.69489253 -0.69841242 0.17130229 0
0.020939436 -0.041235652 0.037337281 0.72239339 -0.66439611 0.19163895 0
-0.037149511 -0.037732806 0.037640493 -0.84213269 -0.53241211 0.085731365 0
0.023264706 -0.037530262 0.037561689 0.86991441 -0.45760411 0.18397634 0
-0.040585946 -0.03136418 0.037279349 -0.91919023 -0.38911244 0.06067032 0
-0.039471645 -0.033680081 0.03773379 -0.89105099 -0.44549254 0.086973839 0
0.024660453 -0.03408388 0.038534537 0.90667266 -0.36233118 0.21601138 0
0.025757641 -0.031934477 0.037152391 0.92402369 -0.33583543 0.18274248 0
-0.041914444 -0.027287286 0.037573751 -0.96967715 -0.23944746 0.048896927 0
0.027130842 -0.02748635 0.037651684 0.94344831 -0.2671383 0.19632207 0
-0.042704739 -0.022434967 0.037388839 -0.99494016 -0.094650313 0.033694223 0
0.028248062 -0.022406718 0.037572581 0.98018098 -0.12283946 0.155421 0
-0.04294407 -0.01751864 0.037395131 -0.99993372 0.0017892499 0.011374534 0
0.028469954 -0.017460307 0.037495982 0.9820658 0.0096810358 0.18828988 0
-0.042610917 -0.01253119 0.037511848 -0.99155557 0.12814231 0.019929806 0
0.028095968 -0.0126394 0.037665479 0.97216928 0.14791863 0.18167801 0
-0.041492548 -0.0073962081 0.037511792 -0.94743264 0.31505549 0.05578104 0
0.026826456 -0.0074076112 0.037478399 0.9412154 0.31371751 0.12527952 0
-0.040257487 -0.0043042372 0.037577651 -0.89817679 0.43420514 0.068879738 0
-0.038972452 -0.0018901367 0.037702587 -0.86968023 0.48708701 0.08001627 0
0.02422653 -0.0015322112 0.037520379 0.85425138 0.51474667 0.072735384 0
0.025440851 -0.003764411 0.037428621 0.90721267 0.41189355 0.085491568 0
-0.036427673 0.0022618796 0.037297908 -0.82758105 0.55602819 0.077086568 0
-0.034697402 0.0046219239 0.03823356 -0.79979849 0.5918957 0.099909216 0
0.01974104 0.004818636 0.038173608 0.76968986 0.63071716 0.098860383 0
0.021628372 0.0023488961 0.037292708 0.81459457 0.57509941 0.07547532 0
-0.032343425 0.0073853056 0.03759886 -0.7095111 0.69661337 0.1064131 0
-0.029758267 0.0097030746 0.037891839 -0.58477134 0.80138588 0.12579036 0
0.014795398 0.0098568387 0.039480239 0.63041371 0.75809228 0.16695713 0
0.017396383 0.0076312385 0.037640084 0.72582632 0.67907077 0.10972247 0
-0.027354626 0.011400924 0.037570659 -0.54100776 0.83411562 0.10752629 0
-0.022708688 0.013963453 0.037485629 -0.43254954 0.89567763 0.10325989 0
-0.019988103 0.014952201 0.039444521 -0.40357026 0.89854556 0.17247304 0
0.0086455299 0.01407347 0.037580546 0.46677938 0.87526536 0.12659961 0
0.012538305 0.011781818 0.037491247 0.55253142 0.82368785 0.1274652 0
0.015150664 0.010193201 0.035607226 0.61806887 0.77321881 0.14185777 0
-0.020462252 0.015156791 0.036273059 -0.40457031 0.91326547 0.047634814 0
-0.01757233 0.016118569 0.037532609 -0.32966095 0.94016331 0.086119659 0
-0.012579081 0.017515594 0.037708383 -0.21480097 0.9731698 0.082468808 0
-0.007520237 0.018325897 0.037393399 -0.090851329 0.99240458 0.082940929 0
-0.0026200565 0.018199306 0.037456822 0.14710787 0.98247403 0.11447286 0
0.0026770148 0.016854625 0.037530616 0.3331815 0.9343186 0.1266444 0
0.0060303584 0.015473763 0.037335001 0.43839702 0.89149797 0.11419042 0
-0.021700384 -0.050952774 0.042259205 -0.4366459 -0.86807621 0.23618637 0
-0.017637532 -0.052519869 0.042576715 -0.3007645 -0.91451114 0.27057365 0
-0.012433044 -0.053846523 0.042426597 -0.16227525 -0.94591856 0.28090006 0
-0.0074878833 -0.054306448 0.04228228 0.019576047 -0.97103661 0.23812743 0
-0.0026587406 -0.053702857 0.042582992 0.18050028 -0.94048005 0.28795299 0
0.0025121218 -0.052266404 0.04247582 0.31334269 -0.90261436 0.29513344 0
0.0069594313 -0.050638065 0.04189403 0.4332152 -0.85752565 0.27744254 0
-0.0303021 -0.045299098 0.041388195 -0.66081536 -0.72833437 0.18125153 0
-0.027333414 -0.047360558 0.042440694 -0.58364385 -0.78417075 0.21079868 0
-0.024057532 -0.049387522 0.043247465 -0.49456978 -0.83260167 0.24934956 0
0.0088482676 -0.049299933 0.042975318 0.45032173 -0.84282106 0.29472548 0
0.012293371 -0.047277346 0.042621031 0.549986 -0.78766888 0.27765647 0
0.015389431 -0.045571573 0.040734187 0.61909479 -0.7512818 0.22868612 0
-0.035091691 -0.040116552 0.040851105 -0.78409183 -0.60545319 0.13647896 0
-0.032558367 -0.042601414 0.042609598 -0.71980762 -0.66027337 0.2142804 0
-0.029710615 -0.044797622 0.04467706 -0.6206274 -0.72228658 0.30516165 0
0.014733528 -0.044725433 0.044574637 0.62097508 -0.73935252 0.26028386 0
0.017696371 -0.042767067 0.042476941 0.69112688 -0.66711301 0.27803546 0
0.02042965 -0.040519383 0.040807839 0.75898564 -0.58984733 0.27571908 0
-0.036594231 -0.037210457 0.042546224 -0.84597993 -0.48792747 0.2150462 0
-0.034674361 -0.039669137 0.04422326 -0.74358821 -0.61404324 0.26462713 0
0.019673107 -0.039617997 0.044143464 0.77951247 -0.54949892 0.30068478 0
0.021809135 -0.03741508 0.042421505 0.81184167 -0.48407748 0.32646918 0
-0.040328525 -0.030753622 0.04127983 -0.90635788 -0.38009673 0.18450469 0
-0.038940422 -0.032800607 0.042877082 -0.86231422 -0.4516719 0.2289253 0
0.023992112 -0.032795921 0.042613428 0.89389867 -0.34048551 0.29157317 0
0.02524239 -0.030735485 0.040989552 0.91221696 -0.31104797 0.26666346 0
-0.041167032 -0.027503781 0.042433348 -0.94037163 -0.26371425 0.21483926 0
-0.039951138 -0.029735511 0.044505559 -0.9083063 -0.33910921 0.2449175 0
0.024729634 -0.029000135 0.044195041 0.90516615 -0.25660354 0.33886409 0
0.025911575 -0.027303705 0.042178728 0.91442448 -0.25611392 0.31342235 0
-0.042052612 -0.022647524 0.042641595 -0.97216666 -0.1200427 0.20120069 0
0.026814744 -0.022464922 0.042526387 0.92801386 -0.13989879 0.34528059 0
-0.042410176 -0.017531814 0.042485375 -0.980869 -0.012368857 0.19427553 0
0.027177297 -0.017487783 0.042534921 0.95477211 -0.0019321442 0.29733211 0
-0.042029273 -0.012554617 0.042580321 -0.96467674 0.14934427 0.21701407 0
0.026826626 -0.012493351 0.042687159 0.94908017 0.12856796 0.28760597 0
-0.040935893 -0.0077552437 0.042474784 -0.92787552 0.30616391 0.21286298 0
-0.039736617 -0.0054464904 0.04404499 -0.88967651 0.38642725 0.24320701 0
0.024794128 -0.005559213 0.044256434 0.902242 0.31899616 0.29017365 0
0.025853906 -0.0076502226 0.042559102 0.93136537 0.24914341 0.26549241 0
-0.0401069 -0.0047719502 0.040907398 -0.88952106 0.4389922 0.12664168 0
-0.038451161 -0.0023330068 0.042443939 -0.85102582 0.48774379 0.19457883 0
0.023756688 -0.0022391994 0.042693377 0.86441833 0.4484731 0.22727242 0
0.025245883 -0.0044529419 0.040997736 0.9111017 0.36940166 0.18285507 0
-0.036101412 0.0015371613 0.042240132 -0.8123799 0.54672092 0.2028182 0
-0.034114592 0.0039763511 0.043067522 -0.76642406 0.59219158 0.24880384 0
0.019398851 0.0041461373 0.042667732 0.78010976 0.59724742 0.18634452 0
0.021277532 0.0017491257 0.042378377 0.7899785 0.58515769 0.18309684 0
-0.031843461 0.0066957651 0.042526692 -0.67716116 0.6941936 0.24402457 0
-0.028779723 0.0092896773 0.042648837 -0.58603269 0.7737357 0.24062143 0
0.014264283 0.0093967775 0.042986624 0.5991838 0.76679301 0.23023298 0
0.017036933 0.0070941783 0.042094436 0.71167696 0.67738998 0.18616831 0
-0.026487226 0.011032531 0.042165063 -0.52764148 0.81703663 0.2324771 0
-0.022545245 0.01310745 0.042532887 -0.43160406 0.87399459 0.22327429 0
-0.018855762 0.014589918 0.04323373 -0.36024973 0.89769036 0.25371662 0
0.0042258138 0.014707651 0.044214204 0.35790217 0.88997054 0.2825923 0
0.0076604271 0.013597399 0.042667784 0.42788795 0.87307054 0.23379427 0
0.011682316 0.011472171 0.042184796 0.53339475 0.8205992 0.20519963 0
-0.016722396 0.015713831 0.041897871 -0.31453604 0.92520159 0.21229491 0
-0.012566708 0.016723339 0.042586558 -0.21818413 0.95064682 0.22060438 0
-0.0074862894 0.017472502 0.042388905 -0.053621944 0.96990329 0.23751281 0
-0.0025969543 0.017262673 0.042367615 0.1524574 0.95737058 0.24535321 0
0.0022218577 0.01594534 0.042412423 0.31570911 0.91214937 0.26136422 0
0.005478906 0.015134772 0.040857937 0.39968684 0.88907439 0.22315267 0
-0.020703441 -0.050358828 0.045653295 -0.36699426 -0.86982012 0.32973975 0
-0.01725148 -0.051028546 0.046932545 -0.27212626 -0.87717664 0.39561135 0
-0.012670593 -0.051804096 0.047643572 -0.1678697 -0.89445543 0.41445053 0
-0.0074799866 -0.052457228 0.047434341 0.0046316502 -0.90664345 0.42187217 0
-0.002432277 -0.051841117 0.047451615 0.20363523 -0.8999877 0.3854281 0
0.0018195064 -0.050854556 0.046855293 0.31041002 -0.87369049 0.37458053 0
0.0054970914 -0.050082695 0.045339387 0.37881765 -0.84021372 0.38799241 0
-0.026550449 -0.046276152 0.046879396 -0.5425126 -0.7550568 0.36819744 0
-0.022669071 -0.048357107 0.047651257 -0.44489953 -0.79350328 0.41523111 0
-0.01858489 -0.049529862 0.049057856 -0.32354471 -0.82507634 0.46321464 0
0.0032638772 -0.049421497 0.048742749 0.36807045 -0.82574701 0.42739445 0
0.0075468896 -0.04799825 0.047408242 0.41582015 -0.80171132 0.42936283 0
0.011354426 -0.046014335 0.047011726 0.50479692 -0.7633763 0.40303436 0
-0.031708483 -0.041550301 0.047016297 -0.68029308 -0.63732582 0.36196285 0
-0.028674435 -0.044023696 0.048025161 -0.60166657 -0.68997335 0.40241033 0
0.013629614 -0.043762658 0.048117518 0.57960767 -0.69693512 0.42229894 0
0.016509427 -0.041595407 0.047204204 0.66706544 -0.61651546 0.41824937 0
-0.035718516 -0.036272798 0.047120873 -0.8184545 -0.47259334 0.32678398 0
-0.033930246 -0.038263854 0.048056692 -0.72981197 -0.54718894 0.40982762 0
0.018760143 -0.038105622 0.047882907 0.77007878 -0.46852398 0.43297091 0
0.020655503 -0.036394808 0.046261724 0.7905727 -0.45337966 0.41163293 0
-0.03756959 -0.032575928 0.047590826 -0.84032339 -0.43478438 0.32375777 0
0.019863319 -0.034628458 0.049481962 0.78381336 -0.42818496 0.44977143 0
0.021969099 -0.032509077 0.047495402 0.82287151 -0.36362973 0.43664163 0
-0.040338248 -0.026597599 0.046306685 -0.92244804 -0.22574574 0.31325474 0
-0.039290458 -0.02781388 0.04823653 -0.89464533 -0.26458538 0.36000592 0
0.023722839 -0.027362587 0.047491483 0.88354552 -0.22383821 0.41139242 0
0.025138527 -0.025442835 0.045388602 0.88974267 -0.21029775 0.40513298 0
-0.040752623 -0.022348145 0.047328923 -0.93553841 -0.1169883 0.33328909 0
-0.039854188 -0.023061616 0.049431238 -0.91180533 -0.14103745 0.38564166 0
0.02422549 -0.022726199 0.048603095 0.88218862 -0.16775259 0.44000262 0
0.02546202 -0.022135658 0.04615644 0.90943068 -0.15404965 0.38626981 0
-0.041003581 -0.017590497 0.04734442 -0.93677497 -0.00075420673 0.34993142 0
-0.039978333 -0.016509069 0.049968142 -0.89991546 0.0089245839 0.43597305 0
0.024548396 -0.017582253 0.049130529 0.89140999 -0.037810262 0.4516179 0
0.02575946 -0.017543865 0.046580974 0.92313737 -0.036528986 0.38273099 0
-0.040774364 -0.012847747 0.047069017 -0.93248612 0.15016188 0.32851344 0
-0.039763436 -0.011634726 0.049190305 -0.90486687 0.18517512 0.38330942 0
0.024480207 -0.012220084 0.048614006 0.88265997 0.15281993 0.44447428 0
0.025575854 -0.012656735 0.046323724 0.92074186 0.13523889 0.36598492 0
-0.040315721 -0.0087186089 0.045793056 -0.91632283 0.25688967 0.30718109 0
-0.039052278 -0.0070601502 0.047714971 -0.87901217 0.31203002 0.36052033 0
0.023739895 -0.0072060069 0.047819335 0.87642384 0.24459383 0.41479534 0
0.02525359 -0.0092193857 0.045598995 0.92834234 0.16822369 0.33148351 0
-0.037055511 -0.0026338317 0.047422111 -0.80496603 0.48044664 0.34813878 0
-0.034608647 -0.00032358596 0.049467012 -0.73748744 0.52059197 0.43022805 0
0.019901477 -0.00042203054 0.049895857 0.749807 0.50453657 0.42805642 0
0.022265242 -0.0025943283 0.047370106 0.83590388 0.40276885 0.37288335 0
-0.035426803 0.00055819622 0.046400931 -0.77135086 0.55425614 0.31275859 0
-0.033106208 0.0027908511 0.047726035 -0.72190344 0.5862267 0.36768702 0
0.018554421 0.0030379968 0.047730502 0.74825597 0.57061905 0.3383885 0
0.020607037 0.0011287335 0.04617798 0.78460419 0.54078108 0.30323601 0
-0.030933991 0.0058651613 0.046722971 -0.65090054 0.68198496 0.33350405 0
-0.027744437 0.0080849705 0.047638178 -0.5663287 0.7397849 0.36330441 0
-0.024436111 0.0097127119 0.049057059 -0.45972756 0.77745128 0.4292087 0
0.0099601606 0.0097707966 0.049821194 0.55725038 0.71902227 0.415306 0
0.012944554 0.0085936636 0.0478306 0.56351733 0.75114369 0.34384805 0
0.01612236 0.0062171184 0.047111787 0.67915356 0.66330129 0.31429592 0
-0.025771957 0.010189808 0.046055749 -0.511455 0.80791485 0.29272395 0
-0.022415075 0.011466404 0.047504619 -0.41306409 0.83238149 0.36948502 0
-0.017388163 0.013530241 0.047618851 -0.3217454 0.86063194 0.39470562 0
-0.013365397 0.014252105 0.048911393 -0.23571903 0.85392523 0.46394852 0
-0.0080146799 0.014787979 0.049577136 -0.05425629 0.86969525 0.49059805 0
-0.001840122 0.014545728 0.049047519 0.19236536 0.86888987 0.45609856 0
0.0028356637 0.013876425 0.047732007 0.29505783 0.8811968 0.36936858 0
0.0077682687 0.011959876 0.047431167 0.41313913 0.8485136 0.33066711 0
0.011065582 0.010490605 0.046588432 0.5206511 0.79799795 0.30351576 0
-0.015437737 0.015204717 0.04535934 -0.2946713 0.90122896 0.31773445 0
-0.012200889 0.015672525 0.046435792 -0.19777705 0.913647 0.35515249 0
-0.0074185855 0.016067898 0.046891771 -0.03662473 0.92761797 0.37173063 0
-0.0028087324 0.015864057 0.046700254 0.16124104 0.90864778 0.38517594 0
0.00096787425 0.015320382 0.045713451 0.27238488 0.90126044 0.33695114 0
-0.01185698 -0.050416749 0.050585292 -0.14045453 -0.84638494 0.51371688 0
-0.0073026968 -0.050615001 0.050891537 -0.0082569094 -0.85766351 0.51414496 0
-0.0032155968 -0.05036797 0.050841361 0.13777724 -0.86750478 0.4779675 0
0.00012936626 -0.050016649 0.050001185 0.29091826 -0.84361422 0.45131102 0
-0.025408516 -0.045256376 0.050190609 -0.48762384 -0.72744089 0.48275542 0
-0.021907957 -0.046125025 0.051802885 -0.39206266 -0.73262638 0.55636805 0
-0.017367421 -0.047689304 0.052393422 -0.27892062 -0.77103025 0.57246453 0
-0.012707154 -0.048509046 0.05307107 -0.17545958 -0.79494852 0.58075017 0
-0.0078027244 -0.048921578 0.053453796 -0.045789443 -0.81957406 0.57114065 0
-0.002300164 -0.048651967 0.053337969 0.17081939 -0.82221007 0.54294693 0
0.0025787351 -0.047544792 0.052605726 0.34392163 -0.80509293 0.48326305 0
0.0065683816 -0.046106555 0.051708665 0.43368956 -0.77142346 0.46563834 0
-0.030480666 -0.040456314 0.050703969 -0.65152311 -0.59046435 0.47630829 0
-0.027332556 -0.042227369 0.052131366 -0.54579568 -0.64747107 0.53187239 0
-0.023043243 -0.044006132 0.053645413 -0.41977182 -0.69217783 0.5870958 0
-0.01991274 -0.044806033 0.054751646 -0.35184911 -0.7158305 0.60314912 0
0.0084386235 -0.043936666 0.053228799 0.48117071 -0.71290487 0.51013857 0
0.012131638 -0.041966155 0.052317873 0.53031033 -0.66744697 0.52276707 0
0.015352091 -0.040454783 0.050429296 0.6362263 -0.64307088 0.42623463 0
-0.032003704 -0.037304685 0.052099787 -0.67603105 -0.52900219 0.51297057 0
-0.029159855 -0.038810819 0.054052189 -0.603724 -0.55827296 0.5690769 0
0.014103086 -0.038948763 0.053776022 0.61850345 -0.56183869 0.54935473 0
0.01670051 -0.037192423 0.052116264 0.71145314 -0.48807821 0.50558305 0
-0.036123913 -0.031894829 0.051316895 -0.7702018 -0.41323593 0.48582429 0
-0.033806458 -0.033264268 0.053500105 -0.72161323 -0.45283356 0.52365643 0
0.018704735 -0.03265382 0.053098839 0.77250087 -0.38945022 0.50156838 0
0.020716138 -0.031107962 0.050990589 0.81638646 -0.34685537 0.46174082 0
-0.037145671 -0.027652752 0.052531205 -0.82387358 -0.26710263 0.49988845 0
-0.034947641 -0.029474147 0.0549048 -0.75644022 -0.37719864 0.5343402 0
0.019585079 -0.028678322 0.054385796 0.81004012 -0.27201059 0.51946628 0
0.021339614 -0.027460726 0.052028656 0.84464711 -0.2321015 0.48238999 0
-0.038270134 -0.022466591 0.052603025 -0.85370493 -0.12422154 0.50572419 0
0.022209907 -0.022540392 0.052373435 0.85898739 -0.14936866 0.48972416 0
-0.038675316 -0.017445078 0.052457228 -0.87045097 0.0093666101 0.49216604 0
0.022554241 -0.01757692 0.052642539 0.8551209 -0.019936943 0.51804507 0
-0.03804411 -0.012394122 0.052600361 -0.83524674 0.18334126 0.51840991 0
0.022359036 -0.012416643 0.052483264 0.84874344 0.12067749 0.51485097 0
-0.036648583 -0.0075046252 0.052332584 -0.77507222 0.3327477 0.53716111 0
-0.034489941 -0.0059729945 0.054326855 -0.73535073 0.37874722 0.5619697 0
0.019790728 -0.0060400944 0.054255478 0.80490047 0.27785617 0.5243389 0
0.021510048 -0.0076901773 0.052233938 0.84078145 0.22287728 0.49336821 0
-0.035850201 -0.0038810221 0.050943892 -0.7392925 0.42831945 0.51960474 0
-0.033202689 -0.002132023 0.053015228 -0.69830483 0.45226955 0.55481768 0
0.018623454 -0.0020241304 0.053211614 0.73708224 0.41397017 0.53417069 0
0.020763123 -0.0035917966 0.051181626 0.80303204 0.34930378 0.48283181 0
-0.03149404 0.0016551566 0.051731918 -0.65284801 0.54704422 0.52395821 0
-0.028483856 0.0034425787 0.053275928 -0.57819009 0.59278506 0.56062645 0
0.013952981 0.0039244415 0.053707197 0.62380588 0.56387204 0.54121572 0
0.016661782 0.0022097102 0.052008398 0.68586123 0.52590734 0.50300676 0
-0.026722224 0.0063478705 0.051644672 -0.53312027 0.67450976 0.5107047 0
-0.022575859 0.0083117727 0.052793678 -0.42188218 0.74258626 0.52017403 0
-0.018428396 0.0093829036 0.054165244 -0.31322339 0.78617543 0.53274691 0
0.0044668526 0.009591599 0.054535046 0.28959215 0.76244348 0.57863313 0
0.0080130994 0.008717604 0.053330217 0.41816488 0.73925889 0.52785838 0
0.012164476 0.0067666271 0.052107986 0.5443868 0.68998605 0.47703466 0
0.015234634 0.0051924586 0.050567769 0.63150436 0.63946199 0.43850958 0
-0.020844957 0.010476166 0.050882153 -0.35372683 0.8030569 0.47955912 0
-0.017066231 0.01122814 0.052008152 -0.2771531 0.81806296 0.50394368 0
-0.012611867 0.01214298 0.05259579 -0.18535855 0.81864631 0.54356277 0
-0.0074565159 0.012627161 0.052894279 -0.034386348 0.82431418 0.56508744 0
-0.0024081252 0.012686441 0.052411515 0.10539831 0.83296746 0.54319096 0
0.0021704477 0.011782479 0.052301165 0.25210303 0.82632488 0.50361806 0
0.0064057843 0.010785647 0.051415194 0.36582407 0.80819249 0.46151665 0
-0.016472084 -0.045511372 0.055726953 -0.27211171 -0.75901747 0.59147912 0
-0.012300881 -0.046232902 0.056213997 -0.16067822 -0.77442974 0.61191589 0
-0.0075621125 -0.046382792 0.056791835 -0.039786957 -0.7670328 0.64037311 0
-0.0029108794 -0.046375737 0.056573804 0.12103767 -0.77219141 0.62375498 0
0.0018492776 -0.045686271 0.055874512 0.29614839 -0.75130689 0.58977455 0
-0.025771281 -0.040532384 0.055478603 -0.4916158 -0.62347102 0.60794562 0
-0.022139469 -0.041633468 0.056828152 -0.39775109 -0.65147144 0.64604878 0
-0.017593244 -0.042932492 0.057925541 -0.30860114 -0.66397786 0.68110108 0
-0.012999729 -0.043775294 0.058811672 -0.18826926 -0.70118761 0.68767041 0
-0.0080808057 -0.044174772 0.059248634 -0.059808645 -0.7233184 0.68791962 0
-0.0022350503 -0.044096127 0.059112024 0.13977553 -0.72597182 0.67337048 0
0.0029187691 -0.043302551 0.058079418 0.34060466 -0.6955623 0.63259906 0
0.0070651392 -0.041939382 0.056840211 0.4520728 -0.65765727 0.60259193 0
0.01068999 -0.040577199 0.055513848 0.50593215 -0.62981421 0.58937824 0
-0.030534616 -0.035535503 0.055601489 -0.61481762 -0.50568497 0.60521233 0
-0.027232083 -0.037203476 0.057233308 -0.54186291 -0.53541487 0.64785463 0
-0.023579182 -0.038442239 0.05890321 -0.41454381 -0.56802374 0.71098697 0
-0.019711189 -0.03971624 0.059920277 -0.33345425 -0.6119833 0.71713644 0
0.0083935698 -0.038866598 0.058856376 0.48163772 -0.56882894 0.66667747 0
0.012294679 -0.03727252 0.057033997 0.57528508 -0.52429569 0.62782246 0
