# .PCD v0.7 - Point Cloud Data file format
VERSION 0.7
FIELDS x y z normal_x normal_y normal_z curvature
SIZE 4 4 4 4 4 4 4
TYPE F F F F F F F
COUNT 1 1 1 1 1 1 1
WIDTH 571
HEIGHT 1
VIEWPOINT 0 0 0 1 0 0 0
POINTS 571
DATA ascii
-0.020293714 0.014581827 -2.4110739e-05 -0.14256957 -0.031430475 -0.98928559 0
-0.017250421 0.013011816 -0.00012278483 -0.012705953 -0.034167714 -0.99933535 0
-0.014604865 0.012300473 -3.6956488e-05 0.088333376 -0.0062307706 -0.99607146 0
-0.020471184 0.017935777 -6.8339759e-05 -0.12887596 -0.0091408025 -0.99161863 0
-0.017862478 0.017251417 -0.00012717361 0.037652444 0.02477072 -0.9989838 0
-0.014805042 0.015325846 -1.377562e-05 0.11582235 0.022275781 -0.99302018 0
0.0028482787 0.018535245 -9.7705379e-05 -0.0059671635 -0.059162695 -0.99823052 0
0.005403331 0.019298619 -6.6977824e-05 0.11976257 -0.066161789 -0.99059552 0
-0.020576056 0.020769564 -5.5014607e-05 -0.10372181 0.029892396 -0.99415708 0
-0.018957796 0.021472892 -7.5181197e-05 0.030039605 0.038972449 -0.9987886 0
-0.00013051846 0.022924226 -4.148997e-06 -0.21708842 -0.081724375 -0.97272491 0
0.0025417593 0.022448508 -0.00018043931 -0.032498434 0.00058330968 -0.99947166 0
0.0055166087 0.021913042 -8.643388e-05 0.12464053 0.02077507 -0.99198449 0
-9.0451191e-05 0.025747368 -2.8441202e-05 -0.12452063 0.010482152 -0.99216169 0
0.0021236567 0.026282715 -0.00010690513 0.0017551566 0.062032938 -0.99807256 0
0.0051500928 0.025415175 -2.3485713e-06 0.16947889 0.062408011 -0.98355591 0
-0.011984456 -0.00022731449 0.0048140753 -0.060376454 -0.69731998 -0.71421248 0
-0.0089814998 -9.0103626e-05 0.0048745302 0.19401632 -0.64538413 -0.7388078 0
-0.021456592 0.0037901597 0.0040577077 -0.39473435 -0.54555798 -0.73929101 0
-0.017370962 0.0027658266 0.0033340794 -0.20932396 -0.59214699 -0.77816796 0
-0.012457488 0.0023938334 0.0029135291 -0.026311396 -0.54809648 -0.83600122 0
-0.0075832997 0.0024925123 0.0034424518 0.216583 -0.52724683 -0.82164627 0
-0.0039580753 0.0035925952 0.0041050632 0.50642568 -0.36490339 -0.78126729 0
0.0033852137 0.0048002549 0.0048763044 -0.081482723 -0.6524536 -0.75343531 0
0.0050799153 0.0049448255 0.0049344166 0.22604674 -0.64713871 -0.72808951 0
-0.026082346 0.0085420758 0.0041660131 -0.5850932 -0.34973076 -0.7316792 0
-0.02251767 0.0074101673 0.0025371732 -0.418632 -0.41112673 -0.80976665 0
-0.017531887 0.0074205431 0.00087452878 -0.14014028 -0.31674963 -0.93809932 0
-0.012634523 0.0075670169 0.00061851408 0.042744502 -0.22770593 -0.97279131 0
-0.0073227808 0.0076011722 0.001459096 0.28716439 -0.16104865 -0.94424576 0
-0.0025782234 0.0076475739 0.0033758811 0.24859607 -0.36671829 -0.89650309 0
0.0024623084 0.0075439173 0.0030953346 -0.098062374 -0.56497455 -0.81926036 0
0.0073204488 0.007848083 0.0035143998 0.27486584 -0.50155729 -0.82029825 0
0.010615394 0.0088459449 0.0043150098 0.51248741 -0.40994775 -0.75451946 0
-0.027014604 0.012672509 0.0033464187 -0.60320294 -0.23760387 -0.76137424 0
-0.022664588 0.012405434 0.00088129251 -0.3440809 -0.16597649 -0.9241538 0
-0.017947722 0.010719745 7.9232545e-05 -0.07144662 -0.12287652 -0.98984677 0
-0.012145321 0.012531044 0.00032332484 0.17585893 0.076695628 -0.98142314 0
-0.0076991194 0.012401217 0.0015935212 0.32987216 0.25374421 -0.90928435 0
-0.002607215 0.012500986 0.0018828255 -0.31223187 -0.25807762 -0.91427964 0
0.0023156398 0.012640228 0.000751207 -0.0180282 -0.24941812 -0.96822804 0
0.007533283 0.012391833 0.00159379 0.29401225 -0.27353662 -0.91582453 0
0.011825441 0.012794659 0.0035871598 0.56295389 -0.28519487 -0.77572346 0
-0.030179698 0.018819194 0.0048504178 -0.69710171 0.056234255 -0.71476352 0
-0.027721919 0.017490834 0.0030086273 -0.58756119 -0.054579224 -0.80733693 0
-0.022944756 0.017412221 0.00048940122 -0.28506359 -0.025614884 -0.95816624 0
-0.015734434 0.018119495 0.00016690027 0.21547805 0.10321816 -0.97103816 0
-0.012181163 0.017550671 0.0014491357 0.37257913 0.21144085 -0.90359145 0
-0.0076274453 0.01767695 0.0030211352 0.035325289 -0.10616514 -0.99372089 0
-0.0025986107 0.017588684 0.0010507277 -0.41968709 -0.028821917 -0.90721112 0
0.0020265908 0.016440568 9.8307093e-05 -0.036671836 -0.10426914 -0.9938727 0
0.0075300173 0.017456273 0.00058035692 0.25328049 -0.11017127 -0.96109903 0
0.012683861 0.017466804 0.0029857326 0.56072342 -0.13502209 -0.81691992 0
0.015319721 0.018807344 0.0047311052 0.69672328 -0.081961058 -0.71264231 0
-0.030033687 0.020671727 0.0049223308 -0.62618876 -0.1793479 -0.75876349 0
-0.027487559 0.02234902 0.0031081471 -0.58617914 0.15119839 -0.79594791 0
-0.022706825 0.022776056 0.00065518578 -0.30309418 0.12265026 -0.9450348 0
-0.016915781 0.022623224 0.00024513627 0.20109704 0.032510284 -0.97903174 0
-0.012395157 0.022315901 0.0019659156 0.26094347 -0.074082062 -0.96250725 0
-0.0073627252 0.022598375 0.0022215692 0.068632811 0.084703587 -0.99403965 0
-0.0024339 0.02240387 0.00088072894 -0.38986239 -0.070654184 -0.91815865 0
0.00015750594 0.021781469 1.8990988e-05 -0.1446919 -0.034764439 -0.98886579 0
0.0078982972 0.022669515 0.00050548062 0.28671464 0.056400295 -0.95635438 0
0.012594272 0.022594398 0.0028080924 0.58095527 0.11954603 -0.80510849 0
0.015212167 0.021198638 0.0047461619 0.76699722 0.10731111 -0.63261318 0
-0.026617821 0.027087037 0.0037883008 -0.57586616 0.29112619 -0.76395261 0
-0.022537595 0.027510246 0.0016668929 -0.36838779 0.28004327 -0.886491 0
-0.017479107 0.027428878 0.00043672833 -0.049031306 0.13550603 -0.98956251 0
-0.012429222 0.027504234 0.00075210055 0.13830905 -0.16623411 -0.97633851 0
-0.0075005973 0.027401706 0.0011272477 -0.077638187 -0.31816784 -0.94485003 0
-0.0026079807 0.027483182 0.00034531634 -0.1509151 -0.064237997 -0.98645735 0
0.003006279 0.028544981 0.00026684732 0.13284869 0.21199887 -0.96819818 0
0.0075364779 0.027513413 0.0012205545 0.34779963 0.25692037 -0.90168023 0
0.011660059 0.027188625 0.0033898088 0.597902 0.31339762 -0.73776364 0
-0.025597362 0.030651789 0.0046275784 -0.5290001 0.41265985 -0.74153268 0
-0.02225315 0.032169398 0.0035101383 -0.43435976 0.43373299 -0.78943479 0
-0.017533623 0.03248575 0.001790408 -0.23158303 0.36585972 -0.90139669 0
-0.012566624 0.032623634 0.001048522 -0.075185187 0.24859105 -0.96568608 0
-0.0074634952 0.032448366 0.00078864564 -0.036842328 0.16959642 -0.98482472 0
-0.002500196 0.032557089 0.00078866101 0.049899954 0.25544587 -0.96553481 0
0.0025219203 0.032643292 0.0015345968 0.21278757 0.38285038 -0.89897007 0
0.0073112338 0.032330263 0.0031312862 0.4150553 0.44776088 -0.79198438 0
0.010691716 0.030665871 0.004341058 0.60503381 0.44292659 -0.66162688 0
-0.020561637 0.035632949 0.0046081725 -0.41070694 0.56905407 -0.7123884 0
-0.017194325 0.036540125 0.0039332625 -0.28543535 0.57791227 -0.76455486 0
-0.01229465 0.037382986 0.0032212697 -0.14680159 0.56061679 -0.81495905 0
-0.0074105402 0.037584443 0.0029356591 -0.0052758013 0.55291164 -0.83322316 0
-0.0026219373 0.037551824 0.0032008868 0.1116141 0.57345504 -0.81159812 0
0.0021767586 0.036610875 0.0036830497 0.28742829 0.58227175 -0.76048964 0
0.0057359212 0.03568339 0.0044143819 0.37543312 0.58973116 -0.71502948 0
-0.010500561 0.040088221 0.0049506468 -0.11992775 0.70120716 -0.70279855 0
-0.0077017611 0.040112529 0.0048254798 0.0032471502 0.69419056 -0.71978396 0
-0.0044519892 0.04004433 0.0049024923 0.11354842 0.69722885 -0.70779842 0
-0.021229586 -0.00084456976 0.0086920504 -0.44602317 -0.72703511 -0.52199924 0
-0.017214151 -0.0017102635 0.0076547773 -0.23859537 -0.75235063 -0.6140365 0
-0.012342938 -0.0025332547 0.0074326196 -0.069657557 -0.78207445 -0.61927968 0
-0.0075774849 -0.0021452375 0.0075226622 0.21746001 -0.74281114 -0.63320047 0
-0.0032015608 -0.0012336356 0.008591597 0.45025367 -0.70068997 -0.55344856 0
-0.026354298 0.0035822976 0.0083411168 -0.6524266 -0.57198906 -0.49716014 0
-0.022887729 0.0016602027 0.0071004904 -0.46890679 -0.65391189 -0.59373873 0
-0.018364925 0.00054011855 0.0055427579 -0.28455409 -0.67358631 -0.68213665 0
-0.0062606107 0.00039760274 0.0053532314 0.26522994 -0.65849197 -0.70430201 0
-0.0019278021 0.0021576772 0.0068800203 0.661596 -0.43106404 -0.61357516 0
0.0025237566 0.0030899846 0.0075784368 -0.15172245 -0.82478225 -0.54471505 0
0.0073724939 0.0033345355 0.0077571124 0.29893324 -0.77061206 -0.5628463 0
0.010897416 0.0043385602 0.0089745345 0.52722788 -0.70909244 -0.46820793 0
-0.030448506 0.0089633008 0.0089247413 -0.7841363 -0.41031349 -0.4655889 0
-0.028000314 0.0072169108 0.0070241191 -0.69069672 -0.44577697 -0.56940401 0
-0.0011481358 0.0057047997 0.0054373913 0.25825059 -0.48193666 -0.83728349 0
0.00057793042 0.0053883856 0.0053660804 -0.27315372 -0.68866134 -0.67166412 0
0.0081934538 0.0055984291 0.0054702414 0.30456319 -0.6550144 -0.69151825 0
0.012528752 0.0074634901 0.0073821335 0.66030073 -0.51254535 -0.54890823 0
0.015267941 0.0093745291 0.0092993639 0.7771461 -0.49469215 -0.38900343 0
-0.031404622 0.012648303 0.0081492346 -0.81835878 -0.2601907 -0.51243508 0
-0.029264746 0.011579416 0.0057567409 -0.69816697 -0.2786814 -0.65946925 0
0.014097619 0.011700429 0.0060936096 0.6882056 -0.35034218 -0.63532144 0
0.0161821 0.01282791 0.0081816278 0.79505813 -0.31265703 -0.51973844 0
-0.03194068 0.017588323 0.0073609338 -0.83214504 -0.074101269 -0.54958498 0
0.014879573 0.015602175 0.0050994172 0.70548749 -0.21127951 -0.6764971 0
0.016943831 0.017456174 0.0074706441 0.84816837 -0.10953161 -0.51827919 0
-0.031777572 0.022448968 0.007651235 -0.81661743 0.15673296 -0.55549151 0
-0.029658128 0.024142852 0.0053766714 -0.69057071 0.20000251 -0.69506198 0
0.01463685 0.02469511 0.005151887 0.71636373 0.30172205 -0.629116 0
0.016735291 0.022466404 0.0074114269 0.84396976 0.16009639 -0.51194149 0
-0.030997427 0.027017584 0.0083628418 -0.79714435 0.31847444 -0.51296681 0
-0.028748851 0.028298346 0.0062684668 -0.67288053 0.36941555 -0.64090866 0
0.014011515 0.028143361 0.0062834215 0.72055912 0.38246438 -0.57837319 0
0.016027886 0.027122589 0.0085336464 0.81309992 0.35272899 -0.46308839 0
-0.030231463 0.030385682 0.0096369097 -0.79348201 0.33113077 -0.51062572 0
-0.027381822 0.032249037 0.00758775 -0.64926749 0.49512428 -0.57732457 0
-0.024041479 0.033953063 0.0057337624 -0.53081769 0.48712942 -0.69349658 0
0.0091444626 0.034247968 0.0056090592 0.55988264 0.56975615 -0.60158908 0
0.012313913 0.032365587 0.0076899156 0.69788527 0.51196772 -0.50084466 0
0.015188947 0.030166646 0.0097660488 0.81133127 0.46187866 -0.35834306 0
-0.025745198 0.035787828 0.0092021842 -0.60508353 0.6170758 -0.50308192 0
-0.022249574 0.037355985 0.0076341392 -0.47813013 0.67137212 -0.5662607 0
-0.018114027 0.038784359 0.0064117895 -0.34284559 0.68731397 -0.64035642 0
-0.01403271 0.039564341 0.0053983983 -0.26502964 0.68454129 -0.67908961 0
-0.00089819619 0.039789733 0.0052928752 0.19944684 0.68956274 -0.69622135 0
0.0029575184 0.038991123 0.0061792443 0.3276048 0.68801498 -0.64754182 0
0.0074844826 0.037369765 0.0075361985 0.51912647 0.65514493 -0.54890144 0
0.010711494 0.035718899 0.0091326665 0.65198284 0.60718936 -0.45413595 0
-0.020422973 0.040074691 0.0096096285 -0.42343432 0.72357512 -0.54510772 0
-0.017000865 0.041000832 0.0084849186 -0.33579296 0.76380569 -0.55122042 0
-0.012439102 0.041729193 0.0074507701 -0.1893381 0.78348488 -0.59186357 0
-0.0075512007 0.042375822 0.007494648 -0.010357532 0.80911177 -0.58756363 0
-0.0025506995 0.041840233 0.0073925806 0.15564854 0.79549336 -0.58563107 0
0.0022003951 0.041176356 0.0084290486 0.31925508 0.77521408 -0.54508656 0
0.0055828593 0.040384479 0.0096637746 0.46976271 0.7555005 -0.45666394 0
-0.016497115 -0.0054587852 0.013841441 -0.23520994 -0.90761936 -0.34771165 0
-0.012327205 -0.0058517442 0.013107228 -0.064613268 -0.93106949 -0.35907486 0
-0.0078119636 -0.0056625349 0.013329139 0.17531839 -0.92204839 -0.34509474 0
-0.0045273686 -0.00523816 0.01446958 0.29936242 -0.90115076 -0.31354335 0
-0.025534669 -0.0005715806 0.013759222 -0.62641639 -0.71817726 -0.30302471 0
-0.022420216 -0.0021974794 0.012488127 -0.50106001 -0.78335404 -0.36782521 0
-0.017990408 -0.0041327663 0.01180258 -0.3007068 -0.86433601 -0.40311119 0
-0.012617229 -0.00460251 0.010525301 -0.064503446 -0.85830659 -0.50906682 0
-0.0071409475 -0.004454467 0.010966855 0.19709016 -0.8587563 -0.47296208 0
-0.0022945041 -0.0029099768 0.012339222 0.55333728 -0.7330792 -0.39549059 0
0.0014521591 -0.00061018375 0.013906024 0.57749724 -0.73022556 -0.3650583 0
0.0059773563 -0.0002168161 0.014262291 0.11182149 -0.94744259 -0.29974744 0
-0.030215913 0.004644522 0.014233178 -0.82894158 -0.52243918 -0.19978301 0
-0.027712323 0.0023822356 0.012404881 -0.70814693 -0.61632496 -0.34448716 0
-0.024565849 0.00026929888 0.010599305 -0.54076421 -0.74557245 -0.3894814 0
-0.00029949818 0.00036592034 0.010478347 0.79150736 -0.43427077 -0.43002895 0
0.0024065557 0.00084720738 0.01185994 0.044200618 -0.91184705 -0.40814361 0
0.00789632 0.0011005751 0.012204206 0.29759058 -0.88567537 -0.35639721 0
0.012137264 0.0032133379 0.012875819 0.58296746 -0.73314762 -0.35020494 0
-0.03142802 0.0076981946 0.012702665 -0.8494271 -0.44048253 -0.2906006 0
-0.029489717 0.0056236745 0.010787983 -0.76414502 -0.4952085 -0.41334119 0
0.0142135 0.0061135627 0.011282179 0.72660673 -0.55982763 -0.3982909 0
0.016255731 0.0079864711 0.012930753 0.79839116 -0.47815067 -0.36598304 0
-0.033478618 0.01258881 0.012618785 -0.89991438 -0.30573916 -0.31093049 0
0.018156219 0.01258741 0.012472414 0.89454532 -0.30669907 -0.32515284 0
-0.035230506 0.01818708 0.014288113 -0.95898831 -0.072596453 -0.27399123 0
-0.034387287 0.017428257 0.012081084 -0.92622358 -0.093969055 -0.36507481 0
0.019213026 0.017391669 0.012395445 0.94140458 -0.089264892 -0.32525244 0
0.020056659 0.018325713 0.014777763 0.96974862 -0.0161485 -0.24357088 0
-0.035201363 0.021697719 0.014319482 -0.95087332 0.094864063 -0.29468745 0
-0.034182627 0.022855407 0.01208002 -0.9052887 0.16461959 -0.39160275 0
0.019018207 0.022440299 0.012479387 0.94208658 0.15403695 -0.29790196 0
0.020072181 0.020012027 0.01481788 0.95292395 0.082317933 -0.29182142 0
-0.032860544 0.027619055 0.012496531 -0.86017942 0.35848999 -0.36273444 0
0.017502284 0.027575135 0.012334313 0.88121837 0.3609719 -0.30521035 0
-0.031038664 0.031816296 0.012967465 -0.81193966 0.47578609 -0.33820355 0
-0.029274669 0.033632278 0.011710613 -0.74877298 0.53601956 -0.38990009 0
0.01399307 0.033527307 0.011954357 0.76234651 0.53773075 -0.36010194 0
0.015786218 0.031370059 0.012786744 0.81885147 0.49009982 -0.29880503 0
-0.026956115 0.036961153 0.012818056 -0.65138298 0.66349465 -0.36806947 0
-0.023746124 0.039043408 0.011598846 -0.54709333 0.7217682 -0.4239572 0
0.0089416122 0.03909244 0.011800669 0.58844984 0.71157962 -0.38390279 0
0.01175411 0.036890954 0.012825774 0.7017442 0.63160688 -0.32958725 0
-0.021610955 0.041090786 0.012933821 -0.46330941 0.82182378 -0.33158737 0
-0.017497459 0.042881787 0.012455734 -0.36824235 0.86060673 -0.35178623 0
-0.012565671 0.044220135 0.011802942 -0.19651069 0.90058565 -0.38772291 0
-0.0075013791 0.04454159 0.011060035 -0.027712664 0.90406209 -0.42650187 0
-0.00223813 0.04429568 0.01160528 0.18399498 0.89272296 -0.41132903 0
0.0024264115 0.043184318 0.012500185 0.36357868 0.87057424 -0.33152834 0
0.0066853724 0.041114077 0.012748963 0.50634909 0.80415428 -0.31136227 0
-0.011565417 0.045302052 0.013980256 -0.17299794 0.93703187 -0.30338591 0
-0.0073937466 0.045589153 0.0136219 -0.027499652 0.94377089 -0.32945445 0
-0.0029528521 0.045388527 0.013935407 0.16796821 0.9396379 -0.29810631 0
-0.020567806 -0.0053092386 0.018559849 -0.42949963 -0.88727307 -0.1681567 0
-0.01758806 -0.006164615 0.017507814 -0.28640169 -0.93715441 -0.19928768 0
-0.012482824 -0.0070954589 0.017343953 -0.07552743 -0.97456104 -0.21101296 0
-0.0073885173 -0.0068173739 0.017524341 0.19445527 -0.95762122 -0.21248229 0
-0.0035668337 -0.0057229074 0.01779105 0.405626 -0.88553542 -0.22648314 0
-0.026341738 -0.0011082293 0.017691299 -0.66982287 -0.7260288 -0.15562603 0
-0.022956824 -0.0036039879 0.017281435 -0.53330749 -0.82127964 -0.20268917 0
-0.019765392 -0.0048686913 0.015351193 -0.39899215 -0.86262888 -0.31092867 0
-0.0011674606 -0.0041154176 0.017103788 0.57322317 -0.78524715 -0.23409879 0
0.0022470136 -0.0015502365 0.01755555 0.35199019 -0.89748186 -0.26576158 0
0.007308654 -0.00085053482 0.017667979 0.22553678 -0.94133884 -0.25102672 0
0.010359291 -8.5642292e-05 0.019096922 0.46471062 -0.8566438 -0.22406556 0
-0.030575592 0.0040792255 0.017828463 -0.85059232 -0.50784701 -0.13632366 0
-0.028723661 0.0015270428 0.017417548 -0.77578157 -0.61129338 -0.1564714 0
0.0093626613 0.00028831934 0.015952833 0.41178945 -0.8718158 -0.26526687 0
0.012526027 0.0018024162 0.017363822 0.57464659 -0.78389221 -0.23514745 0
0.015501051 0.0043381341 0.017855285 0.73532259 -0.64585268 -0.2053656 0
-0.032364409 0.0073795277 0.017564133 -0.88365537 -0.45415029 -0.1135818 0
0.017598592 0.007451144 0.017587086 0.84846818 -0.48981398 -0.20045969 0
-0.035269506 0.014074859 0.018123647 -0.95443708 -0.28384939 -0.092083812 0
-0.034313455 0.011722391 0.017361611 -0.91823131 -0.37661076 -0.12253767 0
0.019391324 0.01204857 0.017058821 0.93633389 -0.27733219 -0.21532686 0
0.020205874 0.014024952 0.018562464 0.9780829 -0.18061949 -0.10358795 0
-0.035859685 0.017505156 0.017440446 -0.97913635 -0.12752999 -0.15820295 0
0.0199122 0.015305499 0.015609218 0.95665842 -0.19411711 -0.21707913 0
0.02043533 0.017500155 0.017505765 0.99127877 -0.044398155 -0.12407707 0
-0.035791598 0.022528604 0.017399974 -0.97492772 0.14692071 -0.16712342 0
-0.034977186 0.024697443 0.015239978 -0.91857606 0.30708972 -0.24882522 0
0.019743053 0.023978297 0.017174423 0.96432143 0.24084465 -0.10990042 0
0.020283356 0.021732682 0.017700713 0.98162884 0.16082363 -0.1026682 0
-0.035175782 0.025773199 0.018278165 -0.95063472 0.29192114 -0.1052407 0
-0.034227926 0.027906967 0.01732696 -0.91203016 0.37423319 -0.1677812 0
0.01874326 0.027371148 0.017565867 0.93489909 0.3396281 -0.10303655 0
-0.031883363 0.032564335 0.017382195 -0.84200287 0.51789343 -0.15105511 0
0.014726036 0.03463345 0.016828524 0.80917442 0.57804483 -0.10536101 0
0.016349949 0.032298695 0.01757565 0.84939629 0.51781648 -0.10194156 0
-0.030239604 0.035359759 0.018560223 -0.78754109 0.60738385 -0.10422988 0
-0.027880371 0.037807841 0.017502874 -0.71540588 0.68219584 -0.15100765 0
0.009872172 0.039909277 0.015786532 0.6430285 0.74746585 -0.16676085 0
0.012393241 0.037658945 0.017479934 0.73804551 0.6658631 -0.10915677 0
-0.025421519 0.040341992 0.018345613 -0.59698403 0.79151708 -0.13080814 0
-0.02241341 0.04201619 0.01753702 -0.47607407 0.86195809 -0.17430335 0
-0.017932991 0.044141609 0.017355086 -0.38280624 0.90952253 -0.16195102 0
-0.014903107 0.044938289 0.01535752 -0.24915798 0.94126177 -0.22791806 0
0.0031451581 0.044149183 0.017291116 0.41632077 0.89843863 -0.13958879 0
0.0074806754 0.041791406 0.017507477 0.53033185 0.84118897 -0.1055902 0
0.010159394 0.040198453 0.019160099 0.62703931 0.7731747 -0.09498743 0
-0.015655333 0.045199178 0.018135311 -0.29393271 0.94874823 -0.11610477 0
-0.012450105 0.045893624 0.017569399 -0.19624655 0.96986032 -0.14442441 0
-0.0075655505 0.046450853 0.01745596 -0.02678863 0.98847479 -0.14899625 0
-0.0026156909 0.046089098 0.017446958 0.18370187 0.97284782 -0.14078584 0
0.00077350845 0.04529978 0.018181071 0.3427546 0.93301243 -0.10957722 0
-0.020935571 -0.0054619997 0.022673953 -0.44264215 -0.89664793 0.0095088547 0
-0.01740421 -0.0067871101 0.022505874 -0.28245479 -0.95918411 -0.013600182 0
-0.012528372 -0.0077077979 0.022580251 -0.098015942 -0.99414814 -0.045414142 0
-0.0075861332 -0.0075909919 0.022541005 0.15702467 -0.9837929 -0.086572491 0
-0.0028944637 -0.0061557963 0.0226545 0.43135726 -0.89728582 -0.093856804 0
-0.026502734 -0.0014092642 0.0224091 -0.69630075 -0.71755081 0.01691673 0
-0.023447974 -0.0039593237 0.022483341 -0.56631219 -0.82414794 0.0084061241 0
-0.00042870612 -0.0046927663 0.022207756 0.57674927 -0.80937415 -0.11078663 0
0.0021223642 -0.0025909774 0.022474909 0.47485232 -0.87359321 -0.10653742 0
0.0074910591 -0.0016138209 0.022589073 0.2323219 -0.97032332 -0.067076169 0
0.010884938 -0.00038650064 0.022696462 0.44057268 -0.89443427 -0.076700352 0
-0.030660149 0.0038788931 0.022375127 -0.85423851 -0.51637822 0.060249612 0
-0.028934907 0.0014129202 0.022830484 -0.79474866 -0.60253429 0.072986342 0
0.013448839 0.0013639777 0.02245198 0.64012975 -0.76408434 -0.080056727 0
0.015920982 0.0038516587 0.022609033 0.78232247 -0.62142676 -0.042429771 0
-0.032542568 0.007418694 0.02260457 -0.89636135 -0.44041798 0.050677836 0
0.018102204 0.007354985 0.022416327 0.88524938 -0.46506789 -0.0067407908 0
-0.035269089 0.013922401 0.022196388 -0.9532038 -0.29504567 0.065959163 0
-0.034459122 0.011692197 0.022588527 -0.93073905 -0.35910115 0.069074422 0
0.019707644 0.011031267 0.022695629 0.95952046 -0.28148505 0.0093106003 0
0.020287016 0.013666443 0.022498131 0.98737949 -0.15805964 0.009942322 0
-0.036025245 0.017415816 0.02256866 -0.98635346 -0.14099683 0.085009657 0
0.02058279 0.017418226 0.02249988 0.99790436 -0.0007533601 0.064702481 0
-0.035985731 0.022543924 0.022268843 -0.98676699 0.13626456 0.087880157 0
0.019803539 0.023976255 0.022779515 0.96797061 0.23842555 0.078652129 0
0.020288087 0.021752825 0.022148119 0.98491246 0.14787588 0.089889959 0
-0.035297986 0.025785182 0.022313049 -0.95239633 0.29701111 0.068743199 0
-0.034395568 0.028222626 0.022629699 -0.92612278 0.36961418 0.075379603 0
0.018724324 0.027678832 0.022594759 0.94036394 0.33521464 0.057851512 0
-0.032332443 0.032431901 0.02242996 -0.86135131 0.50639546 0.04046569 0
0.014884344 0.034879334 0.022632783 0.79180115 0.60911059 0.045114566 0
0.016462294 0.032372039 0.022469912 0.86293828 0.50491703 0.019907374 0
-0.030337015 0.035427198 0.022484321 -0.78419948 0.62018275 0.020113118 0
-0.028082337 0.038009994 0.022572126 -0.72167987 0.69095176 0.04199823 0
0.0098827267 0.039958864 0.024308709 0.59572089 0.79203004 0.13343602 0
0.012690241 0.037523963 0.022422351 0.73998189 0.67046869 0.053838257 0
-0.025502315 0.040467631 0.022309668 -0.60352278 0.79476351 0.064118415 0
-0.022676565 0.04222386 0.022628162 -0.49563834 0.86632425 0.061845005 0
-0.018534878 0.0442614 0.022357244 -0.3935411 0.91920835 0.013468786 0
0.0035299447 0.044191677 0.022379516 0.46690401 0.88275874 0.052322716 0
0.0076102233 0.041759931 0.022442507 0.54622424 0.83358121 0.082350276 0
0.010185285 0.040150076 0.021385083 0.58882141 0.80531055 0.069023192 0
-0.015825283 0.045344513 0.022385152 -0.31285334 0.94973809 0.010978033 0
-0.012543731 0.046219859 0.022602191 -0.20362082 0.97837836 0.036254168 0
-0.0076676426 0.046724454 0.022587061 -0.0075258049 0.99944705 0.032386206 0
-0.0024113809 0.046291638 0.022511115 0.18536873 0.98156452 0.046578459 0
0.00097141881 0.045396086 0.022381615 0.3715837 0.92779338 0.033542089 0
-0.02063025 -0.0053346693 0.02629284 -0.42813978 -0.89181864 0.14613615 0
-0.01753802 -0.0063591804 0.027542084 -0.31559193 -0.93611407 0.15521696 0
-0.012475337 -0.0075156493 0.027593588 -0.14055142 -0.98224139 0.12428671 0
-0.0075037628 -0.0076010879 0.027512273 0.1368023 -0.98563361 0.099052198 0
-0.0026893972 -0.0061922045 0.027431739 0.41757631 -0.90671164 0.059194524 0
-0.026050849 -0.0011662316 0.027102539 -0.71337384 -0.67805505 0.17702864 0
-0.023062171 -0.0035455583 0.027750727 -0.55860561 -0.80379254 0.20463923 0
-0.019873457 -0.0049492968 0.029991267 -0.57087672 -0.79041529 0.2221341 0
-0.00026386851 -0.0048560547 0.028093718 0.52196908 -0.85047591 0.065107897 0
0.0022890705 -0.0027566876 0.027662681 0.45515865 -0.88932848 0.043879338 0
0.007441408 -0.001607228 0.027640961 0.25944835 -0.96067357 0.098958887 0
0.010729412 -0.00039191436 0.027042035 0.47354233 -0.87541765 0.096961051 0
-0.030378265 0.0043353834 0.026675774 -0.84051126 -0.51135492 0.17904472 0
-0.028374923 0.0018090133 0.02767894 -0.78697455 -0.58491302 0.19633573 0
0.013296389 0.0014429286 0.027562164 0.63093579 -0.76489103 0.12985273 0
0.015698725 0.0039544664 0.02749693 0.79809064 -0.58998001 0.12237218 0
-0.031846624 0.0075385063 0.027576206 -0.88007653 -0.41848469 0.2243567 0
0.017764946 0.0073311408 0.027320929 0.8851043 -0.4409157 0.14894176 0
-0.035064369 0.014589418 0.025298566 -0.93770427 -0.30060264 0.17420921 0
-0.033833593 0.012572898 0.027651986 -0.92225069 -0.29007572 0.25555757 0
0.019423295 0.012309189 0.027800925 0.95261496 -0.22573116 0.20388776 0
0.020124966 0.013919335 0.026054712 0.97991532 -0.15018466 0.13118853 0
-0.03539313 0.017785793 0.026423864 -0.9582811 -0.10063418 0.26752588 0
-0.034561399 0.017169371 0.028701816 -0.93960863 -0.12871929 0.31712273 0
0.0197425 0.017660035 0.028602572 0.97833103 0.041465756 0.20285194 0
0.020237699 0.017080024 0.026088992 0.98740834 0.051077995 0.14971925 0
-0.03535996 0.021788878 0.026300922 -0.95508742 0.11317042 0.27386239 0
-0.034499504 0.022719042 0.02852287 -0.93637329 0.15245312 0.31616941 0
0.019359814 0.022562359 0.027555851 0.96826696 0.15909891 0.19273454 0
0.020056872 0.020210709 0.02529723 0.98268634 0.12101516 0.14029603 0
-0.035071842 0.025226578 0.025123704 -0.95359969 0.15608186 0.25746068 0
-0.033618946 0.027682928 0.027437815 -0.90768152 0.31809011 0.27373889 0
0.018021377 0.027520163 0.027686004 0.91421002 0.33191118 0.2324973 0
-0.031515554 0.032371476 0.027244147 -0.834728 0.4865053 0.25795677 0
-0.029619588 0.034438882 0.028970404 -0.76600444 0.54896235 0.33448106 0
0.014341552 0.034264226 0.028088255 0.77489823 0.57666534 0.25882375 0
0.016065011 0.031992693 0.027309237 0.84239274 0.49009743 0.22400643 0
-0.03015841 0.035166007 0.025931859 -0.76355767 0.60924149 0.21401988 0
-0.027405733 0.037534799 0.027492467 -0.67078102 0.69142771 0.26829189 0
-0.02444314 0.039553542 0.029085705 -0.57194752 0.77651179 0.26439649 0
0.0093397256 0.039421268 0.028320728 0.61796713 0.75081468 0.23322499 0
0.012081255 0.037201274 0.027292103 0.69568163 0.6827597 0.22330764 0
-0.025162816 0.040099885 0.025736311 -0.63464916 0.7548871 0.16542634 0
-0.022256579 0.041609276 0.027428035 -0.51655781 0.82337964 0.23497653 0
-0.017747717 0.043915752 0.027622312 -0.39359242 0.89263284 0.21975376 0
-0.014164799 0.04482786 0.029295934 -0.2497586 0.9227621 0.29348046 0
-0.0011423406 0.044765621 0.029177697 0.22221172 0.92713356 0.30173707 0
0.0029114557 0.043654207 0.02778451 0.42475283 0.87493986 0.23251967 0
0.0070425947 0.041383386 0.027168522 0.54845405 0.81321174 0.19464035 0
-0.015539018 0.045165781 0.026118025 -0.28762114 0.94545591 0.15292858 0
-0.012338429 0.045676824 0.02726716 -0.17840159 0.96370667 0.1986009 0
-0.007486403 0.046041708 0.027576929 0.014176667 0.97274363 0.23144956 0
-0.0026709908 0.04568205 0.027060013 0.19031499 0.95067769 0.24493285 0
0.00062291377 0.045143388 0.025895938 0.29371738 0.94324517 0.15497956 0
-0.016750118 -0.0055976561 0.031850472 -0.3075088 -0.90404791 0.29687667 0
-0.012562095 -0.0063795922 0.032572962 -0.14997928 -0.93688405 0.31583956 0
-0.0074787019 -0.006522323 0.032429047 0.10977376 -0.94894087 0.29573816 0
-0.0033273608 -0.0057573901 0.03192417 0.35813245 -0.89705217 0.2589179 0
-0.025374569 -0.00053826498 0.031197306 -0.67267632 -0.68658102 0.275886 0
-0.022661412 -0.002142055 0.032393306 -0.5561859 -0.75602651 0.34508133 0
-0.018539963 -0.0043373485 0.033216935 -0.4114466 -0.83549201 0.36423174 0
-0.0012423964 -0.0043615242 0.03303007 0.49655396 -0.81711829 0.29283401 0
0.002296878 -0.0019381813 0.032476828 0.39946422 -0.88009495 0.25663465 0
0.0072408812 -0.00090331153 0.032092169 0.26672688 -0.93438023 0.23619983 0
0.010158083 -0.00016761474 0.030656628 0.37571463 -0.8985424 0.22684813 0
-0.027275901 0.0025917452 0.032372437 -0.761801 -0.54089421 0.35650048 0
-0.024579773 0.0003462921 0.034161545 -0.65625614 -0.58352578 0.47835708 0
0.0091338893 0.00041662288 0.033983842 0.4329206 -0.82581216 0.36140549 0
0.012623643 0.00231947 0.032537103 0.63391232 -0.70284599 0.32274261 0
0.015194012 0.0042961207 0.030992577 0.79931051 -0.55022365 0.24157104 0
-0.030827576 0.008330375 0.031843245 -0.86257446 -0.37324482 0.34154579 0
-0.029289976 0.0064058383 0.033312567 -0.81708705 -0.43667132 0.3764132 0
0.0145678 0.0055019488 0.034317054 0.75619203 -0.44781208 0.47711408 0
0.0165297 0.0076435553 0.032266978 0.8568058 -0.38064584 0.34783968 0
-0.032082424 0.012641115 0.032511186 -0.88815284 -0.24722619 0.38738063 0
0.018043362 0.012523442 0.032506861 0.90538138 -0.21066009 0.36865562 0
-0.033030935 0.017577486 0.0326223 -0.90589899 -0.085968606 0.41467652 0
0.018602919 0.017548667 0.032515861 0.93683493 0.017312592 0.34934321 0
-0.032899268 0.022620074 0.032407794 -0.89402699 0.14327133 0.42448679 0
0.017986689 0.0226765 0.032481469 0.92348701 0.1960353 0.32976055 0
-0.031705976 0.027417446 0.032497823 -0.85976601 0.28494117 0.42380527 0
-0.029841637 0.029651288 0.034539305 -0.80761337 0.42496827 0.4088552 0
0.01479439 0.029363912 0.034525353 0.82643276 0.39044619 0.40566075 0
0.016501764 0.027506303 0.032471959 0.86505133 0.36208749 0.34724468 0
-0.030732451 0.031074181 0.031316921 -0.82423002 0.4340806 0.36361906 0
-0.028600436 0.033228666 0.032802302 -0.75503147 0.52133781 0.39766115 0
0.013295305 0.032924846 0.032881655 0.73915952 0.55457038 0.3822237 0
0.015471307 0.030887127 0.031221734 0.8315075 0.44483301 0.33274448 0
-0.026387997 0.036423113 0.032119483 -0.65482593 0.66113001 0.36621058 0
-0.023235923 0.038649432 0.033039927 -0.5593366 0.73404115 0.38513139 0
0.0046079364 0.03990519 0.03477494 0.49258617 0.75010628 0.44124761 0
0.0079896403 0.038552444 0.03294665 0.5715695 0.72679168 0.38089654 0
0.011090324 0.036252923 0.031847611 0.68976092 0.63022679 0.35643223 0
-0.021287182 0.040849235 0.031380717 -0.49111113 0.79776478 0.34983027 0
-0.017559621 0.042226076 0.032584962 -0.38827273 0.83959901 0.37989196 0
-0.012588267 0.043847069 0.032679405 -0.19651809 0.89892387 0.39155644 0
-0.0072833593 0.044250973 0.033079345 0.019155741 0.92087442 0.38938844 0
-0.0024071594 0.043775324 0.03255387 0.21553828 0.90107292 0.37631232 0
0.0024328239 0.042221077 0.032405797 0.37898189 0.84638232 0.37417859 0
0.0060168393 0.040735725 0.031301323 0.50671357 0.80048591 0.32009959 0
-0.010934556 0.045096003 0.030356709 -0.15072049 0.93344885 0.32550988 0
-0.0074891192 0.04521621 0.030606776 0.0047681648 0.9434244 0.33155346 0
-0.0046286895 0.045104135 0.03032436 0.17789999 0.93282974 0.31333706 0
-0.011560548 -0.0053276843 0.03566435 -0.1343469 -0.87998265 0.45561108 0
-0.0078239311 -0.005347406 0.035606634 0.11321723 -0.88446635 0.45266002 0
-0.021305472 -0.0009326039 0.03636568 -0.52445585 -0.69651175 0.48971161 0
-0.017572217 -0.0023685747 0.037408795 -0.36641404 -0.75650585 0.5417006 0
-0.012684728 -0.0035991343 0.038087666 -0.17428008 -0.81854755 0.54736304 0
-0.0073993038 -0.0039113676 0.038038503 0.10455858 -0.85136729 0.51404405 0
-0.0024205861 -0.0026714252 0.037666634 0.37564561 -0.79540378 0.4756293 0
0.0015966815 -0.00085067906 0.03649205 0.4985694 -0.78869045 0.35971639 0
0.0059634657 -0.00026885993 0.035496116 0.20457324 -0.91863221 0.33803058 0
-0.025868012 0.0036594539 0.036268141 -0.70705062 -0.50443798 0.49560237 0
-0.023013089 0.0019657346 0.03793155 -0.59310222 -0.56968427 0.56893724 0
-0.019361114 0.00045437133 0.039629083 -0.4343892 -0.59017563 0.68044013 0
-8.0221202e-05 7.1434151e-05 0.03975676 0.56336355 -0.63897723 0.52376485 0
0.0029354643 0.00074683322 0.038545534 0.11669539 -0.88901126 0.44276536 0
0.0077536376 0.0018053541 0.037758719 0.43236759 -0.7526238 0.49660426 0
0.011464501 0.0037326724 0.036528919 0.61603081 -0.59300184 0.51851219 0
-0.027326442 0.0075818459 0.037591215 -0.73752511 -0.39803058 0.54555327 0
-0.024669763 0.0057937894 0.039505407 -0.61165339 -0.46348289 0.64114261 0
0.0097755054 0.0052172523 0.039933197 0.67217064 -0.45331597 0.58539832 0
0.013041519 0.0072599957 0.037708852 0.72761768 -0.40900269 0.550717 0
0.015307827 0.0088662002 0.035696391 0.81578493 -0.28944612 0.50071537 0
-0.030494334 0.012952267 0.036009181 -0.85679984 -0.21839373 0.46711701 0
-0.028855102 0.012161395 0.038221586 -0.80061799 -0.25329912 0.54300129 0
0.014147725 0.012045552 0.039000556 0.78089547 -0.23453952 0.57895899 0
0.016071046 0.012805154 0.036492858 0.83367652 -0.22092265 0.50613892 0
-0.030963637 0.017467286 0.036660891 -0.86235809 -0.064963378 0.50211376 0
-0.029370489 0.017576242 0.039192773 -0.81943506 -0.075130291 0.5682267 0
0.014749173 0.017490646 0.039567932 0.79376841 -0.035628766 0.60717571 0
0.016416885 0.017471574 0.037038367 0.8594951 -0.015627781 0.51090515 0
-0.030842299 0.022376493 0.036422774 -0.85347903 0.14126109 0.50161612 0
-0.02922141 0.022727689 0.038886089 -0.8153789 0.14855406 0.55954349 0
0.014401166 0.022966579 0.03922933 0.79888088 0.21297519 0.56252193 0
0.016122989 0.022268819 0.036788739 0.85154772 0.18414198 0.49087504 0
-0.030450545 0.026163999 0.035665456 -0.83860981 0.23721054 0.49037203 0
-0.028506357 0.027744811 0.037855227 -0.795865 0.30119124 0.52524549 0
0.013510463 0.027826829 0.037853375 0.77503181 0.36945888 0.51266533 0
0.015418362 0.026250616 0.035911396 0.81517059 0.35397744 0.45847225 0
-0.026776239 0.032107312 0.037114583 -0.72154301 0.47370678 0.50495303 0
-0.02394584 0.034023888 0.038782522 -0.58290052 0.59845412 0.54961777 0
0.0087365545 0.033724785 0.038709212 0.62583292 0.55692869 0.54604369 0
0.011668092 0.031865139 0.036953963 0.69707006 0.53199804 0.48069894 0
-0.025310025 0.035368986 0.03566321 -0.68010473 0.58562994 0.44101611 0
-0.022136495 0.036865454 0.037229862 -0.52204663 0.68627024 0.5064587 0
-0.018058043 0.038804617 0.038103871 -0.39217749 0.75988692 0.5184291 0
-0.013971307 0.039617255 0.039509691 -0.26572114 0.77520293 0.5731079 0
-0.0013132746 0.039598357 0.039438318 0.24058406 0.78309518 0.57348174 0
0.0030064678 0.038561858 0.03821101 0.42492479 0.73247844 0.53189689 0
0.0069272914 0.036818348 0.037020966 0.53591758 0.67563856 0.50626558 0
0.010071751 0.035190485 0.035267696 0.64750183 0.60863519 0.45858979 0
-0.016559003 0.040828843 0.036162715 -0.35631812 0.79518557 0.4906294 0
-0.012334035 0.041554697 0.037158318 -0.1988138 0.83858395 0.50719821 0
-0.0075596641 0.041927826 0.037546169 0.002577177 0.85257047 0.52260584 0
-0.0026813506 0.041442942 0.03717288 0.21030766 0.82858711 0.51885837 0
0.0014217255 0.04074664 0.036166191 0.36515072 0.79329526 0.4871833 0
-0.015907707 -0.00066560024 0.040597674 -0.28468382 -0.70279199 0.65194976 0
-0.012402124 -0.0012929986 0.041210726 -0.18847404 -0.72809142 0.65906024 0
-0.0074832016 -0.0013346749 0.041504435 0.088623911 -0.71142483 0.69715172 0
-0.0033462718 -0.00083404651 0.040938661 0.2957212 -0.71691126 0.6313377 0
-0.021358816 0.0037123971 0.040988918 -0.5223158 -0.51629716 0.67869246 0
-0.017605366 0.0024881307 0.042400159 -0.38836959 -0.55511558 0.73553765 0
-0.012630891 0.0016749441 0.04370635 -0.19168009 -0.58072555 0.79121208 0
-0.0075915288 0.00125851 0.043878723 0.042940527 -0.65693647 0.75272208 0
-0.0019448047 0.0018869553 0.042980384 0.37618363 -0.64429903 0.6658563 0
0.0024791013 0.0030069731 0.042113215 0.19966961 -0.74999458 0.63058716 0
0.0066041001 0.0038048176 0.041285943 0.43062931 -0.64985138 0.6262998 0
-0.025660189 0.0090243937 0.040636674 -0.6672402 -0.37472686 0.64371604 0
-0.022477962 0.0075939228 0.042537175 -0.55008811 -0.42227709 0.72047567 0
-0.018754646 0.0062985616 0.044253081 -0.46032277 -0.44667619 0.76719177 0
0.0030515767 0.0057204785 0.044532783 0.27742809 -0.5704298 0.77307403 0
0.0077190246 0.0071843215 0.043082848 0.52118111 -0.44017059 0.73117721 0
0.011093299 0.0085139787 0.040954787 0.66991913 -0.38072097 0.63738519 0
-0.026420061 0.012654002 0.041489549 -0.70424491 -0.25862542 0.66117471 0
-0.023450328 0.012165848 0.043961812 -0.59956002 -0.27858961 0.75027698 0
0.0091077527 0.011915186 0.044210717 0.6036219 -0.24461152 0.75881869 0
0.01179731 0.012632797 0.041971482 0.69858658 -0.21143173 0.68357402 0
-0.0270459 0.017601376 0.042005997 -0.71729207 -0.062451608 0.6939683 0
-0.024367034 0.017389441 0.04447408 -0.67168474 -0.092326693 0.73506141 0
0.0096378839 0.01722379 0.044760566 0.61658096 -0.039240148 0.786313 0
0.012255585 0.017490307 0.042422336 0.70971096 -0.044428609 0.70309055 0
-0.026785431 0.022584274 0.041949056 -0.72275728 0.14807044 0.67505342 0
-0.024254013 0.022731623 0.044364303 -0.6563741 0.11672476 0.7453512 0
0.0093922224 0.022999849 0.044533178 0.62031221 0.16085012 0.76768488 0
0.012224187 0.022305224 0.042038038 0.71766549 0.16549934 0.67643648 0
-0.026105335 0.027290413 0.041201413 -0.7046026 0.28772342 0.64865285 0
-0.023068998 0.02805428 0.043643318 -0.58816046 0.34086198 0.73340333 0
0.0082707359 0.027928915 0.043602835 0.58630735 0.37256998 0.71932977 0
0.01124435 0.027088592 0.041265499 0.68687749 0.34984973 0.6370278 0
-0.025300469 0.030492688 0.040426556 -0.64489579 0.46851158 0.60382634 0
-0.022053607 0.032188088 0.042033322 -0.54348469 0.48984677 0.68167037 0
-0.018215459 0.033234838 0.043830495 -0.3992092 0.53511649 0.74450135 0
-0.014033535 0.034591515 0.044749219 -0.25842085 0.58466572 0.76901537 0
-0.0010478502 0.034557324 0.04468115 0.25693062 0.5967254 0.76020086 0
0.0031618362 0.033314716 0.043794237 0.40425748 0.56914574 0.71599513 0
0.0070991921 0.032127127 0.041832276 0.561867 0.52394164 0.64014882 0
0.010486605 0.03015244 0.040201798 0.66018426 0.45147815 0.60027021 0
-0.020412445 0.035512917 0.040447459 -0.47597435 0.6404798 0.60268903 0
-0.017161701 0.036518086 0.041551284 -0.3697685 0.67410743 0.63941413 0
-0.012440869 0.037609883 0.042424861 -0.20739925 0.70770282 0.67538309 0
-0.0075577642 0.037817441 0.042867407 0.016147818 0.70997411 0.70404261 0
-0.0024969021 0.037354056 0.04247025 0.20282702 0.70704013 0.67746246 0
0.0019119816 0.03643582 0.041525785 0.38013995 0.67955846 0.62745041 0
0.0054113688 0.035346448 0.040278371 0.47077736 0.59787232 0.64878142 0
-0.010096381 0.040126096 0.040136289 -0.22164357 0.8143903 0.53632319 0
-0.0076344954 0.040170789 0.04022846 0.038243484 0.80966693 0.58564222 0
-0.015373476 0.00495461 0.045234244 -0.3091118 -0.56597167 0.76428133 0
-0.012237154 0.004146554 0.045709502 -0.222132 -0.63181067 0.74261206 0
-0.0075074085 0.0037075996 0.046022747 0.019349782 -0.64939892 0.76020169 0
-0.0032078761 0.004283207 0.045724746 0.2577973 -0.60801804 0.75090247 0
-0.020238539 0.0097010378 0.045366518 -0.49112919 -0.3889077 0.77945042 0
-0.016868565 0.0078659207 0.04631754 -0.43965721 -0.46113238 0.77075189 0
-0.012612636 0.0074328552 0.048028324 -0.28927618 -0.52470821 0.80062509 0
-0.0077029737 0.0069831661 0.048598189 0.012234583 -0.58546478 0.81060547 0
-0.0024834762 0.0075245104 0.047832008 0.27851653 -0.54997051 0.78737605 0
0.0021628826 0.0079689631 0.046323303 0.33354577 -0.49829373 0.80028158 0
0.0058248881 0.0091613019 0.045350138 0.42101017 -0.33917576 0.84125513 0
-0.021342877 0.013008496 0.045969021 -0.58691585 -0.27045536 0.76314068 0
-0.017552381 0.012487924 0.048244175 -0.47691011 -0.32339627 0.81729525 0
-0.013926955 0.011009048 0.049559437 -0.37973499 -0.37998629 0.84345222 0
-0.0012658612 0.010701798 0.049462587 0.33809856 -0.4624573 0.81964785 0
0.0027513688 0.01231357 0.048351265 0.43755132 -0.35096213 0.82787341 0
0.0066947197 0.012690899 0.04611741 0.53057468 -0.25090849 0.80965149 0
-0.022001555 0.017690476 0.046550725 -0.63046223 -0.077578977 0.77233338 0
-0.01831108 0.017238704 0.049107078 -0.50296783 -0.12849025 0.85470092 0
0.0035109068 0.017167386 0.049285125 0.49652019 -0.10517282 0.86163008 0
0.0072875037 0.017613288 0.04666153 0.61827821 -0.04245726 0.78481162 0
-0.021980252 0.022292554 0.046392158 -0.63758832 0.13133496 0.7590996 0
-0.018248927 0.022890374 0.048987903 -0.50788218 0.16344187 0.84577918 0
0.0034707249 0.022572666 0.04896801 0.50883245 0.1858789 0.84055853 0
0.0070829261 0.022234971 0.046468072 0.59754455 0.16557546 0.78455412 0
-0.021037016 0.026745325 0.045813613 -0.56263393 0.33961996 0.75372499 0
-0.017550893 0.02748975 0.047724321 -0.4590553 0.39940012 0.79356652 0
-0.012990435 0.02864759 0.049235851 -0.26797608 0.48217028 0.83408666 0
-0.0076460033 0.029365165 0.049682997 -0.0066678454 0.50543594 0.86283839 0
-0.0020118505 0.028563529 0.049229532 0.25928402 0.47442785 0.84124309 0
0.002480777 0.027553676 0.047736239 0.45370534 0.39248133 0.80006862 0
0.0061536343 0.026778752 0.045769561 0.55303782 0.31932169 0.76953411 0
-0.016652856 0.031278063 0.046008766 -0.40287316 0.52191591 0.75186241 0
-0.012487097 0.032392487 0.046823397 -0.20784263 0.58215809 0.78606194 0
-0.0074398066 0.032482531 0.047470242 -0.0017075149 0.60392505 0.79703933 0
-0.0025851349 0.032281224 0.046878491 0.22262119 0.58568639 0.7793659 0
0.0018490411 0.031377673 0.045853667 0.3671394 0.50534463 0.78091973 0
-0.010191415 0.035220385 0.045163892 -0.14654306 0.59822398 0.78781551 0
-0.0071996069 0.035266478 0.045260761 0.043291725 0.64538318 0.76263112 0
-0.0047108987 0.035113588 0.045091216 0.15498807 0.58211589 0.79819787 0
-0.010592156 0.0098408246 0.050209414 -0.21157789 -0.47300044 0.85528088 0
-0.0076605892 0.0094606467 0.050276216 0.002453747 -0.5214141 0.85330021 0
-0.0045757773 0.009780827 0.050096042 0.23823245 -0.52218205 0.81888413 0
-0.015372619 0.014337081 0.050123163 -0.42921066 -0.26168492 0.8644647 0
-0.012219847 0.012868668 0.050926551 -0.31009606 -0.30137852 0.90167147 0
-0.0074560824 0.01245862 0.051587574 0.014172226 -0.33879855 0.94075209 0
-0.0027052378 0.012668876 0.050869823 0.28016883 -0.35315081 0.89263093 0
0.00057431217 0.014241159 0.050279807 0.43573573 -0.28392786 0.85411906 0
-0.016015496 0.017819991 0.05047581 -0.43380421 -0.099534884 0.89549243 0
-0.012471073 0.017387705 0.051817395 -0.29299232 -0.1000224 0.95086855 0
-0.0076061548 0.017396497 0.05256496 -0.021146318 -0.051613774 0.99844319 0
-0.0025869783 0.01757562 0.051940534 0.26957262 -0.072404139 0.96025431 0
0.0011202105 0.017682383 0.050591726 0.41653833 -0.070127055 0.9064095 0
-0.015818791 0.022127347 0.050476808 -0.42949319 0.14110132 0.89197868 0
-0.012524808 0.022469517 0.051610067 -0.268356 0.16933309 0.94832027 0
-0.0075420169 0.022631189 0.052272245 0.0093585812 0.19659404 0.98044038 0
-0.0025343776 0.022554366 0.051594485 0.25894374 0.20239007 0.94445032 0
0.0010330847 0.021925239 0.050403059 0.41837186 0.15248075 0.89538521 0
-0.015047379 0.025122497 0.050151121 -0.57459188 0.293984 0.76381779 0
-0.012201269 0.026348375 0.050604906 -0.2133237 0.36264229 0.90718442 0
-0.0073188776 0.026985081 0.050855089 0.017747721 0.39147821 0.92001623 0
-0.0030998904 0.026373973 0.050573003 0.21891212 0.37211916 0.90200049 0
7.176154e-05 0.025171148 0.05010413 0.40413675 0.26760408 0.87467796 0
