# .PCD v0.7 - Point Cloud Data file format
VERSION 0.7
FIELDS x y z normal_x normal_y normal_z curvature
SIZE 4 4 4 4 4 4 4
TYPE F F F F F F F
COUNT 1 1 1 1 1 1 1
WIDTH 646
HEIGHT 1
VIEWPOINT 0 0 0 1 0 0 0
POINTS 646
DATA ascii
-0.018694418 0.0021967853 0.021254599 -0.61443055 -0.12099008 -0.77963877 0
0.057552919 0.0025492301 0.022506168 0.9016794 -0.088917114 -0.42316428 0
-0.021220881 0.0072529376 0.023243232 -0.84003323 -0.059521683 -0.53925991 0
-0.01893609 0.0072840014 0.020792548 -0.61600822 -0.070119187 -0.78461272 0
0.058179781 0.0076046698 0.022321023 0.86206776 -0.11522657 -0.49352002 0
-0.020757703 0.012659344 0.02350891 -0.92531615 0.18803999 -0.32928872 0
-0.018433917 0.012791608 0.020752024 -0.69195414 0.083335102 -0.71711552 0
-0.013670615 0.014290588 0.020297175 -0.1643471 0.42832518 -0.88855368 0
0.058197167 0.012159578 0.021874582 0.77374715 0.052720837 -0.63129693 0
-0.020308327 0.015886279 0.024323257 -0.95403004 0.26840475 -0.13336222 0
-0.018401278 0.017465755 0.02172048 -0.89905649 0.13304442 -0.41712913 0
-0.01282066 0.017601864 0.020981522 -0.29609016 0.12994426 -0.94627959 0
0.05316342 0.018797474 0.020505745 0.31197315 0.43677962 -0.84373945 0
0.057432052 0.017270004 0.022346303 0.65818262 0.30007422 -0.69047171 0
-0.018004911 0.022147067 0.02229091 -0.93276197 0.35946211 0.027240619 0
-0.012532338 0.021080881 0.020523855 -0.12777829 -0.36774158 -0.92110729 0
0.039047442 0.024293721 0.020311365 0.23346576 0.48164937 -0.84469384 0
0.042463627 0.023759754 0.020902915 0.21346605 0.52207577 -0.82575369 0
0.048122469 0.022823967 0.02177757 0.22452001 0.60467368 -0.76417309 0
0.052438613 0.022192186 0.022659674 0.2793307 0.64296436 -0.7131418 0
0.05637008 0.021211157 0.023865897 0.52692091 0.57897544 -0.62220716 0
-0.016073268 0.02725246 0.022595936 -0.90241307 0.43054885 -0.016682021 0
-0.014921132 0.029611051 0.022079125 -0.89461315 0.44565657 -0.032518379 0
0.03327043 0.029273676 0.020441946 0.44061431 0.37397873 -0.81608754 0
0.037642151 0.027884468 0.021984331 0.32814413 0.50156748 -0.80046958 0
0.041905496 0.027153747 0.023287347 0.33253214 0.61555731 -0.7145009 0
0.047262959 0.025883369 0.024256602 0.26096565 0.70039535 -0.66433674 0
-0.013642248 0.032048982 0.022460306 -0.87584192 0.48257625 0.0046064612 0
0.029776964 0.034395896 0.020308387 0.58715785 0.20611408 -0.78279161 0
0.03295688 0.032712933 0.022054469 0.55132556 0.41296524 -0.72491378 0
0.03688518 0.03133988 0.023993723 0.48123237 0.56058544 -0.67391342 0
-0.010860826 0.036798958 0.022046315 -0.83872718 0.54449069 0.0081651229 0
-0.0092033735 0.039165616 0.022583328 -0.81092829 0.58513176 0.0040094675 0
0.028858921 0.038351633 0.021124749 0.68394822 0.33776176 -0.64663118 0
0.031391155 0.036856301 0.023097998 0.69020385 0.38198379 -0.61457872 0
-0.006647266 0.042472098 0.022807373 -0.77752405 0.62882531 0.005935227 0
-0.0047155027 0.044822752 0.022209277 -0.77005011 0.63798332 0.00014580844 0
0.027966242 0.042772137 0.022717752 0.77335745 0.38090408 -0.5067842 0
0.030400328 0.040684093 0.024352178 0.72251058 0.40461245 -0.56059533 0
-0.0026249457 0.046918917 0.022478864 -0.69987512 0.71426201 -0.0021540644 0
0.00021257334 0.049652401 0.022833822 -0.6688906 0.74334115 -0.0054210844 0
0.024252301 0.048676506 0.022018354 0.7878378 0.51647711 -0.33550388 0
0.025760941 0.04680508 0.022646084 0.78223205 0.48783806 -0.38746235 0
0.0030509108 0.052060716 0.022498978 -0.62740064 0.77869606 -0.00092543376 0
0.0059465687 0.054294512 0.022753634 -0.59165096 0.80619413 -0.00036158381 0
0.019016424 0.054345895 0.022005472 0.57678741 0.78931206 -0.21048249 0
0.022054769 0.051944602 0.023011876 0.70021158 0.66584224 -0.25760028 0
0.008325954 0.055894196 0.022280775 -0.51263231 0.85859591 0.0045952769 0
0.012454135 0.056959711 0.02256679 0.032672543 0.99671346 -0.074126147 0
0.017055457 0.05571739 0.022774195 0.46307376 0.87587595 -0.13566121 0
-0.016600151 -0.021786917 0.028588282 -0.3310419 -0.57607478 -0.74736142 0
-0.012420544 -0.022538753 0.028173193 -0.10833116 -0.68340832 -0.72195381 0
-0.007488017 -0.022228213 0.027477456 -0.032796271 -0.71968991 -0.69352061 0
-0.0026285129 -0.02230446 0.027530307 0.006177491 -0.77630031 -0.63033289 0
0.0026199156 -0.022469591 0.027738793 -0.006994565 -0.83486801 -0.55040574 0
0.0074416604 -0.022482738 0.027747298 -0.018454349 -0.8862831 -0.46277609 0
0.012374521 -0.02246624 0.027452819 -0.032962989 -0.93068671 -0.3643291 0
0.017519385 -0.0225612 0.027342545 -0.011994099 -0.94307315 -0.33236888 0
0.022290656 -0.022651492 0.027399454 -0.022441935 -0.93795025 -0.34604305 0
0.027584696 -0.022907106 0.027485633 -0.044958334 -0.92016846 -0.38893285 0
0.032287188 -0.023312761 0.027586022 -0.085268535 -0.9013617 -0.42458978 0
0.037217494 -0.023874065 0.027775005 -0.077868596 -0.90418893 -0.41997486 0
0.042051628 -0.024027728 0.027554216 -0.00055486418 -0.92584985 -0.37789127 0
0.04782144 -0.022640316 0.027357372 0.52972811 -0.82051063 -0.21482657 0
0.050133619 -0.020342479 0.026916243 0.82539678 -0.55471414 -0.10493976 0
-0.020566866 -0.017480521 0.029234327 -0.78983378 -0.29484594 -0.53779966 0
-0.018005665 -0.017586214 0.026927009 -0.51296026 -0.37771314 -0.77084661 0
-0.013120412 -0.018938383 0.025540559 -0.21116132 -0.52558309 -0.82411975 0
-0.0086103389 -0.019601561 0.025165668 -0.12099791 -0.62180746 -0.77376676 0
0.051659241 -0.017725492 0.027025832 0.88822138 -0.45937273 0.0062756301 0
-0.021514535 -0.012366621 0.028326377 -0.84896684 -0.23497961 -0.47332847 0
-0.019172974 -0.013149443 0.025818877 -0.62890762 -0.26890233 -0.72949761 0
0.054007798 -0.012578447 0.027772339 0.92653418 -0.37563804 0.020748569 0
0.055054374 -0.010057013 0.02514019 0.8242268 -0.54496038 -0.15384561 0
-0.022069683 -0.0075662993 0.027601628 -0.90104568 -0.16890375 -0.39948487 0
-0.019785212 -0.0094081732 0.025081974 -0.72441733 -0.21205607 -0.65593582 0
0.055889208 -0.007517112 0.027611889 0.94925636 -0.31278485 0.032833952 0
-0.022536581 -0.002397398 0.027167439 -0.94751734 -0.10003136 -0.30365202 0
0.057427395 -0.0020871195 0.027901238 0.97122532 -0.23664419 0.026849926 0
-0.022608122 0.0027865376 0.027245432 -0.98618543 0.079340734 -0.14540794 0
0.058485031 0.0029381458 0.027548943 0.98456818 -0.17430651 0.015578898 0
-0.022135438 0.0075130677 0.027365854 -0.99101579 0.12329212 -0.051833604 0
0.059163347 0.0074254372 0.027594546 0.99244756 -0.1216833 0.015525858 0
-0.021281447 0.012333413 0.027547831 -0.97611332 0.2171365 0.0073917834 0
0.059503898 0.012811242 0.027599992 0.99983245 -0.001915834 0.018205533 0
-0.020327594 0.016070953 0.027977187 -0.95608032 0.29300067 0.0078174407 0
-0.019514458 0.018669812 0.02789191 -0.94995302 0.31237099 0.0036737542 0
0.059456583 0.017179163 0.027364751 0.99967325 0.02546118 0.0022774886 0
-0.01836743 0.021880629 0.027306426 -0.93527061 0.35391241 0.0038562929 0
0.053976651 0.024389101 0.026045294 0.39250126 0.78834915 -0.4737598 0
0.057611413 0.022362962 0.027513392 0.71605545 0.65642238 -0.23743248 0
-0.016021546 0.027359663 0.027229171 -0.90659344 0.42191046 0.0089387819 0
-0.014906111 0.029682875 0.027714854 -0.88414973 0.46715662 0.0066378461 0
0.043086004 0.029204531 0.025831163 0.36452591 0.6960144 -0.61861539 0
0.047228485 0.028231315 0.027256591 0.35166851 0.7742461 -0.52618647 0
0.052170143 0.026087092 0.027522065 0.40890968 0.80543548 -0.4290297 0
0.055371761 0.02509789 0.029399684 0.59546804 0.77110451 -0.2254234 0
-0.0134374 0.032370761 0.027798606 -0.87262148 0.48833424 0.0078389607 0
0.038263079 0.033259396 0.026963646 0.53805482 0.57508326 -0.61625987 0
0.042234838 0.031363364 0.027980572 0.44234219 0.70663983 -0.55226213 0
0.046119373 0.030204741 0.029404409 0.41476411 0.78624755 -0.45802334 0
-0.01094202 0.036550958 0.027661456 -0.83736157 0.54649812 0.012861602 0
-0.0093461843 0.038922321 0.0275661 -0.82067388 0.57130295 0.010365182 0
0.033663817 0.038183339 0.026763733 0.66623431 0.50894397 -0.54507595 0
0.03610668 0.037260674 0.028782506 0.62725198 0.58277851 -0.5166471 0
-0.0069969255 0.042010594 0.027391367 -0.77863735 0.62745672 0.0046854583 0
-0.004873394 0.044614017 0.027609691 -0.76570266 0.64318687 0.0031660623 0
0.029395292 0.044072904 0.026287105 0.77593768 0.45583069 -0.43604928 0
0.031554107 0.042072397 0.027824126 0.73828167 0.51582885 -0.43458122 0
-0.0025263608 0.047021478 0.027647497 -0.70434654 0.7098555 -0.0010720677 0
0.00027573845 0.049711514 0.02752725 -0.67668235 0.73627508 -8.9310197e-05 0
0.027654262 0.047351938 0.027624756 0.73783982 0.5969407 -0.31504643 0
0.0027911686 0.05186151 0.027576469 -0.6337629 0.77351385 -0.0045677433 0
0.0060186787 0.054327741 0.026876487 -0.56916314 0.82222456 0.00028862926 0
0.01978318 0.054770172 0.026134735 0.52305812 0.83596718 -0.16603941 0
0.022756414 0.052784067 0.027810058 0.65516436 0.73008943 -0.19424003 0
0.025143163 0.050577968 0.02834817 0.72742599 0.64895958 -0.22294164 0
0.0083366111 0.055878941 0.027445477 -0.51567286 0.85677379 -0.0044815615 0
0.012471031 0.057098322 0.027520066 -0.056388848 0.99821615 0.019614376 0
0.017274879 0.056180347 0.027364157 0.37997943 0.92013317 -0.094712876 0
-0.016566928 -0.025687652 0.033329893 -0.26299402 -0.89905858 -0.35003981 0
-0.012572497 -0.026038351 0.03266722 -0.073485598 -0.88191295 -0.46564955 0
-0.0073322528 -0.026149008 0.032768507 0.041710973 -0.87353206 -0.48497617 0
-0.0029987416 -0.026231762 0.033491209 0.088032164 -0.88702947 -0.45324281 0
0.0023861649 -0.025859004 0.033830274 0.10052493 -0.8910597 -0.4426142 0
0.0069839973 -0.02541063 0.033782091 0.063857131 -0.92162329 -0.38279611 0
0.012052527 -0.025284946 0.034407385 0.077296421 -0.93940395 -0.33398435 0
0.0168384 -0.025158383 0.03459172 0.024117399 -0.94765151 -0.31839445 0
0.022541465 -0.025151161 0.034510531 -0.052393664 -0.96469682 -0.25809872 0
0.027604744 -0.025304792 0.034045648 -0.07236886 -0.95346153 -0.29270101 0
0.032750346 -0.025578057 0.033452179 -0.09045741 -0.95712221 -0.27519926 0
0.037428282 -0.025638543 0.032785699 -0.017802684 -0.97038156 -0.24092057 0
0.041997403 -0.025381655 0.032605115 0.14178874 -0.97783947 -0.15403214 0
-0.020377124 -0.02157356 0.03280187 -0.95217919 -0.29362783 -0.084483936 0
-0.018529575 -0.023683131 0.031852055 -0.61134857 -0.63580471 -0.47117436 0
-0.01187932 -0.024771133 0.030514764 -0.041298755 -0.78569782 -0.61723036 0
-0.0067686993 -0.024655703 0.030374872 0.01268313 -0.83389187 -0.55178213 0
-0.0015387377 -0.024556901 0.030714441 0.060898062 -0.85821658 -0.50966233 0
0.00219304 -0.024471896 0.030992519 0.051690981 -0.87388247 -0.48338121 0
0.0076971529 -0.024299996 0.031308353 0.043689378 -0.903458 -0.42644447 0
0.012741496 -0.02426281 0.031796604 0.031769875 -0.92871916 -0.36942035 0
0.017615749 -0.024300892 0.032193135 0.0054937918 -0.94674891 -0.32192597 0
0.022360237 -0.024344223 0.032036711 -0.034672119 -0.94579029 -0.32292205 0
0.027258186 -0.024519313 0.031794861 -0.076839872 -0.94027323 -0.33163515 0
0.032218266 -0.024723317 0.030971339 -0.093774803 -0.93338227 -0.34641558 0
0.036567517 -0.024916984 0.030313801 -0.052814677 -0.94140697 -0.33311194 0
0.043798737 -0.024887232 0.032157235 0.2490259 -0.96237642 -0.10870922 0
0.047661737 -0.023076905 0.032801896 0.62861979 -0.77731174 0.024973156 0
0.05015 -0.020305375 0.032179885 0.87326914 -0.4866055 0.024820579 0
-0.02130924 -0.017830001 0.031922579 -0.96310753 -0.24283141 -0.11600313 0
0.051709134 -0.017347086 0.032462891 0.89268422 -0.44984528 0.027464412 0
-0.022294382 -0.012822169 0.032551706 -0.99091822 -0.13424607 -0.007693632 0
0.054028276 -0.012257192 0.031787191 0.92900527 -0.3694222 0.02182821 0
-0.022858711 -0.0074291206 0.032078981 -0.99775857 -0.066514395 0.0073301578 0
0.054944038 -0.009866558 0.032540519 0.93214577 -0.36109006 0.026800925 0
0.055754855 -0.0074254423 0.032834388 0.95068103 -0.30927268 0.023579877 0
-0.023011049 -0.0023183476 0.033038247 -0.99995637 0.0053837174 0.0076321815 0
0.057244081 -0.0022903755 0.032659091 0.9693529 -0.24417704 0.027063772 0
-0.022751929 0.0024920627 0.032534089 -0.99541247 0.094618246 0.014188745 0
0.058218196 0.0022692673 0.032939862 0.98425758 -0.17471069 0.026705636 0
-0.022083735 0.0079319701 0.032660436 -0.98722768 0.15877606 0.013095977 0
0.059045933 0.007549786 0.032639734 0.99028492 -0.1365902 0.026056822 0
-0.02126744 0.01217911 0.032364424 -0.97586846 0.21798219 0.012826029 0
0.059398107 0.01243961 0.032783099 0.99973452 -0.0052755056 0.022431357 0
-0.020332124 0.015911944 0.032467093 -0.95864868 0.28433529 0.012088492 0
-0.019487977 0.018595153 0.03236654 -0.95190448 0.30581823 0.018789588 0
0.059317812 0.017162163 0.032541167 0.99782825 0.061998233 0.022248097 0
-0.018141314 0.022336809 0.032423943 -0.93246573 0.36105528 0.012109471 0
0.057955462 0.022752024 0.032972157 0.86029947 0.50913662 -0.025783168 0
-0.016071266 0.02715045 0.032749418 -0.90227515 0.43111008 0.0066084168 0
-0.014822127 0.029718734 0.032750946 -0.8918395 0.45215437 0.013364222 0
0.048954241 0.029469239 0.030926999 0.43740228 0.80749321 -0.39577004 0
0.05259636 0.02784179 0.032303121 0.53608686 0.80345607 -0.2589775 0
0.055585373 0.025619712 0.032406643 0.6649065 0.73048949 -0.15583459 0
-0.013323464 0.032472413 0.032339681 -0.8675971 0.49715087 0.010787015 0
0.039792441 0.034913912 0.030076852 0.624901 0.66723996 -0.40532666 0
0.042905584 0.033688772 0.032128688 0.52345157 0.74830389 -0.40747979 0
0.046949096 0.031299807 0.03246351 0.4730289 0.80025482 -0.36855927 0
-0.010985394 0.036397021 0.032416482 -0.84246659 0.53868133 0.0085208667 0
-0.0093524363 0.038836751 0.032045797 -0.8161732 0.57774454 0.0085194092 0
0.038043473 0.037934963 0.03237541 0.64573079 0.65999538 -0.38397649 0
0.040981926 0.035825882 0.033320136 0.58414394 0.70867145 -0.39567727 0
-0.0069459435 0.04201914 0.032490734 -0.7827667 0.62229031 0.0055653476 0
-0.0046829679 0.044761535 0.032751579 -0.73703265 0.67580825 0.0081338631 0
0.033210855 0.043108609 0.032251094 0.71289754 0.60278016 -0.35837567 0
0.035809372 0.040655751 0.033058528 0.69275004 0.63419038 -0.34336579 0
-0.0023476151 0.047214344 0.032332744 -0.70732528 0.70688796 0.00056476519 0
0.00029476543 0.049739324 0.0315102 -0.67574924 0.73710549 -0.0062025357 0
0.028649693 0.048491739 0.032409362 0.67763048 0.67385072 -0.29452029 0
0.031232536 0.045929108 0.032911424 0.73847437 0.59013736 -0.32618043 0
0.0023843022 0.051511947 0.032118157 -0.63864332 0.76949763 0.0028588024 0
0.0059929262 0.054340348 0.03240981 -0.59531444 0.80348289 0.004000478 0
0.023452338 0.053427961 0.032252561 0.61324018 0.76667911 -0.1901041 0
0.026180621 0.050937749 0.032219704 0.68173093 0.67906845 -0.27222961 0
0.0086061284 0.056069877 0.033058386 -0.48280632 0.8757059 -0.0060982727 0
0.012596932 0.057108134 0.032454435 -0.081002027 0.99637032 -0.026168754 0
0.017599365 0.056600034 0.032716714 0.29860398 0.94932103 -0.098108105 0
0.020919917 0.055348314 0.033550344 0.48490158 0.8656584 -0.1245232 0
-0.017139558 -0.026338767 0.037735686 -0.52111042 -0.84875238 -0.089796126 0
-0.012674338 -0.027845297 0.037590075 -0.16118681 -0.9560411 -0.24495772 0
-0.0072329324 -0.028204314 0.03758993 0.012018875 -0.94694167 -0.32118049 0
-0.0023345493 -0.027832545 0.037448265 0.0848177 -0.93201989 -0.3523418 0
0.0023476055 -0.027391203 0.037489668 0.1046676 -0.93275982 -0.34496927 0
0.0073441677 -0.02686503 0.0376538 0.11565304 -0.94264317 -0.31312624 0
0.012609228 -0.02624316 0.037346445 0.082507372 -0.95175892 -0.29554605 0
0.017409667 -0.026080424 0.037731327 0.044850994 -0.95900154 -0.27982935 0
0.022674743 -0.025967101 0.037597172 -0.020347957 -0.96686161 -0.25448874 0
0.027156612 -0.026110711 0.037409287 -0.05995591 -0.97351485 -0.22062208 0
0.032699335 -0.026474254 0.037424754 -0.053317431 -0.98152173 -0.18377286 0
0.037275232 -0.026566496 0.037617519 0.039050527 -0.98949116 -0.13922027 0
0.042612735 -0.025763365 0.037713144 0.28632757 -0.95584786 -0.066116787 0
-0.020538064 -0.021185864 0.037575204 -0.95818949 -0.28601679 0.0082063433 0
-0.01941577 -0.024346117 0.037373573 -0.86837059 -0.49591476 0.0010183494 0
0.044791412 -0.024956398 0.036009219 0.38121742 -0.92262948 -0.05855025 0
0.04777867 -0.02285949 0.037723493 0.66736525 -0.74471039 -0.0054792245 0
-0.021406144 -0.017670216 0.037812933 -0.97806382 -0.20825888 0.0044240062 0
0.051472496 -0.017518554 0.03763812 0.89228207 -0.45059228 0.028271653 0
-0.022326764 -0.012419556 0.037245773 -0.99222547 -0.12434071 0.0052796262 0
0.053587139 -0.012934864 0.037475109 0.92415214 -0.38100061 0.027953301 0
-0.022807641 -0.0071315812 0.037794169 -0.9977628 -0.064363539 0.018073086 0
0.054913342 -0.0095420033 0.037670359 0.94256705 -0.33275241 0.029037235 0
0.055807207 -0.0068311025 0.037525874 0.95306379 -0.30110085 0.0317467 0
-0.022973459 -0.0024078134 0.037484288 -0.99988931 0.011455169 0.0094923209 0
0.057069514 -0.0024496478 0.037192389 0.96815324 -0.24820681 0.032754514 0
-0.022695916 0.0024176096 0.03776503 -0.99552161 0.093834527 0.011481654 0
0.058121439 0.0023603502 0.037466798 0.98246324 -0.18490244 0.024020707 0
-0.022118891 0.0073199491 0.037306324 -0.98906881 0.14698094 0.011814032 0
0.058918003 0.0074007567 0.037272014 0.99225742 -0.12206654 0.022909768 0
-0.021106498 0.012602404 0.037362598 -0.97396523 0.22621486 0.014783978 0
0.05929425 0.012564258 0.037346233 0.99947834 -0.020473177 0.024978779 0
-0.020209992 0.016040685 0.037687659 -0.95871127 0.28382242 0.017821189 0
-0.019473061 0.018402813 0.03771333 -0.94895643 0.31521609 0.010978648 0
0.059232108 0.017102689 0.037616428 0.99906343 0.039779816 0.017029434 0
-0.018070124 0.022310473 0.037531514 -0.93282026 0.36002579 0.015091533 0
0.058060825 0.022725388 0.037769411 0.8899861 0.45570993 -0.015911927 0
-0.016216461 0.026719056 0.036997445 -0.90806025 0.41856253 0.015231616 0
-0.014818717 0.029594596 0.036867924 -0.89230072 0.45116332 0.015842646 0
0.053303611 0.028528148 0.037250388 0.63894826 0.75457472 -0.14953965 0
0.055929512 0.026031803 0.037843402 0.77555722 0.62797588 -0.064477161 0
-0.01334321 0.032337748 0.037536085 -0.87459922 0.48472154 0.011009885 0
0.044527508 0.03466614 0.036711182 0.57470512 0.77007908 -0.27693358 0
0.047719605 0.03264942 0.037309468 0.54718703 0.80259722 -0.2375377 0
0.050874755 0.030669257 0.038216494 0.58400714 0.79154021 -0.1799996 0
-0.010968486 0.036334187 0.037537098 -0.84853113 0.52908665 0.0078837834 0
-0.0092110578 0.038973533 0.037462439 -0.81801963 0.5751605 0.0058624204 0
0.039224867 0.039174136 0.037053283 0.64763659 0.69722128 -0.30732611 0
0.041886944 0.03711649 0.037571292 0.60625154 0.74201125 -0.28614387 0
0.045147844 0.035176121 0.039610535 0.59200078 0.77285612 -0.22853526 0
-0.0071086916 0.041780613 0.037546366 -0.78285235 0.62219143 0.0044661351 0
-0.0047455612 0.044611312 0.037545584 -0.74470204 0.66719633 0.016366361 0
0.034434345 0.044032123 0.036852755 0.72053105 0.63981271 -0.26734754 0
0.036502343 0.042093284 0.037444904 0.69116187 0.66603404 -0.28052437 0
-0.0023070334 0.04721079 0.037665468 -0.71311533 0.70098317 0.0094368597 0
0.00028662907 0.049720429 0.036841251 -0.65859944 0.75249088 0.0020703189 0
0.029268323 0.049476609 0.036707796 0.67068875 0.70941961 -0.21656509 0
0.031806227 0.047121312 0.03729761 0.70911163 0.67092597 -0.21683863 0
0.002628902 0.051713839 0.03741831 -0.638955 0.76924306 0.0012707982 0
0.0059587192 0.054299675 0.037435696 -0.58083087 0.81401014 0.0047858651 0
0.02377999 0.054231592 0.037341978 0.54092699 0.82954854 -0.13873442 0
0.026899533 0.051803101 0.037405338 0.65214616 0.74008244 -0.16426601 0
0.0083271395 0.055914436 0.037652377 -0.52525246 0.85092837 0.0055542211 0
0.012118695 0.057253368 0.037583835 -0.18681636 0.97923231 -0.078763314 0
0.017818587 0.056967974 0.037494354 0.26413023 0.96089178 -0.083199665 0
0.02138333 0.055700202 0.037898507 0.44123861 0.89056498 -0.1104651 0
-0.0060701915 -0.030027043 0.044617079 -0.023254396 -0.98480839 -0.17208022 0
-0.0046817185 -0.030082699 0.044790067 -0.010038329 -0.98442674 -0.17550863 0
-0.017031658 -0.02671494 0.042253077 -0.57833546 -0.81497413 -0.036675021 0
-0.012706975 -0.028689735 0.042463228 -0.26130933 -0.95852858 -0.11375578 0
-0.0073731723 -0.029523863 0.042471316 -0.037173297 -0.97749847 -0.20764101 0
-0.0024233188 -0.029395755 0.042414624 0.074215673 -0.96841151 -0.23805715 0
0.0025083551 -0.028891403 0.042267442 0.11147082 -0.9651863 -0.23662151 0
0.0079477886 -0.028263994 0.04263629 0.12192252 -0.96114844 -0.24764623 0
0.012721639 -0.027524997 0.041985672 0.10061198 -0.96495193 -0.24237381 0
0.017237293 -0.027205577 0.042121112 0.054662645 -0.97656834 -0.20814972 0
0.022437224 -0.027100464 0.042559233 0.010448188 -0.98534054 -0.17027898 0
0.027521797 -0.027118562 0.042486113 -0.016555917 -0.9901551 -0.13899195 0
0.03221181 -0.027223712 0.042328883 -0.017969344 -0.99237663 -0.12192501 0
0.037608184 -0.027045405 0.04243318 0.11905945 -0.99018264 -0.073233917 0
0.042336956 -0.026056785 0.041815881 0.3029573 -0.95247167 -0.031853318 0
-0.020382876 -0.021601487 0.043075785 -0.9586575 -0.28446609 0.0074089291 0
-0.019519635 -0.024120113 0.04218255 -0.9042719 -0.42680219 0.011502637 0
0.048000123 -0.022596177 0.04297705 0.72534847 -0.68802792 0.022070352 0
0.050008971 -0.020147869 0.040112145 0.87620109 -0.48117867 0.027179224 0
-0.021479987 -0.017224463 0.042181451 -0.97963011 -0.20071813 0.0060902438 0
0.051162805 -0.017812815 0.042706728 0.89287823 -0.44946447 0.027389549 0
-0.022285301 -0.012593871 0.042315118 -0.99064362 -0.13626499 0.0075554936 0
0.053704847 -0.012228361 0.042321339 0.92739344 -0.37269813 0.032209497 0
-0.022727886 -0.0076318681 0.042514157 -0.99791288 -0.064483747 0.0034182458 0
0.054840174 -0.0091816187 0.04309712 0.94247526 -0.33181497 0.040488597 0
0.055537283 -0.0071611204 0.042262316 0.95103085 -0.30719236 0.034250982 0
-0.022902347 -0.0026332207 0.042686388 -0.99987978 0.0084067453 0.013032578 0
0.056908894 -0.002406626 0.042503409 0.96819794 -0.24855103 0.028547993 0
-0.022653889 0.0021992868 0.042471204 -0.99605531 0.087500989 0.014746628 0
0.05807868 0.0028906439 0.042112499 0.98423505 -0.17388667 0.032321241 0
-0.02200326 0.0075145592 0.042716473 -0.98811144 0.15260263 0.01866382 0
0.05877484 0.007505157 0.042630032 0.99256021 -0.11812698 0.029498879 0
-0.021149661 0.012056443 0.042728599 -0.97564775 0.21878953 0.015575026 0
0.059146583 0.012295583 0.04220245 0.99901986 -0.032021906 0.03056111 0
-0.020168776 0.015879352 0.042375557 -0.96173984 0.27325168 0.019749062 0
-0.019405352 0.018387878 0.042402919 -0.9509325 0.30903342 0.015022922 0
0.05911234 0.017888378 0.042625319 0.99885052 0.043978721 0.019062828 0
-0.017909458 0.022533303 0.042225331 -0.93331617 0.35881048 0.013263629 0
0.058195323 0.022499718 0.042138487 0.92465913 0.38061684 -0.011673583 0
-0.016019782 0.026972488 0.042000383 -0.90570903 0.42380497 0.0089625325 0
-0.014941618 0.029206719 0.041902412 -0.88763338 0.46049032 0.0074664131 0
0.053509325 0.02916719 0.042279027 0.70522153 0.70557684 -0.069454059 0
0.056188386 0.026111569 0.042242926 0.80089515 0.59645349 -0.053010695 0
-0.013141272 0.032610703 0.042558528 -0.87187725 0.48967579 0.0069058631 0
0.048140865 0.033588149 0.042556718 0.59686834 0.78676665 -0.15730956 0
0.051267818 0.031219956 0.042968158 0.64108372 0.76106334 -0.098965995 0
-0.010934093 0.036308717 0.042241648 -0.84399825 0.53628123 0.0083251735 0
-0.0091775712 0.038917173 0.042327896 -0.81316531 0.58195168 0.009720658 0
0.03995448 0.039695583 0.040322039 0.63338912 0.74177307 -0.22043374 0
0.04290716 0.037745453 0.042494461 0.63965356 0.74656576 -0.18298322 0
0.045795903 0.035578106 0.043497808 0.60937148 0.77949572 -0.14509591 0
-0.0064609922 0.04248077 0.042449992 -0.76983219 0.63796592 0.018919276 0
-0.0047482075 0.044498939 0.042538524 -0.75681853 0.65350378 0.012596855 0
0.037806723 0.042345509 0.042071566 0.68906963 0.69612402 -0.20148054 0
0.040552605 0.040308554 0.044326738 0.67348856 0.72544432 -0.14192887 0
-0.0020661633 0.047463436 0.042595349 -0.71794659 0.69603956 0.0090340748 0
0.00045053006 0.049896397 0.042708054 -0.63050807 0.7744289 -0.052148011 0
0.03265477 0.04768721 0.042421035 0.69123739 0.69922274 -0.18242395 0
0.035336588 0.045068376 0.043003537 0.68761784 0.71174437 -0.14353308 0
0.0027910194 0.051859569 0.042846121 -0.62336451 0.78190106 -0.006879061 0
0.005865932 0.054190066 0.042765893 -0.57580835 0.81755042 0.0074940962 0
0.024451632 0.054620963 0.042966951 0.53870565 0.83740842 -0.09242975 0
0.027377535 0.052321065 0.042591043 0.62367773 0.77241987 -0.11997315 0
0.030338421 0.050149679 0.043718729 0.60284919 0.78056371 -0.16520634 0
0.0084136892 0.055926204 0.042612683 -0.54823279 0.83628339 0.0084252534 0
0.012632423 0.057716142 0.042189352 -0.13862085 0.98908794 -0.04989244 0
0.017530395 0.057444133 0.04222532 0.2075699 0.97611934 -0.064075835 0
0.021804899 0.055987883 0.042637575 0.43135595 0.89816874 -0.085000046 0
-0.010165224 -0.030034162 0.048358578 -0.17862636 -0.98068714 -0.079657525 0
-0.0070784404 -0.030402759 0.047870651 -0.094804235 -0.98844105 -0.11830613 0
-0.0028094822 -0.030485207 0.048104461 0.041670274 -0.98946893 -0.13861753 0
0.0021356763 -0.030164814 0.048105728 0.10276546 -0.97813517 -0.18080615 0
0.0050854282 -0.030047368 0.049173292 0.10003293 -0.98350352 -0.15071261 0
-0.017096654 -0.026778694 0.047575064 -0.62923443 -0.77721447 -0.0012703503 0
-0.012522143 -0.029251713 0.047630109 -0.31182754 -0.94794846 -0.064477086 0
-0.0093871728 -0.02997078 0.046310019 -0.13513739 -0.98374367 -0.11826345 0
0.0024662104 -0.029731948 0.046155576 0.11028166 -0.97243106 -0.20546502 0
0.0079091312 -0.029298445 0.047309604 0.13712797 -0.97367716 -0.18206799 0
0.012583055 -0.028725574 0.047797523 0.13889757 -0.97635472 -0.16564716 0
0.016909644 -0.028173937 0.047802512 0.10979338 -0.98488259 -0.13398401 0
0.022812348 -0.027731789 0.047579512 0.031749282 -0.99621463 -0.080921695 0
0.027610578 -0.027613847 0.047262084 -0.00079041976 -0.99773264 -0.067298107 0
0.032053564 -0.027619531 0.047524877 0.01513358 -0.99902338 -0.041512489 0
0.037403684 -0.027271157 0.047452409 0.12857151 -0.99165672 -0.0092868432 0
0.042528417 -0.026023109 0.047137298 0.35002592 -0.93672264 0.0057160514 0
-0.020485261 -0.021095635 0.048043218 -0.96347058 -0.26763359 0.0098342067 0
-0.019422945 -0.024167296 0.046848174 -0.90529865 -0.42450064 0.015281645 0
0.047982905 -0.022440653 0.047306582 0.73873061 -0.67344248 0.027427796 0
-0.021350307 -0.017661536 0.047468476 -0.9759866 -0.21766971 0.0083694067 0
0.049916781 -0.019854516 0.048522543 0.87457532 -0.48419526 0.025942193 0
0.051261719 -0.017298847 0.04753729 0.89335513 -0.44846714 0.028175605 0
-0.022228746 -0.012465134 0.047552254 -0.99143374 -0.12999544 0.012661086 0
0.053425856 -0.012509708 0.047622219 0.92701137 -0.37414366 0.025816098 0
-0.02265301 -0.007774109 0.04748071 -0.99819529 -0.058601953 0.013111535 0
0.054706283 -0.0091194324 0.047655724 0.94964683 -0.31297264 0.014800451 0
0.055464748 -0.0068920343 0.047571033 0.94997978 -0.31160653 0.020970887 0
-0.022855351 -0.0025026933 0.047475144 -0.99992734 0.0064676041 0.010175338 0
0.056720845 -0.002514238 0.047712889 0.9685086 -0.24696115 0.03164126 0
-0.022566227 0.0024852152 0.047745693 -0.99539071 0.095353879 0.0102449 0
0.057822738 0.0024375508 0.047515504 0.98271567 -0.18222322 0.032628927 0
-0.02192297 0.0075428509 0.04752275 -0.98825502 0.15213937 0.014338639 0
0.058585033 0.0072483653 0.047814671 0.99150056 -0.1249861 0.036125582 0
-0.020948214 0.012589728 0.047271878 -0.97209948 0.23428755 0.011483685 0
0.058978703 0.011861064 0.047429703 0.99826282 -0.04920296 0.032410197 0
-0.020179778 0.015541909 0.048082046 -0.96296287 0.26947901 0.0091410847 0
-0.019397607 0.018157938 0.047283031 -0.95072651 0.30969819 0.014360467 0
0.059028011 0.0173769 0.047556609 0.99933976 0.029810149 0.020771103 0
-0.017778628 0.022706943 0.047311988 -0.9337188 0.35775304 0.013484233 0
0.058457166 0.021964567 0.047314662 0.96275187 0.27023056 0.0091758259 0
-0.015951443 0.026983581 0.047783617 -0.90590775 0.42325878 0.013534822 0
-0.014768693 0.029451024 0.047069158 -0.89031398 0.45491567 0.019816706 0
0.054086767 0.02898155 0.047604419 0.71862119 0.69464314 -0.032473151 0
0.056135643 0.026482832 0.04714926 0.81190675 0.58365315 -0.012509027 0
-0.013247137 0.032320939 0.04733165 -0.87421572 0.48537701 0.012492973 0
0.048629414 0.033848472 0.047184687 0.62898374 0.77469367 -0.065030925 0
0.051695608 0.031282492 0.047794938 0.67281109 0.73890102 -0.036749773 0
-0.010921312 0.036253121 0.047402848 -0.84496683 0.53472978 0.0097572738 0
-0.0089922603 0.039046928 0.047816638 -0.8087346 0.5879761 0.015242851 0
0.043561582 0.038090657 0.047603033 0.6544556 0.75019312 -0.094329521 0
0.04603789 0.036048319 0.048162285 0.63636899 0.76837158 -0.068113931 0
-0.0066706724 0.042079199 0.047576476 -0.78239924 0.62140423 0.041330151 0
-0.0045974399 0.04457134 0.047251474 -0.8156153 0.57730263 0.038643543 0
0.0382559 0.043129928 0.047667708 0.70147467 0.70321679 -0.11584262 0
0.040794425 0.040657349 0.047754992 0.68855542 0.71821374 -0.10030222 0
-0.0018357715 0.047636952 0.04736973 -0.72325599 0.69056529 0.004512466 0
0.00013426691 0.049720205 0.04696992 -0.74556309 0.66635895 0.010066151 0
0.033484548 0.04793036 0.047373883 0.70571828 0.70057821 -0.10560255 0
0.035698913 0.045720745 0.047702644 0.71298879 0.6934216 -0.10398813 0
0.0026228121 0.05171125 0.047265079 -0.59493881 0.80374414 0.0065746722 0
0.0059329309 0.054202434 0.047233302 -0.57527947 0.81794572 0.0042900373 0
0.024765939 0.054751411 0.046378359 0.54578286 0.83610606 -0.055206854 0
0.027713213 0.052844811 0.047526892 0.58629459 0.80144888 -0.11806081 0
0.030979889 0.050379757 0.047918674 0.65258271 0.74903131 -0.1144022 0
0.0086170454 0.055996802 0.047731128 -0.52185941 0.85297209 0.010068068 0
0.012541763 0.057608832 0.047391444 -0.21553941 0.97613311 0.026588876 0
0.016945604 0.057733577 0.047343846 0.1310062 0.99120903 -0.018497372 0
0.022566849 0.056022376 0.047401596 0.43093759 0.90041369 -0.059564684 0
-0.010441181 -0.030230695 0.053235151 -0.29029468 -0.95437914 -0.069924854 0
-0.0071377656 -0.030813171 0.052508134 -0.11931435 -0.99003518 -0.074796461 0
-0.0022868339 -0.031020893 0.052419547 0.016325444 -0.99408191 -0.10739932 0
0.0029251638 -0.030707285 0.052208398 0.089355886 -0.98765033 -0.12869488 0
0.0066283019 -0.030283006 0.052640561 0.16018943 -0.97986096 -0.11921384 0
-0.017254425 -0.02666064 0.052595023 -0.68129903 -0.73187119 0.014005823 0
-0.012698654 -0.029417869 0.052444667 -0.37488931 -0.92656815 -0.030487671 0
0.0090467511 -0.02979755 0.051948506 0.14614396 -0.98395276 -0.10236651 0
0.012521605 -0.029333521 0.052550916 0.15209141 -0.9840501 -0.09226872 0
0.017439719 -0.028617891 0.052376475 0.12086077 -0.98961604 -0.07779929 0
0.022010328 -0.02811794 0.052676056 0.097123519 -0.99477065 -0.031596478 0
0.026889702 -0.027807634 0.052366506 0.035138629 -0.99937576 0.0036622167 0
0.032612566 -0.027609877 0.05249019 0.048775878 -0.99822599 0.034141678 0
0.037292846 -0.027170165 0.052693743 0.14327189 -0.98813373 0.055361018 0
0.042256802 -0.025968628 0.052676033 0.34068829 -0.93776858 0.067242719 0
-0.020378495 -0.021257784 0.052578419 -0.96120888 -0.27536604 0.015844673 0
-0.019502411 -0.02379784 0.052545529 -0.91040617 -0.41341978 0.015645295 0
0.044995096 -0.024839686 0.051686443 0.47771782 -0.87744308 0.043352671 0
0.047365654 -0.022809256 0.052342702 0.69859749 -0.71446514 0.038744353 0
-0.021394569 -0.017181363 0.052079 -0.97777039 -0.20902255 0.016572423 0
0.049783178 -0.019665265 0.054013908 0.87464666 -0.48475388 -0.0026227476 0
0.051321305 -0.016831737 0.052562661 0.89863694 -0.43753964 0.031791091 0
-0.022195641 -0.012555344 0.052310083 -0.9912191 -0.13217837 0.003680201 0
0.053297978 -0.012330909 0.052762009 0.92462355 -0.37896752 0.038144015 0
-0.02264932 -0.0073076026 0.052640438 -0.9981901 -0.05943986 0.0091319764 0
0.054649908 -0.0088595571 0.052456874 0.94247723 -0.33259663 0.033409543 0
0.05536643 -0.0066773086 0.052633293 0.95174754 -0.30508286 0.033183012 0
-0.022793362 -0.0026197834 0.052475102 -0.99976987 0.011903411 0.017845752 0
0.056507442 -0.0026445882 0.052549772 0.96852362 -0.2460563 0.037659906 0
-0.022528328 0.0021015145 0.052566286 -0.99606764 0.086941101 0.017042937 0
0.057667535 0.002510549 0.052057989 0.98151958 -0.18750288 0.038235847 0
-0.021820549 0.0076215956 0.052855026 -0.98819768 0.15261145 0.013226878 0
0.058418501 0.0070429733 0.052277736 0.99129701 -0.12912928 0.025608977 0
-0.020914914 0.012380593 0.052562781 -0.9736883 0.22701216 0.019913934 0
0.058848642 0.012403989 0.052454352 0.99907541 -0.028068889 0.032565255 0
-0.020117862 0.015490965 0.053144161 -0.95880747 0.28367856 0.014656387 0
-0.019475413 0.017602582 0.053170305 -0.95402008 0.299279 0.016663862 0
0.058896922 0.017495357 0.052530415 0.9996627 0.015138089 0.021100987 0
-0.017691193 0.022705361 0.05232802 -0.93267244 0.36032009 0.017074464 0
0.057956006 0.02300279 0.052550662 0.92905486 0.36402816 0.065882996 0
-0.015887758 0.026971538 0.052383289 -0.90547079 0.42429036 0.010017278 0
-0.014707167 0.029393306 0.052582566 -0.89586455 0.44430003 0.0049179122 0
0.054142531 0.028926456 0.052695174 0.75566041 0.65448433 0.025051663 0
0.056059536 0.026429569 0.053075515 0.8244592 0.56416893 0.044501767 0
-0.012970026 0.032708213 0.052384041 -0.8712877 0.49061692 0.012360994 0
0.04882618 0.03389534 0.052595709 0.64942837 0.7602523 0.01610411 0
0.05137594 0.031661313 0.052458353 0.67406553 0.73857307 0.012059187 0
-0.010821112 0.036312342 0.052346852 -0.83752811 0.5461244 0.017173827 0
-0.0091911256 0.038685974 0.0524076 -0.81891584 0.57350141 0.021745464 0
0.043358233 0.03870336 0.052776664 0.68802786 0.72546303 -0.017920164 0
0.046382666 0.035964992 0.052401479 0.64798367 0.76165116 -0.0021534166 0
-0.0064055398 0.04243036 0.052442968 -0.79695249 0.60383934 0.015643826 0
-0.0047991215 0.04464443 0.052863628 -0.76124245 0.64801812 0.024132192 0
0.038336016 0.043576129 0.052443288 0.71209407 0.70027423 -0.050380699 0
0.041013498 0.040934093 0.053014405 0.69471908 0.71829945 -0.037569217 0
-0.0021440168 0.047274631 0.052443177 -0.70331979 0.71087235 0.0013305767 0
0.00048409897 0.049671598 0.052745547 -0.58819246 0.80754685 0.04356309 0
0.033253446 0.048673052 0.052372567 0.7028321 0.71084553 -0.026939776 0
0.035905521 0.046025161 0.052501358 0.70184124 0.70991772 -0.058615174 0
0.0027515511 0.051655456 0.052522421 -0.63793248 0.76968962 0.024899231 0
0.0058716061 0.054103687 0.052451409 -0.60170078 0.79862857 0.012186359 0
0.027578721 0.053432941 0.052524991 0.57700676 0.81548905 -0.045176253 0
0.030957952 0.050813626 0.052179251 0.63092303 0.77527028 -0.029867655 0
0.0087540708 0.056034327 0.05252317 -0.52535158 0.85085732 0.0068943137 0
0.011955508 0.057460826 0.052418847 -0.28726619 0.95783204 0.0059981626 0
0.017747082 0.05774942 0.052274194 0.13907473 0.98982757 -0.029996319 0
0.022404917 0.056406982 0.05262433 0.4006981 0.91498595 -0.047347724 0
0.025132924 0.055021897 0.051175572 0.49383259 0.86707526 -0.065648936 0
-0.010943664 -0.030245818 0.057331156 -0.32451108 -0.94548309 -0.027465414 0
-0.0072140601 -0.031081887 0.057325434 -0.15461291 -0.98711646 -0.041182477 0
-0.0028069008 -0.031459399 0.057612441 -0.011918288 -0.99799407 -0.062175181 0
0.0029460341 -0.031158207 0.05767785 0.10067642 -0.99359274 -0.051359434 0
0.0075638201 -0.03052441 0.057507165 0.16454867 -0.98510945 -0.04983129 0
0.010196265 -0.030093333 0.058288742 0.21389906 -0.97593957 -0.042297784 0
-0.016839543 -0.02694102 0.05766505 -0.67255741 -0.73998535 0.0093927514 0
-0.013044938 -0.029379979 0.05743508 -0.4243927 -0.90541893 -0.010365151 0
0.0098342691 -0.029998887 0.055022795 0.1442862 -0.98432326 -0.1014359 0
0.012985892 -0.029541789 0.057392206 0.16812645 -0.98552376 -0.02182596 0
0.017362179 -0.028779341 0.057412431 0.16240224 -0.98670608 0.0060600829 0
0.022434287 -0.028045705 0.057247546 0.12628435 -0.99164397 0.026354671 0
0.027411928 -0.027544031 0.057423722 0.074088842 -0.99402106 0.080205657 0
0.03242667 -0.027195729 0.057866838 0.062353287 -0.99062389 0.121558 0
0.037360072 -0.026725931 0.057599723 0.15274388 -0.98159146 0.11466318 0
0.041943923 -0.025709404 0.057266466 0.31561109 -0.94395751 0.096611165 0
-0.02029667 -0.021284627 0.057563033 -0.96030521 -0.27872843 0.011160078 0
-0.019507634 -0.023557479 0.057907388 -0.91672623 -0.39914811 0.017139273 0
0.044499513 -0.024596399 0.057837784 0.46440735 -0.88049453 0.095158279 0
0.047577538 -0.022382332 0.057580948 0.68424308 -0.72478575 0.08060398 0
-0.021194398 -0.017655641 0.057326134 -0.97729015 -0.21156977 0.011925362 0
0.049844019 -0.019413404 0.057097409 0.88073903 -0.47283888 0.026873689 0
0.051053423 -0.017043052 0.057450902 0.89482111 -0.4454338 0.029731728 0
-0.02206232 -0.012807691 0.056980982 -0.99165535 -0.12759247 0.018431721 0
0.053013023 -0.012652602 0.057485893 0.92556536 -0.37758437 0.027544644 0
-0.022555392 -0.0073651946 0.057472631 -0.99754977 -0.069229275 0.010087577 0
0.054585598 -0.0085569294 0.057957694 0.94255459 -0.33301121 0.026352519 0
0.05532369 -0.0063710925 0.057587195 0.95411974 -0.29834881 0.025367467 0
-0.022701886 -0.0026844852 0.057836071 -0.99984819 0.0098171653 0.0143914 0
0.056403078 -0.0024944956 0.057295159 0.96840405 -0.24842475 0.021880692 0
-0.022406038 0.0025123772 0.057115562 -0.99540663 0.093967132 0.018326664 0
0.057539005 0.0025979718 0.05720539 0.98156685 -0.18973963 0.022922754 0
-0.021798022 0.0074355686 0.057881873 -0.98854846 0.1498449 0.017846314 0
0.058291435 0.0071391389 0.057078626 0.99074763 -0.13169187 0.032809112 0
-0.020725902 0.012754998 0.057686083 -0.97090477 0.23884426 0.017242787 0
0.058715317 0.01226319 0.057655092 0.99914062 -0.030878849 0.027647447 0
-0.020118861 0.015232675 0.057101607 -0.96675396 0.25514963 0.016894782 0
-0.019300874 0.017913049 0.057355288 -0.95381111 0.30004191 0.014805891 0
0.058780219 0.017502377 0.057440188 0.99963892 0.015122199 0.022213621 0
-0.017533811 0.022874756 0.057583649 -0.93223178 0.36160028 0.013755159 0
0.057834323 0.022361379 0.057719968 0.92120409 0.38800418 0.028911754 0
-0.015933568 0.02675933 0.057835232 -0.91299152 0.40793481 0.0059703025 0
-0.014614805 0.029443653 0.057365369 -0.88549358 0.46337801 0.034379307 0
0.053958181 0.028798878 0.057633862 0.73531353 0.67415494 0.069491468 0
0.055934299 0.026215147 0.058117792 0.84121943 0.53979599 0.031146627 0
-0.013053763 0.032420658 0.057249833 -0.87244856 0.48866683 0.0061750682 0
0.048397504 0.033915661 0.057693962 0.64644086 0.75800729 0.086828589 0
0.051481359 0.031271301 0.057296775 0.66953713 0.73801178 0.084015377 0
-0.010495907 0.036657546 0.057548553 -0.87802511 0.47830427 0.017233388 0
-0.0091116708 0.038754523 0.057044923 -0.76310116 0.64627606 0.0019681305 0
0.043707255 0.038239565 0.05717532 0.70084149 0.7110939 0.056272835 0
0.046193708 0.035907958 0.057317127 0.6716432 0.73717141 0.073984303 0
-0.0064295717 0.042169426 0.057740048 -0.79296207 0.6082136 0.035878375 0
-0.0047085513 0.044514816 0.057875961 -0.78815126 0.61439693 0.036524601 0
0.03871312 0.043322638 0.057481781 0.72145802 0.69244069 0.0049151625 0
0.041114278 0.040844008 0.057778437 0.71691114 0.69642979 0.031997219 0
-0.0022834279 0.047019165 0.057363167 -0.69434708 0.71948296 0.015049701 0
0.0007136538 0.049594656 0.057562161 -0.56654155 0.82263446 0.047991503 0
0.033442061 0.048693102 0.057459857 0.67788124 0.73444515 -0.032669201 0
0.036068927 0.046125136 0.057832323 0.72219884 0.69159955 -0.010902322 0
0.0029805524 0.051737379 0.0575643 -0.64775735 0.76162124 0.018532744 0
0.0063660974 0.05434113 0.057647932 -0.58292717 0.81227136 0.02027721 0
0.027753817 0.053500511 0.05775135 0.59909821 0.80013853 -0.029321795 0
0.030904476 0.050982527 0.057531387 0.65338999 0.75690889 -0.01305645 0
0.0082140556 0.055612914 0.057689592 -0.54583102 0.83769482 0.01832824 0
0.0123661 0.057680119 0.057675581 -0.27350253 0.96090299 -0.043147404 0
0.017542096 0.057971649 0.057624649 0.12160025 0.9917624 -0.04025837 0
0.022757664 0.056448162 0.057369087 0.3997688 0.91593939 -0.035214122 0
0.025389517 0.055122826 0.056675632 0.51848435 0.85343301 -0.053161986 0
-0.010828294 -0.030319411 0.062391002 -0.33271503 -0.94302326 -0.0027971657 0
-0.0071435315 -0.03123549 0.062345356 -0.16856168 -0.98562175 -0.011694288 0
-0.001947713 -0.031596225 0.062526517 0.0058474117 -0.999865 -0.015352832 0
0.0025255734 -0.031363893 0.062329505 0.093040995 -0.99552238 -0.016685978 0
0.0073257126 -0.03072905 0.062382661 0.1686426 -0.98559189 -0.012970533 0
0.010239086 -0.030143542 0.062722765 0.21214393 -0.97702163 0.02058568 0
-0.016786754 -0.026894296 0.062492255 -0.67930287 -0.73366666 0.016759664 0
-0.013521495 -0.029165242 0.062454414 -0.44821459 -0.89391494 -0.0044620973 0
0.013156777 -0.029524118 0.062674947 0.21690205 -0.97540396 0.039250258 0
0.017319174 -0.028630098 0.062178038 0.20494555 -0.97643822 0.067569889 0
0.022328403 -0.027642384 0.062428843 0.16340441 -0.97672397 0.13895805 0
0.027106022 -0.026879694 0.062753379 0.1120749 -0.97720945 0.18028022 0
0.032073915 -0.026401268 0.062709421 0.07402312 -0.97537249 0.20777187 0
0.037199434 -0.026037699 0.062202595 0.12528993 -0.97156519 0.20090666 0
0.041234929 -0.025395622 0.06175036 0.24207008 -0.95842803 0.15105559 0
-0.02037235 -0.020849856 0.062208228 -0.9596383 -0.28098467 0.01191202 0
-0.019432714 -0.023432158 0.062629312 -0.91198438 -0.40995809 0.014795142 0
0.043144017 -0.02458928 0.062963419 0.34884411 -0.92841101 0.12790938 0
0.047614392 -0.021964425 0.062608913 0.67535353 -0.73723912 0.019395236 0
-0.021263223 -0.017284615 0.062149465 -0.97720009 -0.21205078 0.010701176 0
0.049637251 -0.01946098 0.062585317 0.88009006 -0.47429892 0.021956287 0
0.051138066 -0.016512416 0.062671304 0.89943373 -0.43600705 0.030280165 0
-0.022058325 -0.012407892 0.062449057 -0.99299705 -0.11780303 0.0089022154 0
0.052830696 -0.012736916 0.062177584 0.92268485 -0.38454407 0.027901027 0
-0.022470873 -0.007720734 0.062338728 -0.9975279 -0.068574019 0.015352742 0
0.054523233 -0.0083294939 0.062472142 0.9452799 -0.32451364 0.03371764 0
0.055300463 -0.0059619602 0.06208973 0.95660144 -0.28911397 0.036426637 0
-0.022637604 -0.0020529579 0.062354669 -0.9998436 0.013163849 0.011814594 0
0.056290954 -0.0023579984 0.06239197 0.96930522 -0.24385327 0.031353392 0
-0.022328002 0.0024691885 0.062402103 -0.99500912 0.099728405 0.0033350931 0
0.057278898 0.0020279237 0.062329024 0.97971582 -0.19825508 0.029185906 0
-0.021700529 0.0076061971 0.062061656 -0.99002963 0.13974254 0.017702501 0
0.058135364 0.0072666085 0.062622204 0.99149245 -0.12517889 0.035679974 0
-0.020739418 0.012373949 0.062450118 -0.97201288 0.23409973 0.019709073 0
0.058560017 0.012386299 0.062710717 0.99870235 -0.040690385 0.030625839 0
-0.019298295 0.017735681 0.062611088 -0.95399904 0.29967058 0.0091277082 0
0.058654252 0.017243484 0.062714167 0.99956965 0.0060486682 0.028702851 0
-0.0174479 0.022921601 0.06255316 -0.92619395 0.37696892 0.0076858522 0
0.057791691 0.02261973 0.062094875 0.92551702 0.37861815 0.0081605781 0
-0.015871905 0.026745634 0.062621094 -0.92167163 0.38778967 0.01186066 0
-0.01471784 0.029230345 0.061573051 -0.87551296 0.48318776 -0.0025681017 0
0.053472906 0.02855221 0.062809393 0.68854225 0.71236444 0.13581795 0
0.055917915 0.02593505 0.062171388 0.80429864 0.59107238 0.061132286 0
-0.012863378 0.032629315 0.062768184 -0.87141722 0.4904592 0.0090453289 0
0.047920231 0.03348818 0.06289807 0.65686846 0.7349959 0.16824055 0
0.051144518 0.030895583 0.06181217 0.65773559 0.73891467 0.14624971 0
-0.010739042 0.036189727 0.062751979 -0.85683793 0.51551193 0.0087380772 0
-0.00902279 0.038702622 0.062290154 -0.77595693 0.63017088 0.027848085 0
0.043178644 0.038096733 0.062595874 0.71595019 0.68640947 0.12750418 0
0.045573816 0.035813835 0.06193151 0.67968136 0.72089511 0.13543844 0
-0.006421071 0.042093821 0.062486306 -0.79710805 0.60382897 0.0030435089 0
-0.0044921744 0.044533357 0.062961154 -0.77667093 0.62987584 0.0062264027 0
0.038633179 0.043077111 0.062248874 0.74153954 0.66508353 0.088221848 0
0.040759802 0.040657487 0.062757745 0.72843653 0.67635965 0.10916926 0
-0.0023027034 0.046940643 0.062240273 -0.69724125 0.71661741 0.01772422 0
0.00080855598 0.049495734 0.062844492 -0.66732264 0.74457526 -0.016976306 0
0.03323463 0.048982881 0.062509418 0.6883797 0.72520244 0.014657903 0
0.036191355 0.045801494 0.062462017 0.74806535 0.66158724 0.051967058 0
0.003224083 0.051814463 0.062712669 -0.64794254 0.76147181 0.018196614 0
0.0061199111 0.054070894 0.062399555 -0.58821166 0.8085863 0.01397323 0
0.027910143 0.053531203 0.062654383 0.60822827 0.79375654 -0.0029738452 0
0.031053403 0.050931305 0.062304329 0.65723652 0.75368333 -0.0012718699 0
0.0085110217 0.055707611 0.062781781 -0.54138106 0.84071225 0.01046216 0
0.012504831 0.057756364 0.062472954 -0.31232667 0.94989061 -0.012640177 0
0.017444892 0.058164068 0.062496569 0.1284667 0.99116927 -0.032860525 0
0.022422457 0.056749724 0.062507316 0.39576852 0.91822869 -0.014944827 0
0.025349988 0.055302233 0.062586978 0.50557727 0.86271995 -0.010286516 0
-0.010618204 -0.030380594 0.067848191 -0.32340768 -0.94602931 0.020880602 0
-0.0077747353 -0.031082353 0.067542151 -0.18589287 -0.98243296 0.016410124 0
-0.0024066714 -0.031602189 0.067795306 -0.026334472 -0.99963528 0.0059785633 0
0.0028259873 -0.031358358 0.067252643 0.10241005 -0.99472177 0.0063854856 0
0.0075822924 -0.0305645 0.067692168 0.22389728 -0.97302777 0.055560227 0
0.010051401 -0.030006953 0.067718633 0.22035262 -0.97247362 0.07576143 0
-0.016898455 -0.026723105 0.067593478 -0.68437797 -0.72899699 0.013792965 0
-0.013369467 -0.029166711 0.067754686 -0.44193891 -0.8966853 0.025404843 0
0.0099559836 -0.029903574 0.069323123 0.22035262 -0.97247362 0.07576143 0
0.012340129 -0.029428739 0.067515254 0.25154692 -0.96481067 0.076579943 0
0.017393818 -0.028074395 0.067312196 0.25408974 -0.96117014 0.10765874 0
0.022345824 -0.026816601 0.06741327 0.22745672 -0.95522153 0.18924893 0
0.027461909 -0.025881547 0.067071736 0.15607744 -0.95560199 0.24992917 0
0.032279324 -0.025402488 0.066601604 0.10183366 -0.95028156 0.29426989 0
0.036937937 -0.025216587 0.065766357 0.094945677 -0.95739597 0.27272359 0
-0.020283053 -0.020889334 0.067982703 -0.96326751 -0.26842529 0.0079751275 0
-0.019294132 -0.023698837 0.067772694 -0.89251918 -0.45099625 0.0034538358 0
0.029536679 -0.02473345 0.069579646 0.20112821 -0.94171327 0.26967299 0
0.032930966 -0.02456107 0.068904772 0.10145617 -0.93154192 0.34919375 0
0.03774 -0.024394816 0.067959338 0.096536718 -0.93270224 0.34748679 0
0.042331997 -0.023906182 0.067337096 0.19929639 -0.93652475 0.28844807 0
0.047236573 -0.022099527 0.06720791 0.59125167 -0.79706502 0.12291805 0
-0.021177597 -0.017334823 0.067603126 -0.97797859 -0.20832253 0.012634033 0
0.049642444 -0.019247849 0.067395315 0.88373953 -0.46675131 0.033877473 0
0.050903726 -0.016727721 0.067141987 0.89923269 -0.43695813 0.021168446 0
-0.021998471 -0.01267004 0.067660749 -0.99038124 -0.13747601 0.01566601 0
0.052738767 -0.012609093 0.067397684 0.92247891 -0.38462099 0.033155896 0
-0.02244181 -0.0071316934 0.067299232 -0.9968738 -0.069140598 0.03824025 0
0.054388322 -0.0082371086 0.067384765 0.94713289 -0.319446 0.029893953 0
0.05514019 -0.0059469393 0.067159884 0.95680356 -0.28863871 0.034851354 0
-0.022602031 -0.0022970573 0.067569003 -0.99978268 0.015531514 0.013904753 0
0.056186017 -0.0021587582 0.067531034 0.97045797 -0.23920166 0.031524632 0
-0.022199754 0.0027093815 0.067433305 -0.99318564 0.1123137 0.031112844 0
0.057189111 0.0024153204 0.067526385 0.98134243 -0.18921186 0.034147091 0
-0.021516662 0.007526651 0.067665145 -0.99107093 0.12146154 -0.055005904 0
0.057974912 0.0073141158 0.06792812 0.98840302 -0.14340095 0.049956307 0
-0.020727191 0.012190461 0.067650534 -0.97465885 0.22319517 0.014968118 0
0.058404069 0.012851173 0.067875564 0.9995349 -0.019159906 0.023724848 0
-0.02000007 0.015072988 0.069176666 -0.9853971 0.16897519 0.020976525 0
-0.019316243 0.017447462 0.067762129 -0.95609915 0.29297957 0.0061133057 0
0.058537666 0.017476557 0.067648016 0.99990082 -0.013593028 0.003671464 0
