# .PCD v0.7 - Point Cloud Data file format
VERSION 0.7
FIELDS x y z normal_x normal_y normal_z curvature
SIZE 4 4 4 4 4 4 4
TYPE F F F F F F F
COUNT 1 1 1 1 1 1 1
WIDTH 379
HEIGHT 1
VIEWPOINT 0 0 0 1 0 0 0
POINTS 379
DATA ascii
0.0043537579 -0.022252293 -0.00010836738 -0.097978875 -0.034490652 -0.99459064 0
0.0054462478 -0.02205532 -8.732119e-05 0.10253761 0.0090714768 -0.9946878 0
0.053724911 -0.021375693 -0.00024766519 -0.15971737 -0.079518549 -0.98395485 0
0.05566401 -0.021436153 -0.00020880837 0.25045684 -0.094923273 -0.96346313 0
-0.12050586 -0.015025264 -0.00011261214 0.10472264 -0.93117708 -0.34920245 0
0.053905394 -0.01954286 -0.00017579326 -0.10913276 0.30624589 -0.94567621 0
0.05545621 -0.01965726 -0.0001510158 0.15958095 0.26832438 -0.95001888 0
-0.12124107 -0.013969296 -0.00047978738 -0.30480933 0.0034836766 -0.95240706 0
-0.11896347 -0.01386481 -0.0003779429 0.36927626 -0.097686589 -0.92417121 0
-0.1102715 -0.03504023 0.0045862827 -0.2426331 -0.96082312 0.13397068 0
-0.10802976 -0.035128567 0.0046461723 0.012943536 -0.97215235 -0.23399217 0
-0.10463837 -0.035170358 0.004883612 0.20616385 -0.82148319 -0.53165948 0
-0.12194656 -0.032268569 0.0021525901 -0.89088178 -0.2151259 0.40006316 0
-0.11734627 -0.032274801 0.0030105389 -0.75881153 0.22154905 -0.61247134 0
-0.11275604 -0.032355357 0.0036291289 0.024567235 0.036109652 -0.99904585 0
-0.10735948 -0.032231301 0.0040682689 0.17854357 0.11728734 -0.97691649 0
-0.10340435 -0.032382134 0.0046611805 0.20892461 -0.0089605227 -0.97789067 0
0.051797282 -0.030020276 0.0048537175 -0.010868309 -0.89088452 -0.4540998 0
0.059709214 -0.030002469 0.0049800058 -0.10502633 -0.96646309 -0.23434727 0
-0.1214621 -0.026010847 0.0011916572 -0.43281302 -0.89883631 0.069037445 0
-0.11732769 -0.026276797 0.0021865699 -0.22141014 -0.97251564 0.072046638 0
-0.11247208 -0.026466513 0.0034816682 -0.070819736 -0.97664189 0.20286743 0
-0.10771857 -0.026469843 0.0039771679 0.16331083 -0.6092695 -0.77596414 0
-0.10280009 -0.026070233 0.0045423703 0.21494895 -0.24097352 -0.94642943 0
-0.026807912 -0.026641965 0.0033750841 -0.42343169 -0.57266241 -0.70197105 0
-0.022546893 -0.026750185 0.0033484546 -0.011879096 -0.71175414 -0.70232821 0
-0.017433226 -0.026832843 0.0032505696 -0.0096394615 -0.69467926 -0.71925497 0
-0.012468915 -0.027351161 0.0026593518 -0.1871922 -0.69677263 -0.69243556 0
-0.0073260479 -0.027438277 0.0025362035 0.012879056 -0.68490469 -0.72851884 0
-0.0026408317 -0.02745131 0.0025831759 0.0025133369 -0.68552279 -0.72804683 0
0.0023380809 -0.027523331 0.0026144821 -0.0078208288 -0.68966007 -0.72409099 0
0.0075732013 -0.027491231 0.0025708519 -0.010130213 -0.68056947 -0.73261356 0
0.012337408 -0.027505791 0.0025510867 -0.0050697257 -0.66755831 -0.74454027 0
0.017607853 -0.027494738 0.0024910767 -0.0090196664 -0.64537579 -0.76381207 0
0.022484671 -0.027716346 0.0026158683 -0.0076561319 -0.66138762 -0.75000525 0
0.027509794 -0.02779039 0.0026598233 -0.0060487813 -0.65691102 -0.75394386 0
0.032664761 -0.027719079 0.0025457349 -0.0027093568 -0.62298083 -0.78223234 0
0.037488762 -0.027761668 0.0025320328 -0.010316106 -0.62057859 -0.78407639 0
0.042552728 -0.027825018 0.0025549822 -0.0046242084 -0.62606037 -0.7797609 0
0.047458809 -0.027714565 0.0024158626 -0.016100612 -0.61997211 -0.78445864 0
0.052581515 -0.027708855 0.002278782 -0.014989222 -0.61419797 -0.78900957 0
0.057524517 -0.027725743 0.0022243562 -0.0097733019 -0.62091643 -0.7838158 0
0.062443871 -0.027891776 0.0024203705 0.029656291 -0.65708625 -0.75323182 0
0.067271046 -0.027445573 0.0027987526 0.31274325 -0.65921015 -0.68383741 0
0.070577987 -0.026018841 0.0039698672 0.75788307 -0.48332837 -0.43818614 0
-0.12152187 -0.021697253 0.0013904118 -0.35592386 -0.92973602 0.094388537 0
-0.11752732 -0.02189398 0.0020668022 0.23037794 -0.94704068 0.22369625 0
-0.11231568 -0.022277089 0.0032667306 -0.27755442 0.89506203 0.34903803 0
-0.10780419 -0.022454023 0.004057534 0.11720443 -0.035151388 -0.99248552 0
-0.10303543 -0.022336915 0.004582291 0.16198614 0.0052723512 -0.98677891 0
-0.099959083 -0.020575047 0.0049930345 0.052945215 0.013460573 -0.99850672 0
-0.087011628 -0.020431638 0.0044534714 -0.14562394 -0.82122648 -0.55170709 0
-0.082277685 -0.020582456 0.0040035578 -0.06526807 -0.86392379 -0.4993754 0
-0.077775128 -0.020666871 0.0039626737 0.074574135 -0.85533345 -0.51268262 0
-0.072897837 -0.020442123 0.0045228978 0.097065799 -0.79787827 -0.59495252 0
-0.050653454 -0.021833407 0.0049173222 -0.11745337 -0.0003081843 -0.99307835 0
-0.048094708 -0.022276035 0.0049267286 0.048307646 -0.01527117 -0.99871582 0
-0.044430006 -0.022071432 0.0049855779 0.053574573 -0.026278177 -0.998218 0
-0.027122362 -0.022367284 0.0028567419 -0.67505801 -0.017744498 -0.73755127 0
-0.02238453 -0.022454474 0.0018413619 0.025516639 0.0038281814 -0.99966711 0
-0.017560508 -0.022607083 0.0015993197 -0.11105533 -0.051505078 -0.99247873 0
-0.012693305 -0.022604978 0.00072736247 -0.13590749 -0.050228428 -0.98944747 0
-0.0076132412 -0.022600807 0.00065864582 0.016874831 -0.036046408 -0.99920762 0
-0.0025669979 -0.0226108 0.00070307381 -0.0035575917 -0.041836128 -0.99911809 0
0.0022422918 -0.022678327 0.00053897506 -0.13706331 -0.088080235 -0.98663849 0
0.0077878227 -0.022623368 0.0005462332 0.1130207 -0.064818904 -0.99147606 0
0.012437375 -0.022524711 0.0007107234 0.011329765 -0.04113286 -0.99908942 0
0.01752284 -0.022648359 0.00074635621 0.0082164872 -0.046989899 -0.99886155 0
0.022405842 -0.022423007 0.0007762512 0.0072407359 -0.039172191 -0.99920619 0
0.027485371 -0.022486772 0.00082736654 0.0010547099 -0.028438492 -0.99959499 0
0.032306317 -0.022524837 0.00086017296 0.0082364297 -0.034198754 -0.99938118 0
0.03751668 -0.022574428 0.00087025558 -0.0057789907 -0.032923594 -0.99944115 0
0.042504061 -0.022430211 0.00084762083 -0.0028550229 -0.023144267 -0.99972808 0
0.047475841 -0.022559373 0.00076357083 -0.029553439 -0.032224033 -0.99904364 0
0.052142274 -0.022972554 0.00054114702 -0.13538443 -0.16737828 -0.9765529 0
0.057797659 -0.022796536 0.00052508124 0.061251756 -0.076570578 -0.99518102 0
0.062542066 -0.02252708 0.00050132879 -0.014537821 -0.038321964 -0.99915975 0
0.067685179 -0.022487139 0.00078612322 0.23549245 -0.092814036 -0.96743423 0
0.07153485 -0.0223174 0.0032257368 0.80251759 -0.17124055 -0.57152623 0
-0.12161581 -0.01926291 0.001273745 -0.23828439 0.96282369 -0.12724453 0
-0.11752254 -0.019420894 0.0018059468 0.081949666 0.99652094 0.015170475 0
-0.11215414 -0.018950639 0.0028738282 -0.22867459 0.97204983 0.053170234 0
-0.10733882 -0.018897451 0.0040331651 0.045106027 0.95623505 -0.28910184 0
-0.10292324 -0.018823143 0.0044918871 0.15150605 0.38515791 -0.91032922 0
-0.097237639 -0.016112555 0.0037626475 -0.11534658 -0.94703496 -0.29969978 0
-0.092511714 -0.01713191 0.0035829295 -0.31517753 -0.69596624 -0.64520854 0
-0.087559499 -0.017785069 0.0025206038 -0.17624038 -0.49695918 -0.84968865 0
-0.082582384 -0.017653955 0.0016887928 -0.099132836 -0.41494429 -0.90443009 0
-0.077297173 -0.017722316 0.0016260466 0.10983243 -0.39696252 -0.9112395 0
-0.07251408 -0.017750941 0.0028722507 0.32284445 -0.36038718 -0.87515289 0
-0.069251381 -0.017507955 0.0042605917 0.63125974 -0.18315825 -0.75363392 0
-0.051433761 -0.019935062 0.0049831071 -0.35898355 -0.057894286 -0.93154663 0
-0.026987154 -0.01827516 0.0035878932 -0.51549286 0.50177014 -0.69461781 0
-0.022576964 -0.017940078 0.0032566078 0.049367357 0.61258394 -0.78886229 0
-0.017385827 -0.018005246 0.0030304217 -0.16291097 0.63137388 -0.75817347 0
-0.012495271 -0.017141573 0.0023287744 -0.15477945 0.61749125 -0.77119899 0
-0.0075886389 -0.017232597 0.0020529397 -0.0032312649 0.56780016 -0.82316005 0
-0.0024479562 -0.017275508 0.0019297464 -0.008467936 0.52695048 -0.84985387 0
0.0024927538 -0.017222863 0.0018482591 -0.030646054 0.53246003 -0.84590018 0
0.0074226041 -0.017371699 0.0016441041 -0.0070620067 0.49099955 -0.87113118 0
0.012507183 -0.017290145 0.0016290533 -0.012335226 0.45347732 -0.89118242 0
0.017403875 -0.017403655 0.0014986394 0.0020898958 0.40378177 -0.91485298 0
0.022444252 -0.017458664 0.0014450974 -0.006652324 0.36846611 -0.9296174 0
0.027481487 -0.01732808 0.0014406333 -0.0087130209 0.34435371 -0.93879956 0
0.03251268 -0.017381724 0.0013830495 -0.0081319641 0.31069902 -0.95047361 0
0.0375131 -0.017452437 0.0013231632 -0.0070688743 0.27851787 -0.96040505 0
0.042522315 -0.017362265 0.0013044198 -0.011384282 0.27408114 -0.96163917 0
0.047421627 -0.017391944 0.0012040938 -0.032176998 0.25701067 -0.96587276 0
0.052399851 -0.017214019 0.0010169925 -0.06212499 0.32661769 -0.94311261 0
0.057534318 -0.017511446 0.00089104124 0.038297947 0.2806412 -0.95904839 0
0.062427618 -0.017499974 0.00085471774 -0.017108852 0.2084786 -0.97787732 0
0.067490898 -0.017256914 0.0013293418 0.27284428 0.32010126 -0.90724367 0
0.071055375 -0.017895067 0.0033681726 0.7572692 0.35075226 -0.55092293 0
-0.12131993 -0.0138834 0.00061045168 -0.46127489 0.15724689 0.8732118 0
-0.11695795 -0.013578877 0.0019088303 -0.62122673 0.43316743 0.65302622 0
-0.11244999 -0.01353702 0.0025553301 -0.83435059 -0.20786123 0.51054168 0
-0.10765669 -0.013078512 0.0030786139 -0.96827114 0.12102546 -0.21864088 0
-0.10244221 -0.012596808 0.0030699049 -0.62542093 0.21222666 -0.75087178 0
-0.097946741 -0.012298105 0.0023048632 -0.17082188 0.19594327 -0.96562213 0
-0.092704996 -0.012401921 0.0014650328 -0.0036957324 0.1532432 -0.98818159 0
-0.087433502 -0.012430064 0.0013986402 -0.019776756 0.22740565 -0.97359926 0
-0.082553022 -0.012353476 0.0013743388 0.0038830102 0.33452576 -0.94237858 0
-0.077388324 -0.012338125 0.0016813517 0.13504869 0.4056569 -0.90399355 0
-0.072624974 -0.012400982 0.0030557744 0.35528612 0.43508327 -0.8273297 0
-0.06891834 -0.013029063 0.0044104541 0.44456103 0.17804764 -0.87787497 0
-0.011340559 -0.014965381 0.0048373183 -0.029596874 0.9863373 -0.1620578 0
-0.0071501685 -0.014865976 0.0046550673 -0.041735791 0.96900088 -0.24350661 0
-0.0025137458 -0.014770561 0.0045031593 -0.021813527 0.9467324 -0.32128194 0
0.0028317601 -0.014697153 0.0042951037 -0.02624454 0.91331232 -0.40641335 0
0.0076002995 -0.014588934 0.0042227907 -0.037768856 0.91333097 -0.40546274 0
0.012650038 -0.014453994 0.0040975809 -0.039155837 0.8748349 -0.48283604 0
0.017638633 -0.01437033 0.0039136722 -0.025717529 0.84870505 -0.52824092 0
0.022631876 -0.014220116 0.0038327067 -0.037378956 0.82504892 -0.56382352 0
0.027311452 -0.014099521 0.0037247639 -0.028142132 0.81118667 -0.58410966 0
0.032380678 -0.013870277 0.0038336243 -0.029509818 0.81932038 -0.57257599 0
0.037639342 -0.013840832 0.003618734 -0.030703166 0.79806864 -0.60178375 0
0.042536944 -0.013722311 0.0035627193 -0.02361615 0.79655218 -0.60410833 0
0.047497895 -0.013690634 0.003420505 -0.022798702 0.79330486 -0.60839766 0
0.052486792 -0.013654533 0.0032470354 -0.042047881 0.76994073 -0.63672847 0
0.057503596 -0.013452115 0.0032544131 -0.031790879 0.7646566 -0.64365339 0
0.062546752 -0.013384499 0.0031747518 0.0099914577 0.77139217 -0.63628161 0
0.067335218 -0.013853376 0.0035781444 0.32703388 0.75896919 -0.56304049 0
0.070184559 -0.014874626 0.0046864199 0.66428018 0.6267786 -0.4072842 0
-0.096682362 -0.0097006988 0.0037114688 -0.18401082 0.98280066 -0.015588039 0
-0.092518322 -0.0094626592 0.0036977641 -0.028647078 0.97900212 -0.20182745 0
-0.087584287 -0.0092908833 0.0035770908 -0.0024294064 0.91446561 -0.4046562 0
-0.082719296 -0.0094702244 0.0038762495 0.040685106 0.96600711 -0.25529411 0
-0.077837951 -0.009500714 0.0039817072 0.084912531 0.91270256 -0.39970481 0
-0.074139863 -0.0097904271 0.00460485 0.17359781 0.90410262 -0.39046413 0
-0.10603754 -0.03522392 0.0056319651 -0.22737092 -0.93520176 0.27147779 0
-0.102469 -0.035309076 0.0061642942 -0.045168124 -0.99897939 6.573923e-05 0
-0.097757906 -0.035409812 0.0069983914 -0.015095096 -0.99929839 -0.034276202 0
-0.092537627 -0.035424672 0.0079544997 -0.016935147 -0.99688017 0.07709191 0
-0.087391928 -0.035479669 0.0086667817 0.0044029872 -0.99839032 -0.056544833 0
-0.082616128 -0.035592604 0.0090158721 0.014326895 -0.98590147 -0.166712 0
-0.077649355 -0.035514634 0.0091261296 0.04597402 -0.99660242 -0.06833785 0
-0.073575668 -0.035223272 0.0088667795 0.17729099 -0.98094785 -0.07943064 0
-0.11127002 -0.032484971 0.0052852333 -0.20657437 0.015963381 0.97830069 0
-0.10736406 -0.032462209 0.0059796488 -0.20561235 -0.004180694 0.97862458 0
-0.10219023 -0.032372873 0.0065539 -0.1947964 0.095869772 0.97614723 0
-0.097582832 -0.032418028 0.0070330296 -0.30548346 0.66549206 0.68102878 0
-0.092586435 -0.032452621 0.0079516061 -0.051841095 0.94042075 0.33603773 0
-0.087627918 -0.032458745 0.0084401537 0.21751198 0.27563727 -0.93632931 0
-0.082512602 -0.032146517 0.0083911968 0.0086006336 -0.01215142 -0.99988919 0
-0.077349946 -0.032382503 0.008154233 -0.023008479 -0.10310539 -0.99440426 0
-0.072220124 -0.032598592 0.0084904637 0.037614245 -0.47844926 -0.87730926 0
-0.067695983 -0.032224167 0.0084451549 0.3544991 -0.926956 0.1228124 0
-0.062882982 -0.031142745 0.007805035 0.43207595 -0.90154183 -0.023077492 0
-0.059659366 -0.030113308 0.0075091147 0.55428118 -0.82361615 0.12012031 0
0.023777405 -0.030002961 0.0068671717 -0.010027711 -0.97481525 -0.22278851 0
0.029258093 -0.030011479 0.0074362578 -0.0060324413 -0.99942964 0.033226017 0
0.033039194 -0.030041208 0.0071753203 -0.011392375 -0.99991959 -0.005574055 0
0.037794247 -0.030095184 0.0069378973 -0.013118109 -0.99988222 -0.0079636592 0
0.042396441 -0.030101763 0.0068955673 -0.017817106 -0.99983835 0.0024160994 0
0.047458287 -0.030143676 0.0070744217 0.0039488408 -0.99999219 -0.00011813574 0
0.052608646 -0.03015507 0.0069029387 -0.013089848 -0.99987346 0.0090444274 0
0.057412155 -0.030192066 0.0070432858 0.0025048049 -0.99998337 -0.0051980838 0
0.062598713 -0.030188875 0.0070102243 0.004847575 -0.99989921 -0.013345459 0
0.0653897 -0.030090787 0.0069102827 0.16327727 -0.98657978 0.00094555941 0
-0.10651344 -0.027105218 0.0053001023 -0.13795675 0.20334716 0.96933883 0
-0.10200682 -0.027283395 0.0060964534 -0.34205598 -0.076385632 0.93656981 0
-0.097393379 -0.027192213 0.0066396422 -0.091344155 0.94619304 -0.31044325 0
-0.092420056 -0.027117418 0.0075364336 -0.52365303 -0.41928452 0.74161172 0
-0.087622166 -0.027389014 0.008227583 0.34149775 0.93325704 -0.11140312 0
-0.082276061 -0.027395997 0.0084580109 -0.78785056 -0.094096199 -0.6086356 0
-0.077446289 -0.027350595 0.0086245714 -0.42006743 0.90302974 0.089891851 0
-0.072440945 -0.027364893 0.0084580341 -0.21368158 0.70836967 -0.67272031 0
-0.067518525 -0.027454896 0.0080308113 0.26963869 0.96052027 0.068526253 0
-0.06247554 -0.027541347 0.0075513064 0.10367019 0.36704895 0.92440665 0
-0.057756048 -0.027235512 0.0068735192 0.63323301 -0.76744545 0.10021678 0
-0.052838787 -0.025701946 0.0060088309 0.25633466 -0.96200788 -0.093986169 0
-0.04721605 -0.025782842 0.0060924743 -0.1250073 -0.98643404 0.10640054 0
-0.042433366 -0.025952147 0.0063002049 -0.12434956 -0.98320138 0.13361229 0
-0.037459262 -0.026124096 0.0064660022 -0.084337302 -0.98991024 0.11386389 0
-0.032372944 -0.026445411 0.0063276454 -0.040026523 -0.92825061 -0.36979562 0
-0.027612625 -0.02692507 0.0074062012 -0.41363835 -0.85317266 0.31780449 0
-0.022452556 -0.027727963 0.0076538534 0.027347909 -0.95736682 0.28757751 0
-0.017494293 -0.027866609 0.0077209389 -0.051771507 -0.95849687 0.28036296 0
-0.012693114 -0.028827939 0.0076252371 -0.23326151 -0.95148385 0.20066747 0
-0.0074987076 -0.029149408 0.0075724619 -0.0067584794 -0.98635018 0.16452271 0
-0.0025995914 -0.029213093 0.0075341989 -0.013026926 -0.98812479 0.15310012 0
0.0024303687 -0.029254865 0.0075168032 -0.010524803 -0.99008459 0.14007756 0
0.007521932 -0.029352486 0.0075684362 -0.013816725 -0.99190831 0.12620267 0
0.012509683 -0.02942141 0.0077083977 -0.030474348 -0.99178874 0.12420303 0
0.017579155 -0.029562429 0.007380852 -0.014468371 -0.99705595 0.075299367 0
0.022412241 -0.029682687 0.007444181 -0.023663612 -0.9963299 0.08225923 0
0.027361492 -0.029765161 0.0075150239 -0.020017914 -0.99652791 0.080818027 0
0.032202389 -0.029856857 0.0074060895 -0.01994198 -0.99743801 0.068701096 0
0.037072685 -0.029846173 0.0082917931 -0.016604839 -0.9866966 0.16172253 0
0.042453032 -0.029848611 0.0084857857 0.0020764736 -0.98807436 0.1539636 0
0.047766671 -0.029828727 0.0087741986 0.0038769569 -0.98379868 0.17923465 0
0.052301202 -0.029837484 0.0090938983 0.00085174077 -0.975142 0.22157884 0
0.057313103 -0.029896678 0.0081223696 -0.016035287 -0.9936589 0.11128708 0
0.062699951 -0.029912766 0.0090973824 0.0026756034 -0.98016775 0.19815168 0
0.06788452 -0.029037042 0.0074409228 0.45153889 -0.89214742 0.01362287 0
0.071035162 -0.026440896 0.0075440709 0.80222076 -0.59689784 -0.012439674 0
-0.10656764 -0.021605594 0.0053095045 -0.1321588 0.050299656 0.98995149 0
-0.10212334 -0.022770025 0.0057020653 -0.19502689 0.41880921 0.88688415 0
-0.097419217 -0.022458417 0.0062851538 -0.23317702 0.96434563 0.12516394 0
-0.092472941 -0.022206126 0.0069484371 -0.50632507 -0.82001543 -0.26685134 0
-0.087562464 -0.022453992 0.0073184744 -0.20458564 -0.87771934 0.43330532 0
-0.08241298 -0.022437098 0.0076365331 -0.41480932 -0.76427042 0.49378535 0
-0.077421308 -0.022347368 0.0078071007 0.055370048 -0.72015983 0.69159532 0
-0.072476007 -0.022474742 0.0075592254 -0.24940237 -0.91350979 0.32140064 0
-0.067548387 -0.022535659 0.0074157151 0.84840393 -0.28446609 -0.44641888 0
-0.062678777 -0.022512766 0.0069557331 0.19091582 0.98038268 -0.049000103 0
-0.057491116 -0.022483598 0.0063632224 -0.10463697 0.96935391 0.22227021 0
-0.052578434 -0.022557871 0.0059723402 0.17203425 0.36909398 0.91333127 0
-0.047335364 -0.022476068 0.0059498134 -0.080469139 0.25524998 0.96352065 0
-0.042458139 -0.022539634 0.0059447391 0.0212014 0.8582955 0.5127176 0
-0.037471313 -0.022509886 0.0059853136 -0.1574212 0.96302742 0.2186249 0
-0.032506373 -0.02252046 0.0061198398 0.082278624 0.96920645 0.23209681 0
-0.028525013 -0.022551132 0.0075860023 -0.90540648 0.10706653 0.41082346 0
0.072643541 -0.022688208 0.0074829627 0.97827178 -0.20731917 -0.0017803444 0
-0.10646063 -0.018615145 0.005166675 -0.07705079 0.2000701 0.97674727 0
-0.10195316 -0.017521417 0.0055310507 -0.20605557 -0.33853772 0.91811401 0
-0.097205281 -0.018370995 0.0058978437 -0.50838262 0.66815042 0.54325145 0
-0.092372023 -0.017511474 0.006270369 -0.28348619 -0.0117722 0.95890409 0
-0.087547697 -0.017505495 0.0071552969 -0.12010371 0.26564568 0.95656025 0
-0.082597136 -0.017402848 0.0077073029 -0.087199092 0.19265525 0.97738445 0
-0.077300064 -0.017429536 0.0080233524 0.0049668113 0.12398302 0.99227184 0
-0.072613209 -0.017516784 0.0079709273 0.034219716 0.1361454 0.99009764 0
-0.067431264 -0.017420368 0.0067937272 0.82345593 0.3525632 0.44454411 0
-0.062538706 -0.017491641 0.0065222667 0.077486202 0.95112735 -0.29891911 0
-0.057947136 -0.017973388 0.0060876254 0.33687168 0.78758878 -0.51596653 0
-0.052891176 -0.01913528 0.0057980474 0.19651586 0.88912183 0.41333285 0
-0.047362443 -0.01920029 0.0056997132 -0.15499194 0.94462037 0.28925753 0
-0.04238563 -0.018971337 0.0058333948 -0.098863699 0.99428999 0.040168356 0
-0.037470851 -0.018752128 0.0059245951 -0.047507238 0.93043053 0.36337587 0
-0.032556966 -0.018493161 0.0059126983 0.11654242 0.99116486 -0.063325055 0
-0.027541932 -0.017724926 0.0071802405 -0.66453528 0.66242373 0.34581465 0
-0.022599898 -0.016633283 0.0077860397 0.016976889 0.91148514 0.41098237 0
-0.017440807 -0.016424984 0.0076978714 -0.032915246 0.95058334 0.30871972 0
-0.013142603 -0.015708691 0.0081402482 -0.25190479 0.88205785 0.39814305 0
-0.0078888936 -0.015553963 0.0089475289 -0.043436158 0.85775423 0.51222152 0
-0.0025138715 -0.015402345 0.0091711916 -0.036549684 0.83362889 0.5511142 0
0.0024836815 -0.015380698 0.0095307641 -0.0577861 0.78822511 0.6126678 0
0.0074377172 -0.015219362 0.0097517166 -0.035434458 0.77342391 0.63289803 0
0.012086236 -0.015069711 0.0098907268 -0.053953633 0.80430704 0.59175932 0
0.071972221 -0.017370202 0.0074192868 0.91044056 0.41273883 -0.027290694 0
-0.10643156 -0.014626563 0.0053549353 -0.18621555 0.41428843 0.89089221 0
-0.10206265 -0.014350775 0.0056834095 -0.013146619 0.67089528 0.74143553 0
-0.097287804 -0.012842491 0.0056411452 -0.2561217 0.075382777 0.96370077 0
-0.092373043 -0.012690488 0.0063150348 -0.12597924 0.12313294 0.98436141 0
-0.087589547 -0.012635143 0.006828811 -0.096049234 0.055041529 0.99385369 0
-0.08247184 -0.012451034 0.0072284364 -0.018044772 0.10779435 0.99400944 0
-0.077397287 -0.012493997 0.0073332582 -0.022813074 0.21457858 0.97644031 0
-0.072524473 -0.012271299 0.0069723716 0.17703016 0.31080449 0.93384206 0
-0.067557782 -0.013333418 0.0063819303 0.48782539 0.41639432 0.76723009 0
-0.063568793 -0.014075881 0.0065550283 0.46311274 0.49629256 0.73431617 0
-0.011636559 -0.014922508 0.006240515 -0.034293003 0.99927294 0.01665831 0
-0.0075086714 -0.014804472 0.0066559105 -0.050700799 0.99487013 0.087537959 0
-0.0025339131 -0.014646476 0.0067031975 -0.029043179 0.99575216 0.087373845 0
0.0024679634 -0.014490063 0.0069832671 -0.04319321 0.99214435 0.1174049 0
0.0074436283 -0.014384121 0.0072919284 -0.03978892 0.98679662 0.15700106 0
0.012604381 -0.014144034 0.0073314458 -0.047678337 0.98431396 0.16986097 0
0.017501103 -0.013880536 0.0074350424 -0.065975904 0.98324245 0.16994496 0
0.022658192 -0.013635607 0.0076041184 -0.046429437 0.98150235 0.18573487 0
0.027535947 -0.013377654 0.0074380422 -0.042346407 0.98936439 0.1391578 0
0.032569218 -0.013176702 0.0074241674 -0.043434348 0.99129915 0.12425514 0
0.037452675 -0.012958208 0.0075146123 -0.043083042 0.9911471 0.12558383 0
0.042590071 -0.012740927 0.0075319656 -0.037457757 0.99403614 0.10241631 0
0.047451403 -0.012567334 0.0075064916 -0.028939012 0.99698699 0.071968712 0
0.052582625 -0.012362538 0.0075650993 -0.041418135 0.9969303 0.066441469 0
0.057531144 -0.012152255 0.0074709239 -0.034512393 0.99821645 0.048712626 0
0.062554099 -0.011985058 0.0074729822 -0.028069351 0.99912459 0.031016799 0
0.067734733 -0.012936107 0.007555326 0.42260137 0.90595603 0.025531154 0
0.07036119 -0.014571749 0.007627856 0.74618894 0.66573393 0.00053607399 0
-0.095544562 -0.0097095715 0.0051095607 -0.41243723 0.66356313 0.62416303 0
-0.092459597 -0.009685494 0.005366818 -0.038424391 0.80424684 0.59305197 0
-0.087448649 -0.009268662 0.0058020405 -0.063718013 0.79533195 0.60281605 0
-0.08252693 -0.0095570358 0.0058318037 0.007797386 0.92566907 0.37825388 0
-0.077581942 -0.0094308602 0.0059540546 0.051494777 0.91438586 0.40155545 0
-0.07359454 -0.009710216 0.005862582 0.11691609 0.9752658 0.18758243 0
-0.085112795 -0.035104346 0.010024374 -0.084704377 -0.36976156 0.92525756 0
-0.082808517 -0.035190705 0.010134209 -0.0065393234 -0.48137489 0.87649041 0
-0.077950165 -0.035196628 0.010129075 0.0042557921 -0.60027236 0.7997843 0
-0.085732676 -0.033961173 0.010092554 -0.15603158 0.024206193 0.98745543 0
-0.08246921 -0.033182625 0.010243187 -0.048624638 0.093478858 0.99443322 0
-0.077503987 -0.032751687 0.010295896 0.018535389 0.040857341 0.99899304 0
-0.073214546 -0.032744091 0.010166952 0.095347442 -0.024308711 0.99514717 0
-0.077263586 -0.029762629 0.010047388 0.01915431 0.28361037 0.95874828 0
-0.074502893 -0.029722167 0.010080665 -0.096572794 0.097004078 0.99058765 0
-0.026182232 -0.025577892 0.01023834 -0.14399423 -0.47945377 0.86567295 0
-0.022402273 -0.025698317 0.010507149 -0.055093296 -0.557293 0.82848608 0
-0.017308176 -0.025908986 0.010599773 -0.081278563 -0.40757138 0.90954906 0
-0.012467335 -0.026631774 0.011101682 -0.16128592 -0.50538641 0.84768599 0
-0.0075599477 -0.026804216 0.011183301 -0.018361596 -0.51757622 0.85544002 0
-0.0023562873 -0.026774308 0.011296833 -0.021272 -0.51481497 0.85703737 0
0.0025204772 -0.026911577 0.011407216 -0.038644355 -0.56066138 0.82714295 0
0.0075674304 -0.027075458 0.011443782 -0.02354092 -0.57453823 0.81813914 0
0.012471064 -0.027117288 0.011558605 -0.032749042 -0.55912411 0.82843691 0
0.017395616 -0.027168155 0.01167439 -0.018651398 -0.56897688 0.822142 0
0.022578597 -0.02725058 0.011788274 -0.023255631 -0.57465017 0.81806862 0
0.027476072 -0.027358541 0.011883294 -0.033782437 -0.58092976 0.81325227 0
0.032482896 -0.027396061 0.012027279 -0.036336705 -0.57485425 0.81744868 0
0.037426054 -0.027661858 0.012010426 -0.023878871 -0.60447621 0.79626524 0
0.042401031 -0.02775966 0.012076067 -0.019584076 -0.62361836 0.78148365 0
0.04752589 -0.027550761 0.012340446 -0.026200699 -0.61394697 0.7889123 0
0.052458972 -0.02755679 0.012515188 -0.035103131 -0.62694973 0.7782684 0
0.057525937 -0.027749967 0.012527267 -0.030653233 -0.66417503 0.7469483 0
0.062474243 -0.027749848 0.012653129 -0.0087267449 -0.67442739 0.73828959 0
0.067422792 -0.027266478 0.012363196 0.31846488 -0.66173714 0.67873716 0
0.070667014 -0.026182456 0.011081723 0.76544452 -0.51994556 0.37914544 0
-0.026140504 -0.022915993 0.010770785 -0.48126942 -0.0081783468 0.87653452 0
-0.022493124 -0.022413742 0.0111741 -0.083181873 -0.020010155 0.99633348 0
-0.017546611 -0.022488514 0.011475043 0.014333555 -0.075819477 0.99701852 0
-0.012579459 -0.022590578 0.012005893 -0.12467575 0.00086617924 0.99219716 0
-0.0074366098 -0.022518493 0.012204337 -0.021709174 0.021413602 0.9995349 0
-0.002465657 -0.022439837 0.012326318 -0.038169879 0.014766108 0.9991622 0
0.0025299978 -0.022430578 0.012817707 -0.16158547 -0.043248389 0.98591071 0
0.0074311476 -0.022387536 0.012902147 0.11088055 -0.027555237 0.99345165 0
0.012434449 -0.0226347 0.012798407 -0.024281774 0.0022030815 0.99970269 0
0.01757093 -0.022546854 0.012935875 -0.025866084 0.019823438 0.9994688 0
0.022569461 -0.022312002 0.013061613 -0.026057675 0.027364327 0.99928582 0
0.027357452 -0.022515433 0.013193206 -0.022803197 0.015573953 0.99961865 0
0.032630425 -0.022451987 0.013311845 -0.028159499 0.029089607 0.99918008 0
0.037454497 -0.022470003 0.013436271 -0.027288498 0.026944553 0.99926448 0
0.04252677 -0.022437222 0.013615317 -0.037718099 0.035708994 0.99865025 0
0.047417298 -0.02258699 0.01383095 -0.05211547 0.0091706105 0.99859893 0
0.052501477 -0.022446332 0.014280505 -0.13176881 -0.068250574 0.98892808 0
0.057499234 -0.022291111 0.014427099 0.059151579 -0.024842573 0.99793983 0
0.06248343 -0.022606412 0.014519617 -0.039414324 0.0027612138 0.99921912 0
0.067469344 -0.022511648 0.014347499 0.20669965 -0.056887403 0.97674924 0
0.07143265 -0.022242384 0.01202097 0.78203976 -0.1455608 0.60599166 0
-0.025549538 -0.019381974 0.010316862 -0.1863149 0.40905368 0.89328712 0
-0.022286611 -0.019186839 0.010509191 -0.10738434 0.4968845 0.86114717 0
-0.017584534 -0.018910158 0.010692909 0.017979799 0.53407371 0.84524661 0
-0.012340847 -0.018238511 0.011027641 -0.17096098 0.47434947 0.86357683 0
-0.0075343442 -0.017999984 0.011186286 -0.030140011 0.46087173 0.88695478 0
-0.0024460168 -0.017865611 0.011260834 -0.029055787 0.47616974 0.87887323 0
0.002614643 -0.017808434 0.0115429 -0.099080548 0.54357266 0.83349371 0
0.0076354411 -0.017601581 0.011590701 0.0017438423 0.50139076 0.86521912 0
0.012482285 -0.017349951 0.011593332 -0.040523436 0.47022936 0.88161331 0
0.017663421 -0.017269613 0.011769384 -0.037371796 0.45587337 0.8892597 0
0.022523889 -0.017382324 0.012010809 -0.041888345 0.42779747 0.9029035 0
0.027477896 -0.017495159 0.012255741 -0.034805592 0.36938384 0.92862487 0
0.03252105 -0.017351415 0.012383599 -0.032280404 0.37030205 0.92835033 0
0.037344482 -0.017564915 0.012648278 -0.040967856 0.31856281 0.947016 0
0.042497925 -0.017499043 0.012873058 -0.043840855 0.30147323 0.95246619 0
0.04742993 -0.017557129 0.013119873 -0.050564434 0.28591165 0.95692098 0
0.052524772 -0.017474685 0.013541457 -0.10380286 0.34984869 0.93103755 0
0.057441883 -0.017294625 0.013678246 0.013005618 0.32400844 0.94596475 0
0.062716752 -0.017499544 0.013866186 -0.038459245 0.26438993 0.96364874 0
0.067588925 -0.017422481 0.013507809 0.24822484 0.35414347 0.90164667 0
0.071269907 -0.018038604 0.011563579 0.74905282 0.37502578 0.54614615 0
0.014956997 -0.014931937 0.010020445 -0.017522642 0.74500448 0.66682935 0
0.01765373 -0.014881263 0.010108415 -0.041814122 0.76166952 0.64661521 0
0.022727994 -0.014781171 0.010307243 -0.032636829 0.72099084 0.69217563 0
0.027674578 -0.014539357 0.010452814 -0.07429865 0.73635423 0.67250448 0
0.032565098 -0.014365408 0.01058235 -0.02761453 0.74127311 0.67063528 0
0.037667088 -0.014267643 0.010770385 -0.042574365 0.74359506 0.66727352 0
0.042650681 -0.014122508 0.01094354 -0.051595122 0.73745447 0.67342323 0
0.047511335 -0.01394969 0.0111168 -0.056053527 0.73097998 0.68009281 0
0.052489396 -0.013865925 0.01141314 -0.039412674 0.74000996 0.67144018 0
0.057577886 -0.013608646 0.011449901 -0.053098802 0.75688905 0.65138274 0
0.062497292 -0.013511635 0.011527205 0.0037617488 0.75678521 0.65365273 0
0.067090102 -0.013871017 0.011285725 0.24224667 0.76336056 0.59882987 0
0.070142522 -0.014652312 0.0102882 0.57393181 0.76834273 0.2832875 0
