# .PCD v0.7 - Point Cloud Data file format
VERSION 0.7
FIELDS x y z normal_x normal_y normal_z curvature
SIZE 4 4 4 4 4 4 4
TYPE F F F F F F F
COUNT 1 1 1 1 1 1 1
WIDTH 430
HEIGHT 1
VIEWPOINT 0 0 0 1 0 0 0
POINTS 430
DATA ascii
-0.1110405 -0.030456204 -0.005154606 -0.16903496 -0.31187126 -0.9349671 0
-0.10712481 -0.031035881 -0.0055327737 -0.10447714 -0.3772656 -0.92019296 0
-0.10244618 -0.031254195 -0.0057182265 -0.035158057 -0.50503838 -0.8623805 0
-0.097394764 -0.031134071 -0.0059528272 -0.0031350343 -0.59015524 -0.8072837 0
-0.092524484 -0.031217285 -0.0058932202 0.026586721 -0.56130582 -0.82718134 0
-0.087757647 -0.030967023 -0.0055886959 0.17742045 -0.49139738 -0.85267258 0
-0.084928356 -0.030285224 -0.0050949748 0.39886585 -0.39384261 -0.82812679 0
-0.11140484 -0.028651616 -0.0052180635 -0.16430332 0.058425408 -0.98467809 0
-0.10738819 -0.02763202 -0.0057701766 -0.18482263 0.12022083 -0.97539103 0
-0.10258725 -0.027351238 -0.0065834024 -0.14535818 0.029806579 -0.98892993 0
-0.097391859 -0.027640462 -0.0071120625 -0.049220636 -0.077567399 -0.99577135 0
-0.092549287 -0.027384451 -0.0070651039 0.060450941 -0.056993887 -0.99654275 0
-0.087529577 -0.027434913 -0.0064499052 0.20358875 -0.058233704 -0.97732311 0
-0.083995119 -0.027462238 -0.0054096426 0.39110705 -0.095824458 -0.91534311 0
-0.10615531 -0.024597198 -0.0052509159 -0.24405043 0.40253794 -0.88227129 0
-0.10233791 -0.023725579 -0.0057624173 -0.19044501 0.45933515 -0.867607 0
-0.097422183 -0.023245635 -0.006134137 -0.066154324 0.49490765 -0.86642373 0
-0.092455924 -0.023165021 -0.0061593959 0.042599026 0.47572899 -0.87855977 0
-0.087724425 -0.02346614 -0.0057563423 0.17533609 0.42677727 -0.8871969 0
-0.084389925 -0.024141895 -0.0053202789 0.2891559 0.35401157 -0.88941818 0
-0.106378 -0.035315696 -0.0010564026 -0.18959761 -0.9374088 -0.29209164 0
-0.10399177 -0.035266846 -0.00092727703 0.295151 -0.92412484 -0.24265039 0
-0.091424063 -0.035133146 -0.00046550867 0.024670757 -0.95325273 -0.30116564 0
-0.12109669 -0.03130636 -0.0010051701 -0.71394295 -0.41080976 -0.56702805 0
-0.1174207 -0.032141045 -0.0023350953 -0.25001469 -0.71262211 -0.65548646 0
-0.11247341 -0.032632858 -0.0030730444 -0.17874952 -0.77880692 -0.60125566 0
-0.10763971 -0.033785727 -0.0031895759 -0.17284524 -0.80655897 -0.56532049 0
-0.10229366 -0.033751987 -0.002883547 0.19779564 -0.88900626 -0.41297054 0
-0.097399332 -0.032932933 -0.0024968192 0.042455994 -0.99800378 -0.046753448 0
-0.092699766 -0.033673517 -0.002714843 -0.20476359 -0.8907758 -0.40569738 0
-0.087393582 -0.033412568 -0.0026076783 0.24829151 -0.89208668 -0.3775349 0
-0.082764491 -0.031617582 -0.0023194032 0.48202747 -0.74827254 -0.45578253 0
-0.079709083 -0.030579913 -0.0005440329 0.60753763 -0.60823429 -0.51083165 0
-0.066343717 -0.030462103 -0.00029372351 -0.15628539 -0.61756879 -0.77083313 0
-0.063368857 -0.03038268 -0.00037379249 0.11664744 -0.6523239 -0.74891049 0
-0.0093410984 -0.030259771 -4.6391597e-05 0.051875241 -0.042041156 -0.99776828 0
0.0033990573 -0.030813802 -6.2051775e-05 -0.017488606 -0.066810079 -0.99761248 0
0.00748586 -0.030680845 -5.7728834e-05 0.0047920384 -0.066740468 -0.99775887 0
0.012598412 -0.03054494 -3.7102443e-05 0.0081780795 -0.059133418 -0.99821657 0
0.0175533 -0.030548276 -7.5303928e-05 -0.10404298 -0.072678842 -0.99191374 0
0.021183239 -0.030651418 -0.00016841183 0.092944682 -0.11232728 -0.98931479 0
0.025726439 -0.030049156 -5.4547418e-06 0.018319996 -0.038488336 -0.99909115 0
0.031480666 -0.030117905 -3.1038244e-06 -0.013176392 -0.065728985 -0.99775052 0
-0.12103584 -0.028009828 -0.0010954083 -0.71727681 0.34999683 -0.60250825 0
-0.11740948 -0.02731354 -0.0022968662 -0.18707712 0.58631033 -0.78818929 0
-0.1133015 -0.026735846 -0.0031015363 -0.44534621 0.64080852 -0.62532502 0
-0.10928354 -0.025333663 -0.0047293049 -0.29233345 0.52133 -0.80172068 0
-0.081490874 -0.027723268 -0.003705516 0.62506235 -0.16307054 -0.76335114 0
-0.078581303 -0.026826158 -0.0014237596 0.83030599 -0.42719439 -0.35790631 0
-0.072174966 -0.02704259 -0.00055497105 -0.072711341 -0.20380838 -0.97630686 0
-0.067576997 -0.028176164 -0.00079977472 -0.10893019 0.02355873 -0.99377018 0
-0.062389065 -0.027427899 -0.0012232353 0.013849022 -0.076607428 -0.99696517 0
-0.059299488 -0.026946867 -0.00050299597 0.59160179 -0.087875925 -0.80142695 0
-0.0094580445 -0.029487066 -2.2433593e-05 -0.015868338 0.06705568 -0.99762309 0
0.0030743598 -0.02893028 -7.6910197e-05 -0.023258135 0.037941877 -0.99900925 0
0.0073909899 -0.029038522 -7.2241462e-05 0.0068156756 0.050048858 -0.99872351 0
0.012435535 -0.029255578 -4.6542529e-05 0.0069064107 0.025716739 -0.99964535 0
0.018016316 -0.02934424 -9.3796887e-05 -0.082732685 0.089160986 -0.99257535 0
0.021984721 -0.029139375 -0.00012059136 0.050399564 0.090916567 -0.99458236 0
0.027343828 -0.029291574 -2.0750002e-05 0.0049519488 0.0076498194 -0.99995852 0
0.031728983 -0.029425677 -4.0978985e-06 0.0082859164 0.0024985098 -0.99996251 0
-0.1169743 -0.024570161 -3.0601666e-05 0.053892918 0.2155593 -0.97500241 0
-0.1115155 -0.023787338 -0.0013009057 -0.49709478 0.60001153 -0.62680382 0
-0.10759203 -0.022508238 -0.0028498219 -0.33237621 0.74581003 -0.57731581 0
-0.10242909 -0.021119183 -0.0027451545 -0.13697053 0.9026711 -0.40795097 0
-0.097882852 -0.020644024 -0.0033965043 -0.11970373 0.8823005 -0.45521078 0
-0.092437804 -0.020678846 -0.0040857904 0.013101452 0.8127768 -0.5824278 0
-0.087130435 -0.021091841 -0.0039079012 0.15160921 0.73676878 -0.65892828 0
-0.082150102 -0.022312587 -0.0027258266 0.52243155 0.53301793 -0.66555017 0
-0.077670105 -0.02278595 -0.0011636779 0.076057181 0.273229 -0.95893759 0
-0.073165029 -0.021625517 -0.00060819188 0.34886244 -0.31617975 -0.88222754 0
-0.067613617 -0.020370077 -0.00034947315 -0.14321391 -0.43809935 -0.88744503 0
-0.062409893 -0.023047447 -0.00054966193 -0.1052448 0.37071657 -0.92276359 0
-0.059646428 -0.024409294 -0.00025386026 0.66502434 0.50639683 -0.54891247 0
-0.097090043 -0.019683454 -0.0013076286 -0.12870432 0.98129386 -0.14316984 0
-0.092600726 -0.019531291 -0.0015702356 -0.028830187 0.98324931 -0.17997111 0
-0.087625615 -0.019546751 -0.0013749107 0.077948041 0.94525599 -0.3168835 0
-0.082705773 -0.019544633 -0.00073534955 0.036718238 0.7985087 -0.6008625 0
-0.077713653 -0.01945064 -0.00041766651 -0.0088923154 0.61509252 -0.7884047 0
-0.07244461 -0.019611204 -0.00043639677 0.010283076 0.73017353 -0.68318439 0
-0.067818396 -0.019539701 -0.00027535233 0.073464081 0.52669764 -0.84687233 0
-0.064718187 -0.019937484 -0.00023662807 0.27422774 0.8393808 -0.46929631 0
-0.11752198 -0.035085082 0.0020176577 0.0042565395 -0.99945515 -0.032731939 0
-0.11294943 -0.035300419 0.0020277002 0.0081646992 -0.99825066 -0.058558632 0
-0.10687087 -0.035445549 0.0016226202 -0.15042369 -0.98179805 0.11595339 0
-0.10293239 -0.035455536 0.0017845731 0.14604384 -0.98743725 0.060323663 0
-0.097060442 -0.035383876 0.0024714281 -0.16676262 -0.9852581 0.038167745 0
-0.092642941 -0.035515811 0.0020344807 0.044538479 -0.99801672 0.044486158 0
-0.087351151 -0.035490192 0.0025458611 -0.085182771 -0.99398738 0.068796471 0
-0.082622327 -0.035656497 0.0026210737 0.051687211 -0.99685925 -0.060000826 0
-0.077641733 -0.03537108 0.0030635407 0.063111648 -0.99691218 0.046720829 0
-0.072389036 -0.035308681 0.003295847 -0.0054084701 -0.99996281 -0.0067197676 0
-0.066978492 -0.035357457 0.0034973994 -0.041481368 -0.99747872 0.057580151 0
-0.062909663 -0.035409812 0.003514793 0.044549029 -0.99900657 0.0011071386 0
-0.057879489 -0.035289772 0.0035712123 0.065986291 -0.98900086 -0.13237523 0
-0.052633788 -0.035246201 0.0039668144 -0.069682337 -0.99752378 0.0095238322 0
-0.047832739 -0.035328355 0.004137442 0.022363734 -0.99297911 -0.11615636 0
-0.042384766 -0.035420775 0.0042123236 0.013724251 -0.97943753 -0.20128001 0
-0.037520822 -0.035302006 0.0042562545 -0.0034398159 -0.95640028 -0.2920391 0
-0.032443304 -0.035276406 0.0043009925 0.048130307 -0.93225467 -0.35858694 0
-0.027653048 -0.035211019 0.0045543271 0.0079666674 -0.96754223 -0.25258362 0
-0.022379737 -0.035197712 0.0046625151 0.027135603 -0.92176515 -0.38679796 0
-0.017477976 -0.035148386 0.0046997033 0.023864385 -0.8899138 -0.45550397 0
-0.011427648 -0.035765961 0.0034186188 -0.19655649 -0.91833091 -0.34356049 0
-0.0074789873 -0.035920605 0.0036199535 0.013732055 -0.91790122 -0.39657119 0
-0.0025642843 -0.03601186 0.0035174997 -0.061329726 -0.86701256 -0.49449751 0
0.0025991732 -0.036319423 0.0031210277 -0.075311206 -0.84807718 -0.52449334 0
0.0077431034 -0.036408544 0.0030496169 0.010353873 -0.85430336 -0.5196715 0
0.012452602 -0.03634382 0.0030226628 0.011520324 -0.85168272 -0.52393126 0
0.017481986 -0.036348786 0.0031032448 0.0044705397 -0.85592532 -0.51708019 0
0.022507472 -0.036322702 0.0030478418 0.008810767 -0.84986818 -0.52692163 0
0.02748573 -0.036353063 0.0031483555 0.0020700006 -0.85029322 -0.5263052 0
0.032554019 -0.036403239 0.0032029992 -0.0035177753 -0.83108437 -0.55613512 0
0.037528727 -0.036321074 0.0031819243 0.010076514 -0.82966918 -0.55816442 0
0.042551335 -0.036260288 0.0031420127 0.016012777 -0.80593872 -0.59178233 0
0.047491141 -0.03635031 0.0034256331 0.014551548 -0.82984459 -0.55780488 0
0.052571893 -0.036359243 0.0034847814 0.011200706 -0.81552166 -0.57861817 0
0.057438258 -0.036250897 0.0034359759 0.0035232613 -0.79555345 -0.60587317 0
0.0625192 -0.036216527 0.0034659384 0.018621013 -0.78321517 -0.62147194 0
0.067445561 -0.036233675 0.0035898464 0.014694482 -0.79548877 -0.60579008 0
0.07235501 -0.036118586 0.0035533125 0.016859412 -0.78449357 -0.61990774 0
0.077366956 -0.036046144 0.0037006114 0.05217357 -0.77628088 -0.62822437 0
0.081828676 -0.035675429 0.0042205337 0.28392541 -0.77592015 -0.56332415 0
-0.12591864 -0.031833682 0.0012440705 -0.90146208 -0.43285719 -0.00089669815 0
-0.12251107 -0.032634716 0.0017637938 -0.50725329 -0.70012254 0.50251621 0
-0.11741546 -0.03321841 0.0021979758 -0.086687848 -0.50765985 0.85718524 0
-0.11237942 -0.032980029 0.0025602076 -0.043016192 -0.16465637 0.98541254 0
-0.10778522 -0.033065077 0.0027725939 -0.088320434 -0.15579645 0.98383278 0
-0.10244693 -0.032859545 0.0028561405 0.039986446 -0.056205314 0.9976182 0
-0.097478911 -0.032749545 0.002419987 0.053944558 -0.37484404 0.92551708 0
-0.092643589 -0.03258438 0.0032222122 -0.15949287 0.10214674 0.98190022 0
-0.08747644 -0.033125427 0.0028037033 0.13149303 -0.16770908 0.97702777 0
-0.082310073 -0.032784652 0.0027248452 0.14575787 -0.35423419 0.92372769 0
-0.077469781 -0.032463148 0.0026529715 0.58962417 -0.6200763 -0.51754105 0
-0.072551288 -0.032408398 0.0030689966 0.09893918 -0.83130008 0.54694706 0
-0.067468829 -0.032439075 0.002909316 -0.36160439 -0.92182267 0.13958949 0
-0.062476389 -0.032636527 0.003150607 0.2444762 -0.89914674 0.36299652 0
-0.057484098 -0.03249751 0.0035527162 0.26588497 -0.87798649 0.3980515 0
-0.052599888 -0.032202739 0.0035555724 0.26126042 -0.066459388 -0.96297777 0
-0.047564276 -0.03205118 0.003576156 0.072230674 -0.0061110677 -0.99736923 0
-0.042564079 -0.032187738 0.0034903113 0.010710633 -0.1641926 -0.98637015 0
-0.037512936 -0.032198995 0.0034656345 0.040556435 -0.13481835 -0.99004 0
-0.032591816 -0.032539379 0.0035154363 0.047487121 -0.13180974 -0.99013698 0
-0.027622202 -0.032447226 0.0036992007 0.035427108 -0.14571089 -0.9886927 0
-0.022381986 -0.032405775 0.003865964 0.032636747 -0.14847459 -0.98837757 0
-0.017555939 -0.032496456 0.0041045868 0.046596009 -0.11796872 -0.99192345 0
-0.012440818 -0.032560959 0.0023161212 -0.57209545 -0.16059341 -0.80431122 0
-0.0073760538 -0.032517217 0.00098363997 0.10745193 -0.34990001 -0.93060416 0
-0.0024455281 -0.032607328 0.0010498472 -0.0068372274 -0.34688145 -0.93788403 0
0.0022213573 -0.033000257 0.00061503553 -0.19362724 -0.31478253 -0.92920423 0
0.0076881107 -0.033173043 0.00049566734 0.0079845116 -0.33239543 -0.94310635 0
0.012577994 -0.033118267 0.00050147495 -0.0010556501 -0.33210611 -0.94324142 0
0.017441567 -0.032858059 0.00048751742 -0.0020883274 -0.30619568 -0.95196629 0
0.022809898 -0.032809943 0.00050059991 -0.0017300892 -0.29251912 -0.95625812 0
0.027459826 -0.032584004 0.00047075906 0.0094756801 -0.27835289 -0.96043217 0
0.032499362 -0.032572135 0.00050032599 0.0086434307 -0.295398 -0.95533514 0
0.037484158 -0.03259635 0.00056367146 0.011879706 -0.29840747 -0.95436466 0
0.042434018 -0.032471474 0.00063347141 0.019698868 -0.28511056 -0.95829225 0
0.047376733 -0.032488078 0.00075092504 0.02333292 -0.28912601 -0.95700663 0
0.052538522 -0.032561559 0.00091560982 0.022303019 -0.29819795 -0.95424348 0
0.057649709 -0.032569438 0.0010509643 0.023130672 -0.29745913 -0.95445436 0
0.062569432 -0.032606222 0.0011596022 0.01774564 -0.28817293 -0.95741397 0
0.067498252 -0.032620966 0.0012897917 0.021336472 -0.29495484 -0.95527285 0
0.072511308 -0.032521084 0.001354606 0.031490352 -0.29825613 -0.95396626 0
0.077645078 -0.032511283 0.0014874012 0.041169651 -0.29855567 -0.95350379 0
0.082710966 -0.032752555 0.0024483455 0.3587068 -0.41886398 -0.83419567 0
0.085814044 -0.031639215 0.0039191172 0.73197025 -0.35851979 -0.57938164 0
-0.12562682 -0.028889224 0.0010213988 -0.70509094 0.69974327 -0.11491815 0
-0.12255085 -0.02769535 0.0011091108 -0.39320621 0.58436686 0.70986211 0
-0.11748473 -0.027619185 0.0017125438 -0.033778235 0.2586053 0.96539235 0
-0.11267631 -0.027127981 0.0016089946 -0.0324868 0.28912774 0.95673913 0
-0.10756563 -0.027492501 0.0019595104 -0.049421478 0.24180777 0.96906483 0
-0.1024769 -0.027549958 0.0021511498 -0.041757148 0.24016564 0.96983343 0
-0.097574562 -0.027602829 0.0022316109 -0.023924893 0.23128636 0.97259146 0
-0.092603341 -0.027460853 0.0023210756 -0.0056130989 0.22353989 0.97467864 0
-0.087482229 -0.027353274 0.0024187099 -0.03535175 0.25147751 0.96721739 0
-0.082085714 -0.027292749 0.0022188453 0.1000388 0.31880835 0.94252509 0
-0.077636234 -0.027605714 0.0019362347 -0.092322648 0.57305104 0.81430274 0
-0.072631009 -0.027462715 0.0018147753 -0.22468585 0.045778796 0.97335535 0
-0.067526422 -0.027154347 0.0022491771 0.018911969 0.57724041 0.81635523 0
-0.062819846 -0.027391808 0.0029189938 -0.12574969 0.28167287 0.9512347 0
-0.057411779 -0.027605863 0.0024942276 0.59574008 0.25702029 0.760943 0
-0.052510865 -0.027421253 0.0029813163 0.11491881 0.62717599 0.77035308 0
-0.047456454 -0.027420547 0.0030120183 0.31741074 0.74752802 -0.58348292 0
-0.042616487 -0.027508382 0.0032695304 -0.21525256 0.93486029 0.28231642 0
-0.037472229 -0.027544813 0.0034664006 0.022145592 0.95196116 0.30541682 0
-0.032537505 -0.027451016 0.0036866837 0.041925196 0.8692522 0.49258795 0
-0.027597668 -0.027233779 0.003740838 0.027386801 0.33100909 -0.94322997 0
-0.022478567 -0.027292872 0.0037502956 0.023301609 0.047967073 -0.99857712 0
-0.017697096 -0.026976183 0.0038565567 -0.0095821181 0.16399689 -0.98641431 0
-0.012592087 -0.027335865 0.0021612975 -0.5455637 0.14407519 -0.82559222 0
-0.0075222431 -0.027292281 0.00083621743 0.092797823 0.33704221 -0.93690503 0
-0.0024883824 -0.027431363 0.00085538073 -0.041931015 0.24872431 -0.96766633 0
0.0023536023 -0.026693607 0.00047116409 -0.12291423 0.32951471 -0.93611538 0
0.0076336176 -0.026375903 0.00050380535 0.010525187 0.3883816 -0.92143852 0
0.012433361 -0.026635773 0.00045762435 0.011443445 0.3477495 -0.93751764 0
0.017563654 -0.026893009 0.0003971461 -0.0073355013 0.27340856 -0.96187001 0
0.022594692 -0.027051631 0.00032138135 -0.00081696094 0.23398758 -0.97223926 0
0.027582867 -0.026877571 0.00036665861 0.0025016009 0.26708019 -0.96367103 0
0.032569312 -0.027154811 0.00035791716 0.0045147976 0.24130708 -0.9704383 0
0.037602521 -0.027271144 0.00037992059 0.0053460272 0.2025965 -0.97924775 0
0.042563338 -0.027409937 0.00037819686 0.012319723 0.16958065 -0.9854393 0
0.047552157 -0.027460201 0.00044143258 0.017110491 0.14682759 -0.98901409 0
0.052591629 -0.027582306 0.00049408915 0.016317649 0.10319784 -0.99452698 0
0.057518471 -0.02748421 0.00061463815 0.025559818 0.097974062 -0.99486065 0
0.062343605 -0.027454045 0.00073427241 0.020330517 0.078047797 -0.99674231 0
0.067559429 -0.027460922 0.0007875954 -0.027383134 0.067583039 -0.99733788 0
0.072500862 -0.027488969 0.00084429554 0.050015699 0.059978604 -0.9969458 0
0.077415459 -0.027689222 0.00094412075 0.016752589 0.023426782 -0.99958515 0
0.082596831 -0.027452823 0.0014034001 0.256612 0.051454823 -0.96514392 0
0.08614409 -0.027442688 0.0035159402 0.7672556 0.11127469 -0.63161445 0
-0.12070254 -0.024770923 0.0011131293 -0.32095689 0.94706786 0.007012093 0
-0.11707396 -0.023871219 0.00078578532 -0.28365386 0.84277546 0.45746028 0
-0.11236111 -0.022922345 0.00081263256 -0.088841818 0.43944266 0.89386648 0
-0.10780059 -0.022218307 0.00092419691 -0.036032144 0.3635838 0.93086433 0
-0.10282986 -0.022299316 0.00085084734 -0.047774643 0.23898195 0.96984804 0
-0.097516559 -0.022296177 0.00092021719 -0.0056169084 0.24016064 0.97071689 0
-0.092477068 -0.022512835 0.0011471588 0.00090976054 0.22558886 0.97422212 0
-0.087522797 -0.022514356 0.001176563 -0.063177466 0.26412517 0.96241701 0
-0.082137033 -0.022481846 0.0012201632 0.076238722 0.22054535 0.97239256 0
-0.077530883 -0.022553692 0.0010537967 -0.19975668 0.25713149 0.9455055 0
-0.072609283 -0.022485819 0.0010948404 0.20941821 0.41018191 0.8876344 0
-0.067379884 -0.022559883 0.0013422597 -0.14722207 0.4644967 0.87325168 0
-0.062432144 -0.022272736 0.0013643138 -0.082018629 0.50488502 0.85928118 0
-0.057481647 -0.022461712 0.0016097355 0.62199396 0.72301066 0.30063134 0
-0.052407432 -0.022443797 0.00187024 0.63567936 0.7684406 0.073557414 0
-0.047539182 -0.022528145 0.0020724237 0.35860509 0.80200565 -0.47769156 0
-0.04254872 -0.022467552 0.0022488236 0.0043488103 0.71492332 0.69918931 0
-0.03759291 -0.022556903 0.002450204 0.15113084 0.88776582 0.43477732 0
-0.032547873 -0.022546234 0.0026901918 0.017157983 0.58822125 -0.80851793 0
-0.027454639 -0.022537246 0.0029556886 0.22522448 0.94937712 0.21899104 0
-0.022917425 -0.022728859 0.003155716 0.51715028 0.6618377 0.54270291 0
-0.017943714 -0.024822067 0.0038218927 0.12439705 0.99220741 -0.0070629036 0
-0.011328003 -0.02444526 0.0029277289 -0.18285957 0.94994551 -0.25330997 0
-0.0075129038 -0.024175031 0.0034089882 -0.042911563 0.95343035 -0.29854512 0
-0.0025300917 -0.023925077 0.003384318 -0.031464316 0.94604409 -0.32250676 0
0.0024769411 -0.023636157 0.0030207478 -0.0936528 0.8993628 -0.42705476 0
0.0075272541 -0.023634383 0.0028798792 -0.012717447 0.85658658 -0.51584649 0
0.012574653 -0.023577472 0.0028873561 -0.0077118082 0.84554207 -0.53385299 0
0.017328452 -0.023574516 0.0027420218 -0.017654561 0.8406508 -0.54128969 0
0.022654343 -0.023462739 0.0028265305 -0.0062430142 0.84571189 -0.53360325 0
0.027412992 -0.023440586 0.0027862792 -0.018791089 0.816773 -0.576653 0
0.032508906 -0.023234425 0.0028954078 -0.022799589 0.80369866 -0.59459949 0
0.037487049 -0.023149014 0.0028096389 -0.021611352 0.79268283 -0.60925114 0
0.042366661 -0.023058068 0.0027562634 -0.024997907 0.76649553 -0.64176309 0
0.047353677 -0.022926304 0.0027283432 -0.028821558 0.73612237 -0.6762346 0
0.052641883 -0.022761634 0.0027165776 -0.032038212 0.71486348 -0.6985296 0
0.057514917 -0.022509925 0.0027830442 -0.03309248 0.70219803 -0.71121216 0
0.062528729 -0.022492306 0.0026496716 -0.028748959 0.66522455 -0.74608964 0
0.06746389 -0.022258256 0.0026650161 -0.020331405 0.65189761 -0.75803447 0
0.072572745 -0.02216096 0.0026446569 -0.019880611 0.62244123 -0.78241402 0
0.077469878 -0.022440037 0.0023250724 0.0066948747 0.54130417 -0.84080017 0
0.082570471 -0.022711968 0.0029843561 0.38697916 0.56576401 -0.72811967 0
0.08568339 -0.024198812 0.0043958463 0.74835169 0.4345991 -0.50109202 0
-0.10549555 -0.019802028 0.0010769235 -0.31351185 0.89754134 -0.31004825 0
-0.10205799 -0.019581983 0.0012075441 -0.24284649 0.95751768 -0.15551683 0
-0.09744592 -0.019299557 0.0010761714 0.029777696 0.56943679 0.82149565 0
-0.092509247 -0.01901231 0.0011142154 -0.10866742 0.43990219 0.89144683 0
-0.087628312 -0.018809961 0.0011324713 -0.16165566 0.72311032 0.67154968 0
-0.082432695 -0.018663932 0.0012852561 0.0059511503 0.82534432 0.56459838 0
-0.077399142 -0.018606059 0.0013131567 0.039570644 0.60549295 0.79486632 0
-0.072371572 -0.018691195 0.0013222331 0.0093283448 0.83641487 0.54801744 0
-0.067509882 -0.018633433 0.0014073836 0.096367829 0.71206564 0.69546795 0
-0.062537998 -0.018704584 0.0016224661 -0.20083122 0.97841823 0.048626572 0
-0.057556849 -0.018722445 0.0016528595 -0.056702692 0.99777234 0.035144575 0
-0.052404001 -0.018701017 0.0018028591 0.20111927 0.97560143 0.088050172 0
-0.047494575 -0.018608298 0.0020866885 -0.094098374 0.9792127 -0.17968877 0
-0.042547926 -0.01864272 0.0022348359 -0.081436999 0.94099891 0.32846451 0
-0.037551891 -0.018901659 0.0018700627 0.25590956 0.9360249 -0.24159415 0
-0.032434996 -0.018748168 0.0019811783 -0.43520615 0.89228934 -0.12006398 0
-0.027436854 -0.018741075 0.0021131115 -0.034587022 0.86669165 0.49764386 0
-0.023420068 -0.018571345 0.0026123205 0.41179883 0.87149912 -0.26629108 0
0.074409857 -0.019964745 0.0048300372 -0.090707339 0.82086581 -0.56387198 0
0.077472389 -0.019881483 0.0047507826 0.0061941235 0.87986815 -0.47517747 0
-0.045600817 -0.035189427 0.0050606681 -0.011281884 -0.71576679 0.69824827 0
-0.042105369 -0.035183672 0.0052505564 0.009424936 -0.73328894 0.67985171 0
-0.037020084 -0.035193142 0.0051894886 -0.052985441 -0.75009763 0.65920103 0
-0.032722853 -0.035252579 0.0053969966 -0.016127307 -0.91846722 0.3951683 0
-0.027357535 -0.03523099 0.0053905887 0.0038577947 -0.98197842 0.18895383 0
-0.022090709 -0.035246946 0.0056428304 0.0061126431 -0.97075295 0.24000292 0
-0.017319031 -0.035208147 0.0057836152 0.010912429 -0.98431927 0.17605792 0
-0.012341827 -0.035592686 0.0064803716 -0.20879835 -0.94086552 0.26678732 0
-0.0072956025 -0.035887744 0.0071551721 -0.047621585 -0.9379074 0.34360135 0
-0.002261014 -0.036138874 0.0072831302 -0.1352704 -0.93906265 0.31601134 0
0.00238558 -0.036862768 0.0075841779 -0.11815269 -0.96250308 0.24418806 0
0.0074787661 -0.037039638 0.0075573307 -0.0094405776 -0.97753054 0.21058227 0
0.012423122 -0.037088525 0.0075410237 -0.012169359 -0.97969878 0.20010515 0
0.017503321 -0.037094571 0.0075805751 -0.003439612 -0.98258865 0.1857627 0
0.022541914 -0.037129939 0.0075294995 -0.0038507255 -0.99170953 0.12844183 0
0.027437454 -0.037177652 0.0075821322 -0.015753942 -0.98732191 0.15794694 0
0.032480378 -0.037233517 0.0076346193 -0.012667915 -0.98826623 0.15221529 0
0.037520576 -0.037301015 0.0075047519 -0.009369378 -0.99467683 0.1026163 0
0.042457469 -0.037303407 0.0074631623 -0.018570418 -0.99596012 0.087854944 0
0.047452286 -0.037353925 0.0073616379 0.0064804577 -0.99861944 0.052126925 0
0.052402176 -0.037329473 0.0077345432 -0.011034655 -0.99515259 0.097721599 0
0.057633359 -0.037367109 0.0075788284 -0.0020400526 -0.99827224 0.05872193 0
0.062466539 -0.037331138 0.0075919968 0.018436827 -0.99770629 0.065132745 0
0.067643024 -0.037317794 0.0074730194 -0.0094012227 -0.99874073 0.049281582 0
0.072407432 -0.037316129 0.0074388529 0.0085556228 -0.99990255 0.011034964 0
0.077447556 -0.037294269 0.0075015472 0.035142049 -0.99938202 -0.00081608625 0
0.082397468 -0.036286894 0.0074902438 0.40408516 -0.91439754 -0.024339702 0
-0.056191642 -0.032603886 0.0050481013 -0.13146912 0.073558986 0.98858738 0
-0.052380748 -0.034053449 0.0051535242 -0.051371984 -0.066352814 0.9964729 0
-0.047696829 -0.033970289 0.0052616377 -0.041863017 0.054528251 0.99763423 0
-0.042337857 -0.033238251 0.0053730924 -0.074621163 0.14589393 0.98648202 0
-0.037655674 -0.032900933 0.0054825158 -0.037409119 0.094414443 0.99482983 0
-0.032456435 -0.032622792 0.0057199574 -0.055860154 0.14001171 0.98857296 0
-0.027498668 -0.032554649 0.0059193899 -0.018763326 0.13313919 0.99091971 0
-0.022603597 -0.032551147 0.0061228881 -0.069894902 0.1384341 0.9879021 0
-0.017359916 -0.032505319 0.0063580801 -0.034350563 0.15309162 0.98761487 0
-0.01282735 -0.032522846 0.0080465516 -0.65046149 -0.089682788 0.75422603 0
-0.0076320353 -0.034346025 0.009499629 -0.090231165 -0.63373059 0.76827335 0
-0.0031242156 -0.034731224 0.0097254291 -0.031043591 -0.7497229 0.66102326 0
0.00015587189 -0.034814946 0.0098519772 -0.59689283 -0.40671498 0.69159365 0
0.084839068 -0.034804724 0.0072459239 0.69459254 -0.71130252 -0.10765621 0
0.086411782 -0.032449596 0.0074917176 0.88629812 -0.46280915 -0.01683755 0
-0.030899243 -0.029556843 0.0050635212 -0.10163643 0.21785463 0.97067469 0
-0.027372766 -0.029262276 0.0051889447 0.0027490198 0.28227848 0.95932859 0
-0.022298714 -0.0291223 0.0053424258 -0.065939635 0.33469647 0.94001603 0
-0.017174711 -0.02801523 0.0053126649 -0.029472096 0.18908444 0.98151845 0
-0.012572892 -0.027131541 0.0072243032 -0.62404299 0.36999106 0.68824202 0
-0.0078454548 -0.02606722 0.0088356677 -0.086446688 0.70407695 0.70484227 0
-0.0029763847 -0.025772309 0.0093689617 -0.070512198 0.67319942 0.73609138 0
0.001665532 -0.025321431 0.0096667716 -0.19492948 0.59026527 0.78331947 0
0.0071641081 -0.025047859 0.0099656433 -0.023015093 0.62365949 0.78135729 0
0.087493062 -0.027577521 0.0074647195 0.99450725 0.093866237 -0.046306454 0
-0.010962228 -0.024602333 0.0058835102 -0.19720761 0.9199903 0.33871374 0
-0.0073514092 -0.024444126 0.0063627837 -0.045650024 0.9398278 0.33858493 0
-0.0023491429 -0.024252474 0.0069263815 -0.078233764 0.93764061 0.33868781 0
0.0024563374 -0.023601314 0.0073881126 -0.16243228 0.91975951 0.35729295 0
0.0075513311 -0.023553638 0.0077388738 -0.023959728 0.90649581 0.42153436 0
0.012452633 -0.023342375 0.0077167572 -0.043938912 0.9166339 0.39730537 0
0.017568706 -0.02309794 0.0075984583 -0.039176557 0.94984835 0.31024727 0
0.022363327 -0.022891691 0.0075962096 -0.047746714 0.96676785 0.25115776 0
0.027601361 -0.022650043 0.0076218676 -0.050114851 0.96814221 0.24533467 0
0.032350101 -0.022362344 0.0075742514 -0.057098731 0.9719612 0.22810303 0
0.037530657 -0.022033865 0.0074624964 -0.049161237 0.98299181 0.17694709 0
0.042509578 -0.021789746 0.007476876 -0.063674815 0.98720694 0.14617825 0
0.04754708 -0.021451121 0.0074976194 -0.070588879 0.98667097 0.14662041 0
0.052409183 -0.021097846 0.0075687272 -0.059226621 0.99074221 0.1221563 0
0.057547756 -0.020779271 0.0074242856 -0.060274057 0.99394393 0.091883495 0
0.062568098 -0.020463945 0.0074981316 -0.065306172 0.99532282 0.071186133 0
0.067013152 -0.020174202 0.0076123807 -0.073366381 0.99505556 0.06694673 0
0.071202196 -0.020079447 0.0082279053 -0.07722301 0.99400771 0.077364258 0
0.083416834 -0.020842416 0.0073173493 0.52388668 0.85015887 -0.052657008 0
0.086081795 -0.023507416 0.0074151387 0.84408766 0.53297722 -0.058747582 0
0.069074295 -0.01992769 0.0075034439 -0.070817307 0.99741554 -0.012126848 0
0.072645865 -0.019711105 0.0073849894 -0.080332682 0.9967674 0.001164767 0
0.077541851 -0.019431064 0.0074925567 -0.0049684653 0.9999814 -0.003549753 0
0.080965698 -0.019733915 0.0073780422 0.24844918 0.96801347 -0.034971457 0
0.0030498807 -0.035467178 0.010364243 -0.054026045 -0.61573505 0.78609902 0
0.0074853813 -0.035554193 0.010461067 -0.022552384 -0.62892765 0.77713662 0
0.012281642 -0.03561664 0.01049637 -0.025142308 -0.65224254 0.75759321 0
0.017537385 -0.035708174 0.010659046 -0.041550178 -0.68507791 0.7272839 0
0.022456851 -0.035816375 0.010721969 -0.01166464 -0.69218713 0.72162384 0
0.027634861 -0.035779361 0.010848399 -0.02161262 -0.71363205 0.70018727 0
0.03250974 -0.035844479 0.010959068 -0.030318497 -0.71996474 0.69334799 0
0.037822183 -0.035928309 0.011088124 -0.032946534 -0.73730367 0.6747576 0
0.042760044 -0.036033288 0.011151653 -0.018645583 -0.76097369 0.64851469 0
0.047453023 -0.036077522 0.011190516 -0.019479414 -0.78892404 0.614182 0
0.052527636 -0.036061872 0.011302748 -0.020753676 -0.79004532 0.61269701 0
0.057622381 -0.036045913 0.011464592 -0.018296733 -0.78231692 0.62261182 0
0.062412344 -0.036127765 0.01148737 -0.013475013 -0.81822997 0.57473314 0
0.067642257 -0.036176637 0.011481361 -0.018576611 -0.85444742 0.51920563 0
0.072547644 -0.036192019 0.011607504 -0.011013107 -0.85609823 0.51669574 0
0.077597931 -0.036182243 0.011678 0.030886417 -0.86030543 0.50884241 0
0.08192943 -0.035702027 0.011243794 0.31559113 -0.85728759 0.40676805 0
-0.010750665 -0.031414907 0.010334053 -0.28362167 -0.22671337 0.93175095 0
-0.0072752037 -0.031837415 0.010635222 -0.12651356 -0.17797351 0.97586864 0
-0.0023246997 -0.032221451 0.010926438 0.0039596464 -0.25255093 0.96757555 0
0.002465863 -0.032511346 0.011367396 -0.13824731 -0.17275073 0.97521532 0
0.0073681455 -0.032702487 0.011606053 -0.041059449 -0.21127638 0.97656357 0
0.012637931 -0.032687306 0.011824507 -0.038118932 -0.21872355 0.97504199 0
0.01754545 -0.032567561 0.012163649 -0.10072333 -0.25774264 0.9609493 0
0.022485342 -0.032420751 0.012412135 0.0076962737 -0.26028362 0.96550155 0
0.027516801 -0.032599229 0.012507292 -0.044218745 -0.25526446 0.96585965 0
0.032427773 -0.032616775 0.012710042 -0.037424516 -0.26280153 0.96412385 0
0.037614997 -0.032562353 0.012947006 -0.034366708 -0.25654423 0.96592128 0
0.042399947 -0.0325578 0.01308964 -0.036294919 -0.26887435 0.96249121 0
0.047495395 -0.032457087 0.013282092 -0.028015772 -0.25005344 0.96782666 0
0.052592412 -0.032577459 0.013437631 -0.034735162 -0.26093045 0.96473253 0
0.057363983 -0.032565989 0.013579677 -0.021407738 -0.26840207 0.96306914 0
0.062405784 -0.03267955 0.013710807 -0.04406086 -0.28253976 0.95824319 0
0.067562878 -0.032661814 0.013954298 -0.046166334 -0.30598509 0.95091629 0
0.072494499 -0.032606173 0.01412117 -0.028005414 -0.2824463 0.95887423 0
0.07739041 -0.032571517 0.01428971 -0.020334926 -0.29184738 0.95624876 0
0.082614951 -0.032758929 0.013472604 0.34874764 -0.42517552 0.83522505 0
0.085850872 -0.031795911 0.011408867 0.82114697 -0.36909315 0.43530193 0
-0.010654459 -0.029021846 0.010415332 -0.13058731 0.18596023 0.97384065 0
-0.0071061873 -0.028578911 0.010511125 -0.078392923 0.21652913 0.97312361 0
-0.0024316933 -0.028139604 0.010861618 -0.050050475 0.33857307 0.93960798 0
0.0025536155 -0.027643107 0.011003329 -0.088678718 0.32567516 0.9413138 0
0.0075833821 -0.027400261 0.011122555 -0.035934724 0.35164225 0.93544447 0
0.012434149 -0.027482091 0.011407007 -0.062070321 0.33376068 0.94061202 0
0.017640743 -0.027388537 0.011907971 -0.12535329 0.36876428 0.92103177 0
0.022458712 -0.027355654 0.012135393 0.017649438 0.34714398 0.93764567 0
0.027611198 -0.027430652 0.012297482 -0.049795732 0.28719252 0.95657772 0
0.032529633 -0.027371829 0.012559422 -0.051789206 0.27805206 0.95916885 0
0.037580896 -0.027415026 0.012825376 -0.041687943 0.26907223 0.96221739 0
0.042519201 -0.027327754 0.013035318 -0.044052817 0.25316545 0.96641946 0
0.047405574 -0.027629953 0.013303085 -0.035873793 0.20990512 0.97706342 0
0.052504953 -0.027467698 0.013450071 -0.031765845 0.20085165 0.97910655 0
0.057430256 -0.027568016 0.013642616 -0.038035974 0.17720765 0.98343825 0
0.062475983 -0.027429648 0.013805126 -0.04379994 0.17265858 0.98400748 0
0.067358337 -0.027279085 0.01431819 -0.20096734 0.21626702 0.95542699 0
0.07253255 -0.027450342 0.014372482 0.080323346 0.16183175 0.98354393 0
0.077496737 -0.027449302 0.014458308 -0.045509659 0.14382863 0.98855561 0
0.082660072 -0.027389619 0.014222454 0.25153595 0.14886659 0.95633072 0
0.086385377 -0.027651761 0.011827006 0.8213973 0.07676091 0.56516737 0
0.013145983 -0.024877056 0.01014409 -0.05053826 0.65933663 0.7501474 0
0.017708907 -0.024585366 0.010315145 -0.068135433 0.64868021 0.75800502 0
0.022537341 -0.024323339 0.010500976 -0.04495614 0.67622942 0.73531818 0
0.027657436 -0.024242798 0.010705415 -0.042503998 0.66850471 0.74249238 0
0.03255631 -0.024133144 0.010936745 -0.068731919 0.67381573 0.73569578 0
0.03748887 -0.023881041 0.011052256 -0.054743804 0.66746092 0.74262977 0
0.042425994 -0.023661744 0.011219835 -0.058143806 0.66908085 0.74091166 0
0.047516774 -0.023481419 0.011429668 -0.06026319 0.66426653 0.74506265 0
0.052397046 -0.023283219 0.011573318 -0.058437139 0.64512241 0.7618413 0
0.05752242 -0.022960715 0.011701323 -0.062430706 0.64761406 0.75940663 0
0.062493734 -0.022740953 0.011931978 -0.075812705 0.634372 0.76930141 0
0.067433551 -0.022598442 0.012243494 -0.066380411 0.60746485 0.7915681 0
0.072460361 -0.022252662 0.012338966 -0.058085591 0.60808456 0.79174447 0
0.077489518 -0.022264222 0.012618552 -0.015064516 0.57397747 0.81873244 0
0.082669243 -0.022591388 0.01209757 0.3454603 0.61849403 0.70577788 0
0.085636631 -0.023961889 0.011004114 0.73382503 0.47840014 0.48232162 0
0.074479364 -0.019947583 0.01015127 -0.043897733 0.9216072 0.38563353 0
0.077031121 -0.019891711 0.010224989 0.011207462 0.88749647 0.46067816 0
0.08075206 -0.019963318 0.010052672 0.15419279 0.91840279 0.36436373 0
0.069089398 -0.028116198 0.015111997 -0.029286705 -0.0082176542 0.99953723 0
0.070152611 -0.0284488 0.015044881 0.27805233 -0.011632764 0.96049553 0
