# .PCD v0.7 - Point Cloud Data file format
VERSION 0.7
FIELDS x y z normal_x normal_y normal_z curvature
SIZE 4 4 4 4 4 4 4
TYPE F F F F F F F
COUNT 1 1 1 1 1 1 1
WIDTH 644
HEIGHT 1
VIEWPOINT 0 0 0 1 0 0 0
POINTS 644
DATA ascii
0.1139252 -0.13872276 -4.2890722e-05 -0.063440666 0.064897686 -0.99587327 0
0.12238944 -0.1066218 -3.0430649e-05 -0.072808325 -0.01432738 -0.99724305 0
0.12263775 -0.10236535 -0.0001202773 0.023800332 -0.042543709 -0.99881107 0
0.12317441 -0.097328588 -0.00024748989 0.051509399 -0.049471691 -0.99744642 0
0.12516147 -0.095177256 -4.241092e-05 0.53019589 -0.089768074 -0.84310979 0
0.12279256 -0.09246958 -0.00035177104 -0.062673278 0.00095294084 -0.99803364 0
0.12518834 -0.09145353 -0.00025353907 0.76099598 -0.018680368 -0.64848763 0
0.12301439 -0.088538833 -0.00021882025 -0.014298839 0.12812105 -0.99165547 0
0.12500829 -0.089275919 -7.6210148e-05 0.58834583 0.18148828 -0.78797925 0
-0.065796793 -0.073381558 -5.3261243e-05 0.018405983 0.012672639 -0.99975026 0
-0.064838931 -0.072486028 -2.4819208e-05 0.093406461 0.032336079 -0.99510282 0
0.089562543 -0.1560235 0.0047762874 -0.36093497 -0.18502274 -0.91405284 0
0.092844583 -0.15692995 0.0039052176 -0.37965328 -0.43966496 -0.81397671 0
0.097719125 -0.15719664 0.0031016241 -0.047440473 -0.96818632 -0.24569206 0
0.10223801 -0.15689027 0.0019605635 0.38306627 -0.88965768 0.24853468 0
0.10618371 -0.15588419 0.0009552202 0.54087019 -0.83507621 -0.10053477 0
0.089044437 -0.15172388 0.004729873 -0.35230613 -0.049740415 -0.93456209 0
0.092550851 -0.15273316 0.0034726535 -0.34351388 -0.032124758 -0.93859804 0
0.097865917 -0.15238616 0.0028589736 -0.18938978 -0.17604858 -0.96599096 0
0.10251472 -0.15258993 0.0019615318 0.33002034 -0.78098136 -0.53024024 0
0.10729116 -0.15266798 0.0014682964 0.4929392 -0.30530161 0.81474036 0
0.11068344 -0.15100177 0.00075266534 0.82704931 -0.38637576 0.40829313 0
0.089026868 -0.14862554 0.0047269594 -0.31848514 0.077039264 -0.94479215 0
0.092290744 -0.14750074 0.0037735086 -0.31246835 0.10699591 -0.94388312 0
0.097417235 -0.1477848 0.0023889143 -0.28119409 0.090655833 -0.95535928 0
0.10229377 -0.14747216 0.0027247996 0.53982395 -0.4106741 0.73480403 0
0.10703377 -0.14735313 0.0020050011 0.36304954 -0.1745548 0.91527361 0
0.11179382 -0.14735276 0.0010589026 0.69152141 -0.273157 0.66871768 0
0.089813612 -0.14456296 0.0049854144 -0.34711367 0.087302238 -0.93375075 0
0.092529379 -0.14238022 0.0043198075 -0.30732271 0.11551584 -0.94456804 0
0.097427353 -0.14239694 0.0027843034 -0.28933778 0.12679105 -0.94879276 0
0.10299655 -0.14254877 0.0025484953 -0.18709524 0.11039489 -0.97611898 0
0.10756707 -0.14238511 0.0019166881 0.95802742 -0.27497193 -0.081080094 0
0.11241312 -0.14221223 0.0015486336 0.56510717 -0.2601884 0.78291494 0
0.1151702 -0.14037761 0.00089394581 0.97003496 -0.21048422 0.12136106 0
0.093566976 -0.13796282 0.0045610722 -0.29129419 0.124248 -0.9485305 0
0.097393937 -0.13734423 0.0034595814 -0.2911801 0.11695918 -0.9494918 0
0.10276838 -0.13771397 0.0023746134 -0.262337 0.12443044 -0.95692027 0
0.10779856 -0.13751425 0.0022745535 0.74939561 -0.2609778 -0.60852015 0
0.112172 -0.13739122 0.0014266196 0.88346505 -0.081263565 -0.46139547 0
0.11584123 -0.13688339 0.0010995046 0.92131913 -0.28720412 0.26207778 0
0.094503425 -0.13345528 0.0048005078 -0.30351594 0.11790264 -0.94550365 0
0.097566493 -0.13230291 0.0040081074 -0.28432447 0.11245989 -0.9521094 0
0.10246447 -0.13241228 0.0025642158 -0.27786285 0.11105496 -0.9541797 0
0.1076751 -0.13260397 0.0027060597 0.2661415 -0.018364079 -0.96375901 0
0.1122091 -0.13257077 0.0019535122 0.8948617 -0.28787506 0.34110186 0
0.11669702 -0.13244146 0.0012043656 0.92577642 -0.36473957 0.099514425 0
0.097760342 -0.12791137 0.0044329455 -0.28949377 0.10285622 -0.95163757 0
0.10253429 -0.12765391 0.0030498337 -0.2805357 0.091672204 -0.95545584 0
0.1077437 -0.12743148 0.0026311181 -0.24573883 0.071941696 -0.9666627 0
0.11257413 -0.12750876 0.0022460665 0.95476156 -0.29591179 -0.029438373 0
0.11726654 -0.12750417 0.0012952953 0.86363322 -0.22609295 -0.45057711 0
0.098850228 -0.12267447 0.0046448526 -0.30033192 0.085510492 -0.94999409 0
0.10264236 -0.12254512 0.0035010453 -0.29007164 0.080446213 -0.95361781 0
0.10807417 -0.12254485 0.0027405568 -0.2802543 0.065804124 -0.95766765 0
0.11239917 -0.12232746 0.0027621177 0.72985721 -0.13100007 0.67093039 0
0.11741651 -0.12258787 0.0016197736 0.95911634 -0.23789835 0.15329769 0
0.12043823 -0.12203761 0.0010956798 0.93592691 -0.28407073 -0.20819344 0
0.099422581 -0.11833461 0.0048131328 -0.32244033 0.067661934 -0.94416851 0
0.10243201 -0.11754265 0.0039542308 -0.28934318 0.066942297 -0.95488179 0
0.10755756 -0.11784439 0.0025609548 -0.28047395 0.066900194 -0.9575274 0
0.11252246 -0.11770649 0.0027569295 0.83875656 0.022253653 -0.54405177 0
0.11771923 -0.11737933 0.0017382265 0.92476177 -0.15239213 -0.34870091 0
0.12115066 -0.11735845 0.0011274349 0.96115232 -0.18607612 -0.20386742 0
0.10282533 -0.11232009 0.0042239451 -0.28983685 0.06267859 -0.9550215 0
0.10768818 -0.11249102 0.0027598951 -0.28221881 0.053650033 -0.95784873 0
0.11256739 -0.11245678 0.0029920866 0.850335 -0.303491 -0.42991126 0
0.11762876 -0.11240868 0.0020254792 0.71537352 -0.070096716 0.69521749 0
0.1216253 -0.11249056 0.0011425086 0.98132175 -0.18868369 -0.037497699 0
0.1030883 -0.1073457 0.0044390252 -0.30072418 0.050138764 -0.95239228 0
0.10745439 -0.10745902 0.003068743 -0.29264885 0.040036991 -0.95538145 0
0.11306833 -0.10751162 0.002506882 -0.19497661 0.0029352747 -0.98080349 0
0.11746452 -0.10751018 0.0018577902 0.45287102 -0.1589952 -0.87728471 0
0.12216366 -0.1075637 0.0011781519 0.90354979 -0.090603359 0.41879445 0
0.10370085 -0.10286492 0.004459959 -0.29098451 0.047330838 -0.95555627 0
0.10767502 -0.10251604 0.0032123008 -0.30150968 0.04337937 -0.95247585 0
0.11280527 -0.10257994 0.0024766361 -0.27993613 0.040416468 -0.95916748 0
0.11752027 -0.10255269 0.0018072567 0.28402731 -0.09304332 -0.95429105 0
0.1224201 -0.10239051 0.0012344996 0.72713763 -0.063360445 0.6835615 0
0.10403128 -0.097896107 0.0045900415 -0.29324514 0.049727909 -0.95474309 0
0.10719548 -0.097509727 0.0035570792 -0.32768229 0.021271333 -0.94454849 0
0.11307027 -0.097369887 0.0028277277 -0.30791554 0.0051473556 -0.9513998 0
0.11764822 -0.097426131 0.0019619253 0.94647509 -0.18969508 -0.26115265 0
0.1220948 -0.097439967 0.0015678745 0.41672647 0.011769825 0.90895575 0
0.12509754 -0.096890144 0.00053265085 0.97631383 -0.10551957 0.18888347 0
0.10423709 -0.092519917 0.0047255335 -0.33605716 0.028838951 -0.94139993 0
0.1078506 -0.092381999 0.0034852677 -0.31805587 0.037270296 -0.94733912 0
0.11296536 -0.092503741 0.0027006215 -0.33266145 0.013168246 -0.94295436 0
0.11757753 -0.092404835 0.0020632145 0.96309328 0.12469117 0.23854457 0
0.12227769 -0.092523307 0.0014890204 0.37464842 0.020823812 0.92693311 0
0.12526888 -0.092730999 0.00045932582 0.89578629 -0.050613724 0.44159397 0
0.10462109 -0.087642692 0.0047953906 -0.33665568 0.049447231 -0.9403286 0
0.10739173 -0.087811954 0.0038134973 -0.32980067 0.043415718 -0.94305164 0
0.11268997 -0.087452732 0.0026557983 -0.28163701 0.083934367 -0.95584285 0
0.11739928 -0.08750762 0.0022024871 0.80111164 0.52107501 -0.29445028 0
0.1222944 -0.087060429 0.0012024771 0.63622224 0.17507422 0.75137895 0
0.12511201 -0.089965701 0.00066709559 0.64202124 0.13692632 0.75436062 0
-0.076715313 -0.080432855 0.0043865931 -0.29203469 -0.73879248 -0.60737246 0
-0.072228156 -0.081342779 0.003612014 -0.25757122 -0.67613131 -0.6902923 0
-0.067497544 -0.081842266 0.0032378756 0.20684968 -0.69164866 -0.69197929 0
-0.062465757 -0.081460789 0.0038642923 -0.10169752 -0.56503356 -0.81877637 0
-0.057541884 -0.082116917 0.0038662686 -0.050404441 -0.55182397 -0.83243603 0
-0.052643582 -0.082215793 0.00386826 0.027817583 -0.38886607 -0.9208743 0
-0.047133248 -0.082459711 0.0042404337 0.11520942 -0.19808951 -0.97338957 0
-0.043733876 -0.082195856 0.0047353683 0.18089575 -0.045479421 -0.98245025 0
0.10467708 -0.084961824 0.0049039926 -0.31728247 0.083370991 -0.94465929 0
0.10766046 -0.082571939 0.0041946098 -0.3071678 0.17262514 -0.93586773 0
0.11286715 -0.082331322 0.0032861277 -0.22533788 0.26085716 -0.93870991 0
0.1175124 -0.082284622 0.0025269901 0.67145288 0.72915602 0.13222131 0
0.12133113 -0.083325729 0.0013505192 0.80354583 0.59512472 0.011859092 0
-0.09195938 -0.075514056 0.0045806845 -0.21942733 -0.71460897 -0.66421813 0
-0.087137431 -0.076253779 0.0038316876 -0.21863146 -0.64761406 -0.72992891 0
-0.082248896 -0.077002645 0.003133317 -0.21410519 -0.59696728 -0.77316821 0
-0.077524573 -0.07768821 0.0024759255 -0.19451447 -0.52251971 -0.83014286 0
-0.072684862 -0.077344269 0.0013181483 -0.14807071 -0.36366358 -0.91968679 0
-0.067223787 -0.077548444 0.00073413347 0.074294411 -0.30212364 -0.95036918 0
-0.062508583 -0.07735762 0.002990172 0.5291124 -0.48484358 -0.69639558 0
-0.05736804 -0.077504143 0.0035519036 0.034008231 -0.99927217 -0.0172807 0
-0.053096622 -0.077501222 0.0033432085 0.1261487 -0.061377574 -0.99011075 0
-0.047599338 -0.077523373 0.0038180305 0.18632944 -0.024037261 -0.98219323 0
-0.043178488 -0.077328019 0.0046911174 0.1970735 -0.048587594 -0.97918397 0
0.10916281 -0.078737766 0.004622133 -0.2906166 0.26279467 -0.92004395 0
0.11264398 -0.078426532 0.0040833247 -0.073576473 0.72750461 -0.68214631 0
0.11648586 -0.079194628 0.0031482044 0.3995994 0.916646 -0.0089714229 0
-0.11091204 -0.070145935 0.0047153016 -0.14226803 -0.62642878 -0.7663855 0
-0.10708497 -0.070899867 0.0044284253 -0.17292923 -0.59548783 -0.78453147 0
-0.10255376 -0.071334876 0.0038118102 -0.17028219 -0.55443954 -0.81461692 0
-0.097290032 -0.072150186 0.0033630945 -0.13730706 -0.50906646 -0.84970462 0
-0.092606016 -0.072604015 0.0031189404 -0.060859781 -0.27529714 -0.95943093 0
-0.087510593 -0.0723667 0.002759804 -0.096783616 -0.028229114 -0.99490499 0
-0.08261957 -0.072251819 0.002009721 -0.20529675 0.061195865 -0.97678471 0
-0.077587537 -0.072645269 0.00080180273 -0.19193432 -0.056676406 -0.97976983 0
-0.072356053 -0.072446071 0.00024251589 -0.049952157 -0.040161375 -0.99794376 0
-0.06811846 -0.072125874 0.00011463908 -0.027561823 0.041053839 -0.99877673 0
-0.062176596 -0.072651431 0.0024240005 0.69462347 -0.019549053 -0.71910781 0
-0.05747015 -0.072861865 0.0036017294 0.44416609 0.53154415 0.72123319 0
-0.052810453 -0.072616108 0.0035392358 0.18641138 0.25193188 -0.94962162 0
-0.047929108 -0.072897792 0.0040625893 0.20882566 0.27839887 -0.93748909 0
-0.043966122 -0.074021712 0.0046085608 0.21837153 0.2354773 -0.94702923 0
-0.12673761 -0.065620288 0.0046209223 -0.13225837 -0.39276803 -0.91007751 0
-0.12233813 -0.066334873 0.0043123085 -0.12385724 -0.42652416 -0.89595568 0
-0.11719517 -0.067033082 0.0039431113 -0.13194919 -0.43927798 -0.8886081 0
-0.11261422 -0.067349061 0.0034167813 -0.14242649 -0.40378773 -0.90369803 0
-0.10733346 -0.067600377 0.0027505958 -0.13214159 -0.3462013 -0.92880744 0
-0.10264009 -0.067636721 0.0021485654 -0.11138848 -0.28706247 -0.95141357 0
-0.097548708 -0.067495182 0.0021312453 0.14940472 -0.085628785 -0.98506141 0
-0.092691697 -0.067678735 0.0028026935 0.076958157 0.0011831906 -0.99703366 0
-0.087557957 -0.06757044 0.0028448626 -0.057198655 0.049061265 -0.99715656 0
-0.082274564 -0.067343839 0.0022983386 -0.19208845 0.064292297 -0.97926939 0
-0.077377327 -0.06719546 0.0011365231 -0.20530543 0.14571111 -0.96779025 0
-0.072157502 -0.06737648 0.00084956666 0.04066414 0.27880055 -0.95948768 0
-0.067529716 -0.06756454 0.00097065145 0.026400965 0.32774752 -0.94439638 0
-0.06233428 -0.06744381 0.0025648379 0.44620642 0.33495516 -0.8298825 0
-0.057725675 -0.068437397 0.0037558605 0.20459004 0.49145707 -0.84652984 0
-0.053071421 -0.069230586 0.0044158176 0.24627213 0.55376518 -0.79542077 0
-0.14085345 -0.060311157 0.0049081021 -0.15272386 -0.25504905 -0.95479071 0
-0.13684201 -0.061384115 0.0045893174 -0.15650709 -0.28258017 -0.94638991 0
-0.13254225 -0.06233393 0.0042803902 -0.13726865 -0.28980386 -0.94719118 0
-0.12739339 -0.062398337 0.0036550181 -0.11793452 -0.24619728 -0.96201789 0
-0.12268265 -0.062358823 0.0031104065 -0.10014226 -0.19824773 -0.97502273 0
-0.11742235 -0.06287466 0.0026921043 -0.10139586 -0.16794142 -0.98056841 0
-0.11240183 -0.06236016 0.0021766969 -0.075556338 -0.07530351 -0.99429405 0
-0.10759637 -0.062679119 0.0018575599 -0.066507652 -0.027354117 -0.99741083 0
-0.10261784 -0.062661327 0.0016253145 -0.02816746 0.07828249 -0.99653322 0
-0.09724699 -0.062514395 0.0019979379 0.18524607 0.023297848 -0.98241591 0
-0.092515118 -0.062705718 0.0027870357 0.114158 -0.010533495 -0.99340677 0
-0.087684289 -0.062400647 0.0030626245 -0.0029865627 0.054075807 -0.99853235 0
-0.082603022 -0.062302813 0.0028765616 -0.063455373 0.26215917 -0.9629361 0
-0.077505246 -0.062356219 0.0029524865 0.072522521 0.56157464 -0.82424176 0
-0.072673492 -0.062718645 0.0032177025 0.1226518 0.63969773 -0.7587775 0
-0.067420855 -0.063409455 0.0033358687 0.093268499 0.67227876 -0.73439932 0
-0.063019961 -0.063926488 0.0036490541 0.45936799 0.58662093 -0.66697598 0
-0.14604385 -0.05611974 0.0048127514 -0.13294616 -0.1398989 -0.98120004 0
-0.14220116 -0.057446033 0.0044988324 -0.13961074 -0.16404533 -0.9765234 0
-0.13755126 -0.057682574 0.0039582443 -0.10988145 -0.12440443 -0.98612863 0
-0.13267438 -0.057603158 0.003462103 -0.089177683 -0.072108753 -0.99340206 0
-0.12774223 -0.057774793 0.0030575977 -0.070094325 -0.020685133 -0.9973259 0
-0.12249117 -0.057669632 0.00274842 -0.050454613 0.042712655 -0.99781257 0
-0.1175194 -0.057504069 0.0025621152 -0.01927161 0.12578404 -0.9918704 0
-0.11232039 -0.057442755 0.0025331278 0.0040644878 0.21718502 -0.97612196 0
-0.10764135 -0.057629433 0.0025690845 0.026167441 0.29299286 -0.95575649 0
-0.10241835 -0.057362493 0.003042782 0.089568585 0.43403089 -0.89643437 0
-0.097528301 -0.057822809 0.0032743325 0.10784308 0.52274036 -0.84564316 0
-0.092357308 -0.058285378 0.0037454979 0.14517054 0.58456141 -0.79825652 0
-0.08759515 -0.05893784 0.0039967918 0.13693529 0.63556933 -0.75980282 0
-0.083299555 -0.059337895 0.0044068038 0.16515885 0.71651787 -0.67773503 0
-0.078646742 -0.059845205 0.004877375 0.092229977 0.79426956 -0.60052431 0
-0.14732169 -0.052311812 0.004743936 -0.11574959 -0.0024388174 -0.9932754 0
-0.14254798 -0.052220844 0.0042497362 -0.084199615 0.046368435 -0.99536949 0
-0.13779797 -0.052659769 0.003861367 -0.064074606 0.07761725 -0.99492216 0
-0.1322654 -0.052260421 0.0036394964 -0.030191034 0.14182927 -0.98943061 0
-0.12758547 -0.05249228 0.0035199141 -0.012462816 0.19298558 -0.98112249 0
-0.12215047 -0.052757759 0.0034778167 0.024536062 0.26066446 -0.96511763 0
-0.11777551 -0.052403599 0.0038528277 0.084629267 0.36870539 -0.92568582 0
-0.11305211 -0.053223763 0.0039083799 0.099384487 0.44550261 -0.88974726 0
-0.10753874 -0.05366968 0.0043722596 0.14251544 0.55918121 -0.81670415 0
-0.10335387 -0.054538753 0.0045334655 0.18174215 0.5863449 -0.78941077 0
-0.14668711 -0.048891712 0.0048519028 -0.088280119 0.11731073 -0.98916376 0
-0.14248273 -0.048384253 0.0046548271 -0.046585649 0.18050078 -0.98247093 0
-0.13743293 -0.048168253 0.004543927 -0.016724171 0.25628924 -0.9664554 0
-0.13266607 -0.048542008 0.0044513647 0.027521508 0.30005437 -0.95352501 0
-0.12786898 -0.048780512 0.0044940892 0.027304962 0.33773103 -0.94084656 0
-0.123047 -0.04915832 0.0047027445 0.10310793 0.40929437 -0.90655774 0
-0.11881143 -0.049783885 0.0049015484 0.17002074 0.49147937 -0.8541317 0
0.083363816 -0.1554569 0.0084267389 -0.21881562 -0.97388244 0.060603827 0
0.087460987 -0.15621291 0.0070965602 -0.095381021 -0.89586926 0.43395928 0
0.092424877 -0.15687905 0.0059263976 0.24305466 -0.40170437 0.88292581 0
0.095593728 -0.15598914 0.0051158615 0.3296482 -0.080437832 0.94067097 0
0.078215294 -0.15202452 0.0091415551 -0.3915683 -0.20204474 -0.89769274 0
0.082936868 -0.1527157 0.007978308 -0.4225626 -0.22046991 -0.87910974 0
0.087333508 -0.15256371 0.0072276825 0.16990781 -0.45180374 0.87578809 0
0.092515133 -0.15230875 0.0067235692 0.32636309 -0.14248121 0.93444437 0
0.09641844 -0.15207177 0.0054390156 0.30151182 -0.12481429 0.9452576 0
0.074899934 -0.14602546 0.0099156806 -0.39536628 -0.055540711 -0.91684276 0
0.077557027 -0.14722128 0.0090061231 -0.35426712 -0.0082697123 -0.93510771 0
0.082718976 -0.14755294 0.0075221923 -0.34667268 0.035722136 -0.93730569 0
0.087188318 -0.1473878 0.0075977631 0.19528213 -0.19362241 0.96144438 0
0.092425875 -0.14747806 0.0074092103 0.3212291 -0.12014709 0.93934906 0
0.097628295 -0.14743865 0.0056876265 0.30381957 -0.10754968 0.94663972 0
0.10018113 -0.14577281 0.0050824177 0.31973186 -0.079857215 0.94413686 0
0.074948646 -0.144794 0.0099257017 -0.30950537 0.096376181 -0.94600111 0
0.077650525 -0.142913 0.0092005804 -0.31932876 0.085342154 -0.9437933 0
0.082438618 -0.14260654 0.007633362 -0.31914189 0.10164119 -0.94224077 0
0.08757548 -0.14251275 0.0077167698 -0.077399105 -0.50851458 -0.85756767 0
0.092457481 -0.14229675 0.0075700483 0.31170976 -0.12109926 0.94242871 0
0.097603448 -0.14244899 0.0063280235 0.28945029 -0.11350452 0.95043951 0
0.10112143 -0.14208126 0.005315586 0.29208764 -0.11834805 0.94904089 0
0.078407079 -0.13737468 0.0095077306 -0.3142224 0.10825805 -0.94315666 0
0.082606308 -0.13760209 0.008130894 -0.3150636 0.10583019 -0.94315159 0
0.088028572 -0.13758093 0.0074455445 -0.27583736 0.1252853 -0.95300436 0
0.092215754 -0.13756116 0.00786235 0.29305214 -0.11265366 0.94943643 0
0.097615056 -0.13756202 0.0069088186 0.28737 -0.11333702 0.95109057 0
0.10195889 -0.13752176 0.0055899196 0.27828628 -0.094564863 0.95583171 0
0.079275705 -0.13309637 0.0097408798 -0.31788984 0.10179424 -0.94264728 0
0.082235977 -0.13230163 0.0088544935 -0.30368546 0.11253437 -0.9461031 0
0.087561496 -0.13271289 0.0074147577 -0.29889122 0.10374279 -0.94863135 0
0.09245047 -0.1324065 0.0075784069 0.33515364 -0.058808055 0.94032639 0
0.09780892 -0.13255173 0.0074355714 0.28754029 -0.11565696 0.95075971 0
0.10236596 -0.13241172 0.0060478589 0.29787236 -0.11254741 0.9479478 0
0.1056816 -0.13177609 0.0051684845 0.25321573 -0.10497684 0.96169728 0
0.082629971 -0.12761369 0.0092431791 -0.30503419 0.093441986 -0.9477461 0
0.087330826 -0.12747684 0.0077548111 -0.29763457 0.10502835 -0.94888496 0
0.092758805 -0.12773575 0.0074441172 -0.36108762 0.096610881 -0.92751396 0
0.097111002 -0.12718831 0.0076851049 0.28477028 -0.11440663 0.9517442 0
0.10251946 -0.12747328 0.0065494734 0.26857504 -0.10790789 0.95719546 0
0.10647424 -0.12714322 0.0054385411 0.28193876 -0.10011567 0.95419466 0
0.083420187 -0.12277628 0.009462514 -0.29763332 0.079360932 -0.95137596 0
0.08756502 -0.12249075 0.0081674624 -0.30161726 0.085580513 -0.94958043 0
0.093011796 -0.12246217 0.0076497663 -0.2974388 0.085378423 -0.95091569 0
0.097161718 -0.1225783 0.0072942842 0.26508027 -0.046676014 0.96309596 0
0.1025688 -0.1224351 0.0069732764 0.29335552 -0.063665994 0.95388108 0
0.10710041 -0.12241232 0.0056303721 0.28602678 -0.082846686 0.95463347 0
0.083779544 -0.11791044 0.0097560547 -0.30864012 0.072271846 -0.94842929 0
0.087688826 -0.11740402 0.0085802143 -0.30033121 0.081036329 -0.9503864 0
0.09315823 -0.117536 0.0075665973 -0.28202266 0.074345499 -0.95652288 0
0.097159348 -0.11727065 0.0073278449 -0.065283097 -0.15913659 0.98509574 0
0.1022638 -0.11740012 0.0074047479 0.28920415 -0.058527354 0.95547658 0
0.107511 -0.11746917 0.0058339089 0.2921176 -0.053446472 0.95488787 0
0.11033986 -0.11631399 0.0050718142 0.28817168 -0.079190195 0.95429873 0
0.084561378 -0.11390988 0.009894914 -0.34776244 0.10036039 -0.93219578 0
0.087432005 -0.11258405 0.0090959352 -0.29942694 0.08400891 -0.95041358 0
0.092691161 -0.11216328 0.0075264657 -0.31855243 0.071070813 -0.94523716 0
0.097512133 -0.1125572 0.0074587702 -0.38716343 0.093978442 -0.91720915 0
0.10225924 -0.11232337 0.0075243199 0.30569845 -0.083137333 0.94849181 0
0.10744816 -0.11252324 0.0061756424 0.27820972 -0.077274032 0.957407 0
0.11056753 -0.11253092 0.0052152425 0.34274387 -0.036369208 0.93872464 0
0.088024199 -0.10764526 0.00929082 -0.30502436 0.068478011 -0.94987941 0
0.092423573 -0.10728037 0.0078709191 -0.30383885 0.066314101 -0.95041269 0
0.097789377 -0.10746223 0.0077339993 -0.31948322 0.19851366 -0.92656499 0
0.1021411 -0.10750192 0.0074840067 0.28792605 -0.069030553 0.95516145 0
0.10781382 -0.10745922 0.0063489806 0.3025535 -0.034548465 0.95250607 0
0.11122942 -0.10758416 0.0052857725 0.28903916 -0.071193554 0.95466632 0
0.088692755 -0.10254573 0.0094490685 -0.31837925 0.076936305 -0.9448362 0
0.092542373 -0.10250632 0.0081744511 -0.30845061 0.063159391 -0.94914126 0
0.097880684 -0.10270833 0.007724097 -0.29444903 0.10196301 -0.95021224 0
0.10207898 -0.10228242 0.0072545721 0.29981133 -0.007564934 0.95396847 0
0.10759382 -0.10248315 0.0065648048 0.30031547 -0.028529866 0.95341319 0
0.11124182 -0.10247494 0.0053915079 0.29913631 0.0075066127 0.95418084 0
0.089019783 -0.097721532 0.0096556423 -0.33131105 0.056128357 -0.94185066 0
0.092573345 -0.097587883 0.0084590875 -0.31057402 0.065404192 -0.94829643 0
0.097843297 -0.097543783 0.0074366131 -0.3110657 0.05976316 -0.94850749 0
0.10205002 -0.097399577 0.00719018 0.25504041 -0.06745825 0.96457446 0
0.10743193 -0.097506277 0.0067733191 0.32532963 -0.047180708 0.94442296 0
0.11138725 -0.097137593 0.0054532466 0.31724846 -0.036306471 0.94764721 0
0.08961115 -0.092794858 0.0098007387 -0.31153741 0.041418318 -0.94933087 0
0.09270563 -0.092424087 0.0087442314 -0.32742774 0.057756335 -0.94310933 0
0.097966015 -0.09277644 0.0078783594 -0.35743651 0.027420558 -0.9335348 0
0.10231885 -0.092328779 0.0074082832 0.31134242 -0.011775436 0.95022482 0
0.10759684 -0.092685461 0.0069258399 0.32159439 -0.048334915 0.94564307 0
0.11143821 -0.092332445 0.0056067538 0.32932562 0.00086590945 0.94421601 0
-0.068401821 -0.085016213 0.0076666852 -0.30326355 -0.94981724 -0.076671049 0
-0.056975983 -0.085428484 0.0083243297 -0.21200266 -0.9707588 -0.11261532 0
-0.052315552 -0.086033292 0.007643152 -0.13711417 -0.92533851 -0.35348034 0
-0.047271211 -0.086514801 0.0078111016 -0.1112077 -0.89257121 -0.43697771 0
-0.042487878 -0.086627372 0.0079173818 -0.073373742 -0.79531026 -0.60174572 0
-0.037339736 -0.086934038 0.007981536 -0.0016423551 -0.70967299 -0.70452935 0
-0.032676242 -0.087249257 0.0083102798 0.036063496 -0.54006088 -0.84085292 0
-0.027471092 -0.08738713 0.0088408077 0.20365386 -0.16977082 -0.96421105 0
-0.023647072 -0.087690614 0.0096171182 0.25881726 -0.0050462694 -0.96591318 0
0.089828633 -0.087847315 0.0099927653 -0.26655689 0.098733857 -0.9587487 0
0.092744894 -0.087558314 0.0090257507 -0.32297444 0.058906361 -0.94457269 0
0.098057918 -0.087265693 0.0076780878 -0.32838804 0.061872385 -0.94251418 0
0.10221646 -0.087565407 0.0074382322 0.29697984 0.086857468 0.95092523 0
0.10756253 -0.087422423 0.0070355069 0.3375802 0.0046983133 0.94128501 0
0.11170784 -0.08732003 0.0055723847 0.31631878 -0.012329446 0.94857281 0
-0.081407085 -0.080374628 0.0080467481 -0.30491611 -0.94480896 -0.11984219 0
-0.077529438 -0.081492633 0.0073969937 -0.32082635 -0.92473841 -0.20476659 0
-0.072524108 -0.083264418 0.0073143328 -0.34256712 -0.92339963 -0.17315003 0
-0.06717442 -0.083582208 0.0076671317 0.42316964 -0.9029752 -0.07458768 0
-0.062430732 -0.082881555 0.0075722393 0.18726094 -0.87888068 0.43875077 0
-0.057765171 -0.082714275 0.0067152595 0.13065483 0.75194585 0.64614767 0
-0.052368619 -0.083063774 0.0067739291 0.057972781 0.7091133 0.70270723 0
-0.047756813 -0.083208449 0.0070408541 -0.03854157 0.57973266 0.81389469 0
-0.0420532 -0.08257892 0.0066321576 -0.16399649 0.20584141 0.96474582 0
-0.037592456 -0.082307138 0.0072523109 0.15653315 -0.0039347806 -0.98766482 0
-0.032893613 -0.082705341 0.0083061885 0.24331534 -0.13552186 -0.96043295 0
-0.027429048 -0.082579784 0.0086936699 0.22989188 -0.10842448 -0.9671576 0
-0.022961946 -0.08219672 0.0096059646 0.21397869 -0.10588557 -0.97108257 0
0.092695877 -0.082326248 0.0093720546 -0.32686594 0.087129116 -0.94104582 0
0.097422749 -0.08269003 0.0077894782 -0.32868159 0.11123946 -0.93786681 0
0.10235983 -0.082447946 0.0075254878 0.017784551 0.98426759 -0.1757869 0
0.10713027 -0.082302637 0.0069865114 0.35232213 -0.00312692 0.93587363 0
0.11164624 -0.082649007 0.0056456313 0.35191035 -0.021079883 0.93579626 0
-0.10102886 -0.075274691 0.0089433258 -0.21131033 -0.97114199 -0.11059444 0
-0.097414069 -0.075723633 0.0076431516 -0.23373777 -0.93309516 -0.27331313 0
-0.092492856 -0.076853864 0.0073606744 -0.256024 -0.92556036 -0.27890801 0
-0.087552667 -0.078302644 0.0074382164 -0.27530363 -0.92569655 -0.25941071 0
-0.083180867 -0.079431579 0.0067396904 -0.28128338 -0.90446329 -0.32066464 0
-0.079997219 -0.079793423 0.0050217533 -0.28756171 -0.81808943 -0.49803415 0
-0.065449744 -0.078285679 0.0083503835 0.9728573 -0.16179442 0.16544278 0
-0.064032264 -0.077612601 0.00636851 0.81719029 -0.055384826 0.57370085 0
-0.057856567 -0.079835869 0.0050409343 -0.00016018523 0.39059561 0.92056239 0
-0.051900368 -0.077870026 0.0053357864 -0.14657931 0.040047482 0.98838794 0
-0.047403764 -0.077458821 0.0060788882 -0.21125077 0.04403875 0.9764393 0
-0.042149462 -0.077690363 0.0065282136 -0.19055177 0.068814494 0.97926223 0
-0.03750385 -0.077488892 0.0071524293 -0.53202397 -0.82859051 -0.17432247 0
-0.03241336 -0.077771224 0.0083362628 0.27762106 0.71892571 -0.63723809 0
-0.027708247 -0.078003027 0.0086174421 0.3364552 0.38436514 -0.85968679 0
-0.023552123 -0.079119541 0.0094029009 0.31991017 0.34191057 -0.88360322 0
0.093961984 -0.078714594 0.0096345218 -0.29561001 0.25278336 -0.92125744 0
0.097627513 -0.077423543 0.0087482985 -0.30109489 0.25761122 -0.91813844 0
0.10256062 -0.077433072 0.008042098 0.00061764236 0.89794457 -0.44010803 0
0.1069599 -0.077713951 0.0068450808 0.42016345 0.67619425 0.60516447 0
0.11152965 -0.078254208 0.0055812867 0.39764231 0.37687993 0.83656567 0
-0.1306663 -0.070131607 0.0095773963 -0.18913366 -0.87830526 -0.43909946 0
-0.12714878 -0.070485279 0.009027685 -0.13097733 -0.89715332 -0.42185408 0
-0.12230043 -0.070894368 0.0082868719 -0.15628274 -0.86089569 -0.48418415 0
-0.11751612 -0.071466915 0.0079692602 -0.15161689 -0.86549139 -0.47742754 0
-0.11259074 -0.072140574 0.0075613623 -0.17301627 -0.86536199 -0.47033387 0
-0.10766174 -0.073142722 0.0075104302 -0.18752824 -0.89074951 -0.41400304 0
-0.10276958 -0.074211456 0.0071971561 -0.20893925 -0.88429672 -0.41756892 0
-0.097934067 -0.074569799 0.0055366927 -0.21383323 -0.73022163 -0.64888501 0
-0.063290499 -0.072404496 0.0076056113 0.95036882 -0.22029388 0.21970348 0
-0.056965381 -0.070677422 0.0053310762 -0.19150169 -0.43326536 0.88068622 0
-0.052088317 -0.072117753 0.0059406105 -0.2230369 -0.40522051 0.88659513 0
-0.047530327 -0.072053455 0.0069442554 -0.31978416 -0.6259467 0.7112866 0
-0.042413846 -0.072215535 0.007595188 0.32678407 0.77452081 -0.54159915 0
-0.03789939 -0.073251866 0.0081735114 0.36366642 0.76325107 -0.53403616 0
-0.033789683 -0.074231893 0.0086974921 0.34776109 0.80771267 -0.47609088 0
0.098875612 -0.074599661 0.009551432 0.057722706 0.89185083 -0.4486315 0
0.10090525 -0.074897498 0.0090436386 0.025508059 0.90952802 -0.41485921 0
-0.1468692 -0.065600179 0.0095938705 -0.25558963 -0.75526321 -0.60353249 0
-0.14225115 -0.066196784 0.0085170688 -0.24413362 -0.71090227 -0.659558 0
-0.137411 -0.067145154 0.0079701478 -0.20843394 -0.69561547 -0.68751317 0
-0.13248016 -0.067423165 0.0070118499 -0.17965686 -0.63858539 -0.74828607 0
-0.12794881 -0.068025663 0.0064194305 -0.15489087 -0.62658137 -0.76380932 0
-0.12288896 -0.068782672 0.0059713381 -0.14990284 -0.63760877 -0.75563496 0
-0.11816447 -0.069460139 0.0055830623 -0.15291214 -0.63765794 -0.75499022 0
-0.11405716 -0.069851495 0.0050390796 -0.16664155 -0.55480611 -0.8151201 0
-0.061809074 -0.068133704 0.0076456093 0.56587934 -0.73056817 0.38216579 0
-0.057296325 -0.067296155 0.0072846641 -0.02034728 -0.38502386 0.92268223 0
-0.05289498 -0.067895509 0.0078600515 0.27283692 0.9402793 -0.20355564 0
-0.047785457 -0.068750426 0.0077238921 0.32755953 0.87586915 -0.35434154 0
-0.044148393 -0.069667064 0.0093110502 0.37815788 0.92230374 -0.079702169 0
-0.15679216 -0.060978591 0.0093261832 -0.31390205 -0.59308094 -0.74143142 0
-0.15192056 -0.062263764 0.0085738432 -0.27501351 -0.57589984 -0.76987469 0
-0.14751343 -0.062522687 0.007392915 -0.23717877 -0.49762961 -0.8343327 0
-0.1428436 -0.062643647 0.0062383302 -0.19504029 -0.43074736 -0.88114476 0
-0.13816376 -0.06334722 0.0055681141 -0.17586792 -0.4043982 -0.89751464 0
-0.13350162 -0.064461648 0.0051920633 -0.12739348 -0.37034798 -0.92011589 0
-0.07561183 -0.060195956 0.00529616 0.18390217 0.81514376 -0.54929101 0
-0.071757071 -0.060402866 0.0070263855 0.20102586 0.94989711 -0.23934089 0
-0.067439623 -0.061139215 0.0073962822 0.15225123 0.97562826 -0.15801603 0
-0.062208928 -0.062928244 0.0075926399 0.5844487 0.8083387 -0.070769735 0
-0.059069343 -0.064678878 0.0083342902 0.30907208 0.9509933 -0.0092805075 0
-0.16619349 -0.055478569 0.0096529126 -0.37994376 -0.43890908 -0.8142491 0
-0.16229144 -0.056916542 0.0089115528 -0.32460442 -0.43382752 -0.84049129 0
-0.15761241 -0.057600271 0.007726619 -0.25962222 -0.38027456 -0.88768667 0
-0.15247108 -0.057640232 0.0064031142 -0.20836861 -0.30799428 -0.92828977 0
-0.14781816 -0.057861622 0.0055017383 -0.18506837 -0.25492707 -0.94908476 0
-0.1442668 -0.059409786 0.005246216 -0.16219249 -0.27294302 -0.94825929 0
-0.09657111 -0.055393368 0.0054784291 0.20263822 0.77355134 -0.60046315 0
-0.092039473 -0.055790365 0.0067799799 0.22172704 0.84600765 -0.4848797 0
-0.087503739 -0.056692552 0.0075334911 0.23922995 0.92360735 -0.29953033 0
-0.082320698 -0.057972405 0.0073902132 0.22885536 0.9347949 -0.27163157 0
-0.077498123 -0.058962245 0.00768273 0.214406 0.95558405 -0.20221074 0
-0.073723666 -0.059696291 0.008054655 0.23596875 0.96203613 -0.13713215 0
-0.17052975 -0.050967582 0.0096492786 -0.40529543 -0.31384578 -0.8586247 0
-0.16699955 -0.05224295 0.0090130884 -0.23760635 -0.0082740681 -0.97132629 0
-0.16219449 -0.052511815 0.0081550162 -0.22334254 0.53050274 -0.81773156 0
-0.15772069 -0.051957991 0.0067137601 -0.36439174 0.17528389 -0.91460061 0
-0.15270406 -0.052757084 0.0054789856 -0.14207652 -0.081082031 -0.98652929 0
-0.14947774 -0.053448394 0.0050712344 -0.15634196 -0.067989945 -0.98536015 0
-0.11566015 -0.05015396 0.0052359593 0.11992631 0.54356569 -0.83075511 0
-0.11239592 -0.050664619 0.0055920738 0.18071662 0.6252929 -0.75917733 0
-0.10706302 -0.051259432 0.0068372698 0.25255278 0.76803368 -0.58850771 0
-0.10279509 -0.052441981 0.0072196079 0.26683813 0.82618511 -0.49620116 0
-0.097654648 -0.053768914 0.0077247988 0.27285248 0.88331449 -0.38119161 0
-0.093610615 -0.054601569 0.008451852 0.25197464 0.94197702 -0.22178395 0
-0.17188559 -0.04732481 0.009629027 -0.15441126 -0.026198607 -0.98765928 0
-0.16926786 -0.049357738 0.0094367322 0.31648216 0.53606313 -0.78260809 0
-0.15711561 -0.047783818 0.007507001 -0.89278489 0.018379165 -0.4501082 0
-0.15283239 -0.047350526 0.0056389347 -0.092717528 0.12851787 -0.98736352 0
-0.14783008 -0.046631679 0.005338565 -0.062814601 0.20534068 -0.97667265 0
-0.14251092 -0.045868408 0.0052682511 -0.0084742215 0.29625848 -0.9550702 0
-0.13795395 -0.045734625 0.0052896966 0.0091691464 0.34643921 -0.93802756 0
-0.13199404 -0.045944646 0.0054841018 0.067518771 0.43291867 -0.89890075 0
-0.12711348 -0.046142869 0.0058753942 0.10956571 0.52511382 -0.84394962 0
-0.1222124 -0.046669651 0.0064971382 0.17382964 0.63476026 -0.75290281 0
-0.11738174 -0.047597397 0.0071056653 0.24847171 0.70924169 -0.65972567 0
-0.11276063 -0.048400331 0.0081161093 0.30580941 0.81773949 -0.48762962 0
-0.10826118 -0.049460698 0.0090750307 0.3024523 0.86837375 -0.39300093 0
-0.17123502 -0.043095738 0.0095878877 -0.14550719 0.0984414 -0.98444748 0
-0.16762343 -0.041472118 0.0093676103 -0.077189438 -0.26923195 -0.95997709 0
-0.16223922 -0.041819245 0.0085582836 -0.32010704 -0.35253406 -0.87934709 0
-0.15767744 -0.042780828 0.0073992405 -0.24487293 0.141326 -0.95919985 0
-0.15269385 -0.042228919 0.0069091124 -0.040821593 0.36409435 -0.93046695 0
-0.14746939 -0.042591158 0.0066295927 -0.0035984202 0.4111928 -0.91154128 0
-0.14263573 -0.042419296 0.0067855692 0.03160746 0.48310325 -0.87499267 0
-0.13752179 -0.042060591 0.0074447868 0.097190566 0.60586077 -0.7896117 0
-0.13293645 -0.04244829 0.0078022815 0.14385615 0.67006987 -0.72822505 0
-0.12759033 -0.043310985 0.0082400506 0.20485558 0.74844146 -0.63076895 0
-0.12263518 -0.044238951 0.0089317812 0.26903123 0.8122741 -0.51752585 0
-0.11977091 -0.044778392 0.0097174505 0.32321319 0.85282326 -0.41015327 0
-0.16636415 -0.039522398 0.0095633836 -0.16379261 0.47528461 -0.86445159 0
-0.16246288 -0.038874887 0.009308476 -0.11934708 0.49898869 -0.85835105 0
-0.15766008 -0.03854074 0.0090206275 -0.047552481 0.5530268 -0.83180535 0
-0.15269573 -0.038485073 0.0089379093 0.0086156111 0.62565142 -0.78005517 0
-0.14776713 -0.038774822 0.0089309989 0.058645517 0.67686075 -0.73377126 0
-0.14274421 -0.039275497 0.0090427315 0.11826361 0.70978916 -0.69441557 0
-0.1383936 -0.039650381 0.0094467681 0.1345522 0.76715624 -0.62718976 0
0.068215974 -0.15070397 0.013843293 -0.44881019 -0.85649335 -0.25492856 0
0.072703511 -0.15149896 0.012570528 -0.16147636 -0.9324345 0.32325098 0
0.077485085 -0.15243596 0.011290069 0.15573518 -0.54575723 0.82334411 0
0.08149603 -0.15192999 0.010448471 0.28687879 -0.18603668 0.93972921 0
0.063746974 -0.14720258 0.014464132 -0.37436807 -0.13348074 -0.91762269 0
0.067754582 -0.14784229 0.013319938 -0.3702634 -0.19686711 -0.90782613 0
0.072414808 -0.14744863 0.012550666 -0.22232351 -0.93417287 0.27909362 0
0.077431135 -0.14759137 0.012208618 0.31883454 -0.10170908 0.94233739 0
0.081978433 -0.14746302 0.010770677 0.31448102 -0.097697772 0.94422293 0
0.085004911 -0.145771 0.010045338 0.2608287 -0.11201842 0.95886409 0
0.063003123 -0.14200005 0.014276233 -0.33569494 -0.01239775 -0.94188917 0
0.067484096 -0.14236279 0.012670337 -0.33490437 0.036257982 -0.94155425 0
0.072685972 -0.14252847 0.012566252 -0.49788469 -0.15623188 -0.85305482 0
0.077454038 -0.14258504 0.012499186 0.32356954 -0.11985369 0.9385829 0
0.082535483 -0.14263336 0.011154496 0.31503755 -0.11202322 0.94244474 0
0.085557334 -0.14185713 0.010260255 0.29759124 -0.11559358 0.94766957 0
0.063449889 -0.13812578 0.014340378 -0.31029055 0.087982252 -0.94656157 0
0.06727507 -0.13743819 0.013146594 -0.30825332 0.09398111 -0.94665062 0
0.072967142 -0.1376567 0.012697773 -0.33967516 0.1444505 -0.92938417 0
0.077119462 -0.13743681 0.012579434 0.29589576 -0.076618068 0.95214254 0
0.082363732 -0.13749565 0.011780181 0.30320305 -0.091200441 0.94855165 0
0.086740397 -0.13752101 0.010369242 0.28784439 -0.093627736 0.95308942 0
0.063889712 -0.13336016 0.014622181 -0.31035805 0.077741265 -0.94743562 0
0.067520894 -0.13244784 0.013550516 -0.30523688 0.094175711 -0.94760823 0
0.072919376 -0.13262214 0.01274263 -0.29592839 0.097402401 -0.95023113 0
0.077301078 -0.13251019 0.012630244 0.32791674 -0.099751376 0.93942547 0
0.082432963 -0.13248117 0.012248427 0.29344258 -0.089577422 0.95177066 0
0.087146677 -0.13227949 0.01080831 0.29054266 -0.085946031 0.95299435 0
0.090158664 -0.13062981 0.010059764 0.33507368 -0.094882965 0.93740225 0
0.064439997 -0.12946366 0.014848868 -0.27987605 0.13426901 -0.95060045 0
0.067246363 -0.12727118 0.014160866 -0.31782758 0.080051877 -0.94476312 0
0.072488733 -0.12746412 0.012550081 -0.298127 0.090354308 -0.95024019 0
0.077657863 -0.12751834 0.012461831 -0.062521383 0.30638281 -0.949853 0
0.082464628 -0.12768315 0.012564318 0.30205587 -0.09936057 0.94809794 0
0.08773683 -0.12735595 0.011043732 0.29016954 -0.081726722 0.95347911 0
0.090438545 -0.12783848 0.010183533 0.30171046 -0.074904926 0.95045257 0
0.067985386 -0.12247535 0.014379571 -0.2964178 0.088486835 -0.95095032 0
0.072432131 -0.12272762 0.012960155 -0.29896456 0.094402701 -0.94958323 0
0.077882335 -0.12245466 0.012705302 -0.35483584 0.13524295 -0.92509502 0
0.082151249 -0.12230473 0.01228168 0.2953912 -0.095226064 0.9506188 0
0.087520614 -0.12253582 0.011569413 0.30246845 -0.09423361 0.94848973 0
0.091349535 -0.12248459 0.010376377 0.27921879 -0.093754552 0.9556396 0
0.068373807 -0.11801647 0.014679521 -0.29063445 0.080219679 -0.9534654 0
0.072346605 -0.11748098 0.013462031 -0.29414523 0.082699239 -0.95217615 0
0.077873699 -0.11753899 0.012573755 -0.2814841 0.072022051 -0.95685923 0
0.082232639 -0.11733675 0.012224814 0.2380441 -0.013026775 0.97116691 0
0.087355398 -0.11745043 0.012066949 0.29075548 -0.070895799 0.95416719 0
0.091908991 -0.11740097 0.010637062 0.28821132 -0.081121802 0.95412445 0
0.069415681 -0.11321745 0.014752732 -0.30658391 0.092396438 -0.94734854 0
0.07263469 -0.11248907 0.013804721 -0.30894431 0.083001524 -0.94745141 0
0.077856377 -0.11260542 0.012687598 -0.29844922 0.089791626 -0.95019239 0
0.082256258 -0.11250122 0.012501941 0.35463965 0.01972134 0.93479502 0
0.087356836 -0.11249547 0.012389381 0.29772317 -0.072632387 0.95188522 0
0.092339501 -0.11272869 0.010845726 0.29516277 -0.063348033 0.95334458 0
0.095447339 -0.1101191 0.010049171 0.17419186 -0.028691422 0.9842937 0
0.069899991 -0.10829189 0.014996795 -0.30175093 0.076256379 -0.95033222 0
0.072939821 -0.10753002 0.014147298 -0.31107774 0.069794454 -0.94781816 0
0.077859223 -0.10753101 0.012553853 -0.30010331 0.082540937 -0.95032889 0
0.082413323 -0.10753732 0.012527845 -0.35516828 0.046002641 -0.93366975 0
0.087442286 -0.1073616 0.012116331 0.29350707 -0.072657317 0.9531917 0
0.092570312 -0.10766742 0.011097034 0.29658183 -0.073526643 0.95217282 0
0.095688671 -0.10663029 0.010164092 0.36188024 -0.043279815 0.9312194 0
0.073383339 -0.10248826 0.014422684 -0.31051168 0.079049125 -0.94727707 0
0.077365465 -0.10229737 0.013143974 -0.3089551 0.071757942 -0.94836575 0
0.082786329 -0.10259414 0.012512426 -0.30556071 0.10568592 -0.94628918 0
0.087174632 -0.10218308 0.01240946 0.31802756 -0.054477792 0.94651496 0
0.092724137 -0.10243201 0.01141433 0.30882654 -0.053586487 0.94960767 0
0.095951654 -0.10197278 0.01036342 0.33449835 -0.066186965 0.94006914 0
0.073879458 -0.097492106 0.014666406 -0.31684211 0.07203754 -0.94573867 0
0.077511095 -0.097598068 0.013476339 -0.31412387 0.073350124 -0.94654423 0
0.082879364 -0.097592346 0.01252239 -0.30192155 0.076090328 -0.95029134 0
0.087065138 -0.097509101 0.012318361 0.29977149 -0.028432677 0.95358729 0
0.092398271 -0.097530209 0.011805429 0.31603026 -0.049341656 0.94746518 0
0.096294276 -0.097315535 0.010518102 0.33084908 -0.044070724 0.94265401 0
-0.03179865 -0.090421721 0.01306426 -0.17893383 -0.97808045 -0.10649544 0
-0.02755405 -0.09100052 0.012506668 -0.14132352 -0.94768316 -0.28622407 0
-0.022665918 -0.091481119 0.012767223 -0.12852927 -0.88817561 -0.44116247 0
-0.017532779 -0.092362888 0.012859858 -0.013932479 -0.78062159 -0.62484866 0
-0.012522936 -0.092232756 0.013372271 0.21860331 -0.38010558 -0.89873934 0
-0.0081944158 -0.09223289 0.01449733 0.31296614 -0.10209253 -0.94426119 0
0.074455515 -0.093194336 0.014803638 -0.34378025 0.066552855 -0.93668878 0
0.07761915 -0.092652649 0.013803574 -0.30994126 0.065346405 -0.94850737 0
0.082820244 -0.092676491 0.01252006 -0.29808611 0.056348737 -0.95287436 0
0.087306961 -0.092517585 0.012272462 0.21837108 -0.17930844 0.95925105 0
0.092577867 -0.092344999 0.012056439 0.31607094 -0.057453759 0.94699425 0
0.09688466 -0.092452794 0.010573686 0.32544655 -0.050156366 0.94422925 0
-0.056379072 -0.085309491 0.010937423 -0.22232103 -0.90451384 0.36390668 0
-0.052545361 -0.085897304 0.011536024 -0.24089965 -0.81059951 0.53375638 0
-0.047206499 -0.08633393 0.011972187 -0.19691391 -0.14745973 0.96926802 0
-0.042292334 -0.087390825 0.012251739 -0.13812511 -0.43600696 0.88928026 0
-0.037526954 -0.088156678 0.0126846 -0.12177704 0.23130587 0.96522951 0
-0.032540206 -0.088271275 0.011903866 0.10748991 0.83408403 0.54106349 0
-0.027635388 -0.087961756 0.012198692 -0.056714937 0.68414009 0.7271421 0
-0.022283884 -0.087829158 0.012207615 -0.24530695 0.55070233 0.79784179 0
-0.01794892 -0.08742249 0.011997277 0.1875371 0.12149623 -0.97471458 0
-0.012625708 -0.087380297 0.012996691 0.29866835 -0.05954032 -0.95249778 0
-0.0077565885 -0.087207451 0.01439898 0.27351889 -0.202273 -0.94035792 0
-0.0048702359 -0.085181199 0.014978075 0.48003742 0.32678542 -0.81411022 0
0.077550896 -0.087544531 0.014211118 -0.31843245 0.076049909 -0.94489002 0
0.082507707 -0.087472059 0.012579352 -0.32491258 0.060780279 -0.94378895 0
0.087404311 -0.087365113 0.0125288 0.65382856 0.46105978 0.59994346 0
0.092294335 -0.087558441 0.012299651 0.3106108 -0.043541502 0.94953936 0
0.097309165 -0.087603293 0.010649218 0.33250061 -0.04008732 0.94225067 0
-0.081136473 -0.080401421 0.010940784 -0.29197463 -0.93283218 0.21112777 0
-0.077230535 -0.081052996 0.012060627 -0.23494549 -0.88448864 0.40308854 0
-0.072324716 -0.082033202 0.012586693 -0.2197322 -0.78575391 0.57819426 0
-0.067593336 -0.082228586 0.012445159 0.3302263 -0.64563793 0.68855083 0
-0.062463336 -0.082959831 0.011131777 -0.050300557 -0.09577632 0.99413115 0
-0.057799067 -0.083825998 0.011331269 0.075373627 0.53293359 0.84279329 0
-0.052730061 -0.084424123 0.011543175 0.11999899 0.96331215 0.24006249 0
-0.04908292 -0.084951617 0.01151114 0.037025943 0.99811906 0.04886258 0
-0.030845426 -0.082629636 0.010265841 -0.21943957 0.059479568 0.97381133 0
-0.027719507 -0.082467496 0.010958786 -0.20560165 0.16038698 0.96540356 0
-0.022140043 -0.082679853 0.011861587 -0.35717741 -0.19034398 0.91443616 0
-0.017852429 -0.082471326 0.012385054 -0.32306671 -0.35927474 -0.8755281 0
-0.012896357 -0.082501054 0.013103651 0.39027596 0.45485696 -0.80049348 0
-0.0079827616 -0.083691768 0.014135871 0.42294022 0.36723045 -0.82841009 0
0.078157306 -0.082642481 0.014397371 -0.31789362 0.068548039 -0.94564515 0
0.082777523 -0.082439378 0.012818961 -0.33325994 0.066407107 -0.94049346 0
0.087792583 -0.082719631 0.012366116 -0.3680982 0.061832722 -0.92772859 0
0.092247367 -0.082285039 0.012264181 0.32963964 -0.073035084 0.94127762 0
0.097381316 -0.082462274 0.010873495 0.32882288 -0.063417464 0.94225997 0
-0.10084438 -0.075214572 0.011693955 -0.20986979 -0.9716332 0.10901157 0
-0.097448282 -0.075750776 0.012128686 -0.20242624 -0.95146269 0.2318238 0
-0.092760041 -0.076759495 0.012366719 -0.21659043 -0.93763471 0.27190021 0
-0.087271936 -0.077953927 0.012664639 -0.22853398 -0.89674926 0.37896302 0
-0.082786098 -0.078945018 0.012896796 -0.2196597 -0.85353243 0.47247425 0
-0.078159839 -0.079361953 0.014215304 -0.1810198 -0.6990059 0.69182563 0
-0.073316664 -0.079752401 0.014866993 -0.14449912 -0.67170978 0.72658509 0
-0.065867379 -0.078090928 0.012717376 0.95151216 -0.2696211 0.14808448 0
-0.064571276 -0.075615987 0.011544517 0.90668565 -0.41097611 0.094972111 0
-0.035710402 -0.075189836 0.011260536 -0.35017765 -0.90132064 0.25494465 0
-0.032437239 -0.076297924 0.012307126 -0.34845254 -0.90272951 0.25231013 0
-0.027345655 -0.077191539 0.012478014 -0.27614877 -0.17317046 0.94538558 0
-0.022699781 -0.078040615 0.012989125 0.38962802 0.86662537 -0.31168967 0
-0.018032214 -0.078949496 0.013215397 0.3605701 0.87043881 -0.33514994 0
-0.014454609 -0.079871371 0.014266197 0.37474611 0.72457159 -0.57841289 0
0.078734964 -0.078211904 0.014601007 -0.27974439 0.14880717 -0.94847214 0
0.082270026 -0.077569723 0.013615998 -0.29487854 0.20856957 -0.93249416 0
0.08780919 -0.07747864 0.012783381 -0.26262867 0.38757992 -0.88363332 0
0.092365161 -0.077331848 0.012034735 0.37934813 0.23811066 0.89409083 0
0.097494192 -0.077654101 0.011147072 0.33013636 -0.058235813 0.9421351 0
0.100393 -0.076444983 0.010171007 0.43505538 0.065548033 0.89801455 0
-0.13155469 -0.070193149 0.012273381 -0.19271706 -0.98125213 -0.0021097634 0
-0.12763394 -0.070847325 0.012460452 -0.14307164 -0.98870397 0.044665981 0
-0.12254884 -0.071504526 0.01250823 -0.12822036 -0.98591435 0.10738906 0
-0.11739165 -0.072139867 0.012696177 -0.13399777 -0.97640151 0.16936521 0
-0.11234899 -0.072845839 0.012672219 -0.15560839 -0.9639827 0.21569259 0
-0.10768467 -0.073593371 0.012748667 -0.15914117 -0.961505 0.2240137 0
-0.10295223 -0.074375033 0.013031457 -0.18698879 -0.93466407 0.30238768 0
-0.098591067 -0.074758112 0.014358399 -0.15412299 -0.8586297 0.48887739 0
-0.065084986 -0.074862473 0.014980482 0.88772309 -0.2749455 0.36925969 0
-0.063994735 -0.072364174 0.012638704 0.97737789 -0.11421212 0.1780118 0
-0.047237042 -0.070763126 0.011688896 -0.32325897 -0.89383811 0.31073636 0
-0.042265337 -0.071814924 0.012110582 -0.24996717 -0.29317975 0.92280126 0
-0.037473936 -0.073251441 0.012423972 -0.14702682 0.10289208 0.98376638 0
-0.032640714 -0.073984481 0.012683775 0.3007504 0.93939275 0.16459212 0
-0.029364312 -0.074791804 0.013147683 0.23788244 0.97085035 0.029353401 0
0.083202712 -0.073512793 0.014458627 -0.26515952 0.28987122 -0.91960043 0
0.087770902 -0.073166586 0.013758194 -0.037226487 0.85057414 -0.52453583 0
0.092498057 -0.073771872 0.012259844 0.21952623 0.9753412 0.022757212 0
0.096632689 -0.074218452 0.011091427 0.35994712 0.8539266 0.37582904 0
-0.15095736 -0.065378278 0.012807904 -0.33483449 -0.93491006 -0.11759662 0
-0.14739719 -0.066442318 0.012507021 -0.28465718 -0.9553827 -0.078829646 0
-0.14238288 -0.067855231 0.012557265 -0.25490475 -0.96609598 -0.041013446 0
-0.13772549 -0.069027215 0.01256391 -0.20364626 -0.97899002 0.010329046 0
-0.13353926 -0.069813572 0.012684098 -0.17126445 -0.98516709 0.010685999 0
-0.065444365 -0.065222107 0.014823352 0.15431651 0.54116148 0.8266381 0
-0.062358335 -0.067220993 0.012321873 0.81630611 -0.38638908 0.42935744 0
-0.057610568 -0.066820674 0.011208744 -0.083370715 -0.29714394 0.95118606 0
-0.052466057 -0.068238743 0.011267973 -0.086593978 0.13274886 0.98735976 0
-0.047727194 -0.069086179 0.011690578 0.19966142 0.83487791 0.51294661 0
-0.044325028 -0.069760971 0.010886788 0.26542777 0.94590199 0.18659453 0
-0.16193603 -0.060921103 0.012794264 -0.42678881 -0.86241972 -0.27218288 0
-0.15758422 -0.062695324 0.012355432 -0.37345937 -0.8802653 -0.29267895 0
-0.1532647 -0.064306505 0.012154758 -0.3404415 -0.89785737 -0.27919844 0
-0.080408052 -0.060066234 0.014977981 0.23007533 0.61388642 0.75512171 0
-0.077421553 -0.060594458 0.014339017 0.22327928 0.7532649 0.61865842 0
-0.072182551 -0.061303224 0.013020397 0.23469077 0.80710191 0.54176259 0
-0.067326948 -0.062509395 0.012711319 0.21568505 0.79266435 0.57023078 0
-0.063042894 -0.063433446 0.011955918 0.49943781 0.67721152 0.54032063 0
-0.059067477 -0.064952791 0.010008111 0.18559459 0.90692353 0.37821212 0
-0.17109913 -0.055786919 0.013610191 -0.58315206 -0.74626178 -0.32097819 0
-0.16718629 -0.057651874 0.012502574 -0.48524413 -0.75692314 -0.43772766 0
-0.16362076 -0.058998782 0.011085855 -0.40404683 -0.66935933 -0.62346143 0
-0.091900259 -0.055497002 0.013266278 0.3010174 0.87764347 0.37300181 0
-0.087422431 -0.056712657 0.01265195 0.28399342 0.90778935 0.30865252 0
-0.082628354 -0.058160141 0.012620711 0.25019607 0.89760232 0.36292157 0
-0.077637017 -0.059223358 0.012062658 0.22780019 0.90263295 0.36518583 0
-0.073826365 -0.059688643 0.010626775 0.20176308 0.96737325 0.15323405 0
-0.17592858 -0.051134817 0.013663282 -0.70248598 -0.52778476 -0.47744811 0
-0.17283538 -0.052982379 0.012354131 -0.56530678 -0.56614602 -0.59992242 0
-0.16699117 -0.051462058 0.012040585 0.33191678 0.89033389 -0.31166777 0
-0.16234136 -0.051229842 0.012543736 -0.046022411 0.99631685 -0.072350614 0
-0.15909711 -0.050485659 0.012174415 -0.53388512 0.84436309 -0.044918139 0
-0.10602402 -0.050439347 0.013181093 0.3612071 0.89803964 0.25110599 0
-0.10244575 -0.051621322 0.012539846 0.33200559 0.92550099 0.18226375 0
-0.097418599 -0.053465746 0.012555905 0.32505214 0.9192856 0.2219349 0
-0.093468592 -0.054596983 0.012006929 0.2996386 0.94083035 0.15828745 0
-0.17732449 -0.047398776 0.01293705 -0.6994974 -0.2648581 -0.66374207 0
-0.17220245 -0.0469409 0.011146871 0.33789259 0.0006522187 -0.94118446 0
-0.16888611 -0.048444029 0.012520404 0.76074243 0.64145797 -0.099007972 0
-0.15776463 -0.047570337 0.012646189 -0.99597377 0.009590067 -0.08913102 0
