# .PCD v0.7 - Point Cloud Data file format
VERSION 0.7
FIELDS x y z normal_x normal_y normal_z curvature
SIZE 4 4 4 4 4 4 4
TYPE F F F F F F F
COUNT 1 1 1 1 1 1 1
WIDTH 340
HEIGHT 1
VIEWPOINT 0 0 0 1 0 0 0
POINTS 340
DATA ascii
-0.035956163 -0.062550984 -0.00013646066 -0.13456208 -0.028276341 -0.99050164 0
-0.033773825 -0.062287487 -0.00017655463 0.093780331 -0.024317516 -0.99529594 0
-0.035829153 -0.05771165 -0.00010085037 -0.11543567 0.0257087 -0.99298227 0
-0.033918083 -0.057663918 -0.00012116278 0.087758236 0.027168104 -0.99577129 0
-0.035559051 -0.052601475 -3.5906214e-05 -0.082967155 0.01279979 -0.99647009 0
-0.034389652 -0.053079009 -5.5495904e-05 0.046908103 0.016088285 -0.9987697 0
-0.035478223 -0.047507979 -3.5773515e-05 -0.046655126 -0.0035537952 -0.99890471 0
-0.034627788 -0.047377009 -4.1321051e-05 0.065600649 -0.0023253611 -0.99784327 0
-0.035190489 -0.043784361 -2.5234107e-05 -0.077003643 0.018843759 -0.9968527 0
-0.034653742 -0.043820661 -3.0286039e-05 0.083222821 0.012068167 -0.99645787 0
-0.037011802 0.048392866 -9.307787e-05 -0.012118733 -0.021884864 -0.99968708 0
-0.041039236 -0.065263629 0.0038251418 -0.22366758 -0.96271992 -0.15212832 0
-0.03758565 -0.065259241 0.0019806009 0.051577512 -0.99800873 0.036308236 0
-0.03267647 -0.065223709 0.0014989767 0.032919012 -0.99944645 -0.0048045553 0
-0.028811395 -0.06510929 0.0035818208 0.040294774 -0.99896622 -0.021045869 0
-0.041644692 -0.062479354 0.0030542272 -0.76173627 -0.055842124 -0.64547616 0
-0.037467912 -0.062723666 0.0022861145 0.32084727 -0.91167384 -0.25672543 0
-0.032125384 -0.062707193 0.0024053007 -0.38220137 -0.67883968 0.62697583 0
-0.027938224 -0.062612601 0.0028395683 0.71988904 -0.13832489 -0.68016618 0
-0.041767925 -0.057537831 0.0031875044 -0.77306902 0.010931832 -0.63422763 0
-0.037980627 -0.057816882 0.0013228487 -0.36488992 -0.16726375 -0.91590291 0
-0.031841021 -0.057934806 0.0014082006 0.36377901 -0.27215984 -0.89083892 0
-0.028018629 -0.05752594 0.002795625 0.72759634 0.046484437 -0.68442881 0
-0.041659337 -0.052512281 0.0031587328 -0.75649977 0.019175541 -0.65371275 0
-0.038158588 -0.052336197 0.00066775683 -0.36839384 0.017632656 -0.92950261 0
-0.031985182 -0.052446119 0.00044642671 0.29979515 0.018634213 -0.9538216 0
-0.028138641 -0.052632201 0.0029181668 0.7332105 0.051068168 -0.67808133 0
-0.041663889 -0.047511905 0.0030293232 -0.76899695 -0.036201064 -0.63822651 0
-0.038007621 -0.047361497 0.00049095391 -0.32179922 -0.033902433 -0.94620079 0
-0.032019567 -0.047526415 0.00048071941 0.29890445 0.012161295 -0.95420563 0
-0.027982013 -0.047368322 0.0030914973 0.75537491 0.016503343 -0.65508497 0
-0.041673098 -0.042479098 0.0029625278 -0.74133486 -0.0058361399 -0.67110991 0
-0.037737649 -0.042396143 0.00043606796 -0.28799787 -0.004171174 -0.95762193 0
-0.032308497 -0.042467829 0.00052526244 0.30826411 0.012399413 -0.95122004 0
-0.028302504 -0.042543501 0.0030747966 0.74388981 0.024875892 -0.66783923 0
-0.041723255 -0.037422262 0.0029540206 -0.74691218 -0.0022987626 -0.66491872 0
-0.037449554 -0.037640862 0.00041740635 -0.2406318 0.00090086914 -0.97061604 0
-0.032478433 -0.037610713 0.00057103316 0.30561879 0.027785415 -0.95174849 0
-0.028277328 -0.03758274 0.0032602269 0.74598247 0.0045151049 -0.66595024 0
-0.041821349 -0.032465409 0.0030501096 -0.73073077 0.00029996628 -0.68266565 0
-0.037611742 -0.032478925 0.0004687841 -0.24705467 0.0081089484 -0.96896762 0
-0.032431405 -0.032476775 0.00069486472 0.33413938 0.011136457 -0.94245785 0
-0.028354317 -0.032561872 0.0033635569 0.76651055 0.033308059 -0.64136726 0
-0.041817266 -0.027426606 0.0030245082 -0.7391085 0.011877003 -0.67348164 0
-0.037462801 -0.027547387 0.00047031193 -0.22961865 0.0010237211 -0.97328013 0
-0.032387599 -0.027478911 0.00077981775 0.33257931 0.0071887071 -0.94304788 0
-0.028527215 -0.027349293 0.0033147563 0.75677782 0.033971798 -0.65278876 0
-0.04185909 -0.022475451 0.0029163067 -0.74639606 -0.0024690954 -0.66549736 0
-0.037505198 -0.022452526 0.00045252003 -0.19511729 -0.0059506814 -0.98076189 0
-0.0324459 -0.022366917 0.00079541793 0.31017333 0.013068813 -0.95059025 0
-0.02859403 -0.022576742 0.0033197354 0.78309941 0.020499608 -0.62155873 0
-0.041855346 -0.017388675 0.0029997996 -0.72493702 -0.012654359 -0.68869895 0
-0.037654959 -0.017468419 0.00051613204 -0.22473054 0.0028038346 -0.97441691 0
-0.032354373 -0.017481083 0.00094047864 0.33259532 0.023646876 -0.9427731 0
-0.028759733 -0.017494492 0.0033360301 0.76460254 0.022841975 -0.64409727 0
-0.041899614 -0.012586063 0.0029775889 -0.73771679 0.0092579015 -0.6750468 0
-0.03757669 -0.012612349 0.0005144942 -0.20261054 -0.00083759421 -0.97925901 0
-0.032348756 -0.012478519 0.0010707978 0.38891345 0.013564825 -0.92117441 0
-0.028777907 -0.012452577 0.0036057788 0.76527971 0.026492216 -0.64315253 0
-0.041924756 -0.0074449871 0.0029505896 -0.69946766 -0.011450263 -0.71457249 0
-0.037415508 -0.0074938014 0.00054360344 -0.17373601 0.023077918 -0.98452181 0
-0.032346629 -0.0075335759 0.0011315858 0.38390538 0.012859403 -0.92328286 0
-0.028808344 -0.0076430016 0.0036469926 0.77897662 0.013839761 -0.62690014 0
-0.041966282 -0.0025159761 0.0029923734 -0.71568614 -0.016046589 -0.69823766 0
-0.037539866 -0.0024817239 0.0006232583 -0.18872321 0.007814859 -0.98199922 0
-0.032345861 -0.0024743837 0.0011944012 0.41337472 0.022800134 -0.91027558 0
-0.029010905 -0.0027792179 0.0037148367 0.75413966 0.047620025 -0.65498531 0
-0.041978844 0.002413396 0.0029986124 -0.72621942 -0.00058173318 -0.68746275 0
-0.037561882 0.002441339 0.00061665691 -0.18977086 -0.0064005866 -0.98180753 0
-0.032398969 0.0025169177 0.001304361 0.40026805 0.021833368 -0.91613793 0
-0.029108701 0.0024650705 0.003753525 0.80328566 0.021291474 -0.59521323 0
-0.04192039 0.0074958717 0.002848251 -0.70702034 -0.010760763 -0.7071113 0
-0.037539549 0.0074473848 0.00058373081 -0.16135857 0.012427917 -0.98681754 0
-0.032463428 0.0074505908 0.0013368761 0.39950034 0.0084243258 -0.91669434 0
-0.029023612 0.0075676679 0.0038940054 0.80784714 0.001018441 -0.58939117 0
-0.041960113 0.012396074 0.0028961732 -0.70942956 0.020268144 -0.70448494 0
-0.037606828 0.012457976 0.00069097435 -0.14321721 0.025047237 -0.98937422 0
-0.03250578 0.012639462 0.0015500141 0.44691938 0.02186924 -0.8943069 0
-0.029329743 0.01235857 0.0041384553 0.81762934 0.040826961 -0.5742957 0
-0.0420276 0.017397059 0.0029591855 -0.6922729 -0.005393385 -0.72161555 0
-0.037496977 0.017413454 0.00076358375 -0.14004649 0.0084719891 -0.99010867 0
-0.032197904 0.017586051 0.0017694974 0.4811866 0.020406285 -0.87638062 0
-0.029352382 0.017462783 0.0041013095 0.81562459 0.018640291 -0.57828116 0
-0.042076129 0.022437271 0.0030791885 -0.69156802 0.093599185 -0.71622127 0
-0.03756107 0.022478454 0.00093004102 -0.14551947 0.107386 -0.9835102 0
-0.032472122 0.022675034 0.0018522083 0.46977726 0.11929649 -0.87468719 0
-0.029489432 0.022332458 0.0042688581 0.80867594 0.1063197 -0.57856661 0
-0.04154738 0.027578438 0.0035401541 -0.69727778 -0.00094164931 -0.71680045 0
-0.03750407 0.027440885 0.0016241336 -0.14073934 0.0074457936 -0.99001867 0
-0.032227743 0.027496655 0.0028954269 0.57945251 0.04405161 -0.81381464 0
-0.029894629 0.025961293 0.0048245275 0.79183155 0.25476152 -0.555067 0
-0.041975878 0.032392465 0.0031543204 -0.68549478 -0.095161244 -0.72183192 0
-0.037554119 0.032474916 0.001156393 -0.10034378 -0.074905843 -0.99212915 0
-0.032275572 0.032441054 0.0023864538 0.51625389 -0.1180324 -0.84826303 0
-0.029668946 0.033113383 0.0044926493 0.84211558 -0.10841113 -0.52828813 0
-0.042209748 0.037620615 0.0028818485 -0.66739655 -0.11817985 -0.73526561 0
-0.03755936 0.037700675 0.00069534825 -0.11979526 -0.095555536 -0.98818934 0
-0.032327451 0.037459001 0.0018001805 0.49460083 -0.056482177 -0.86728305 0
-0.029501561 0.037648086 0.004252844 0.85472327 -0.034457099 -0.51793903 0
-0.042555373 0.042422246 0.0025450864 -0.65502983 -0.074953735 -0.75187624 0
-0.037468527 0.042528622 0.00032038172 -0.079759911 -0.059159216 -0.99505711 0
-0.032380249 0.042385314 0.0015217792 0.49584678 -0.038094793 -0.8675741 0
-0.029359486 0.042497043 0.0041651344 0.84278405 -0.047535792 -0.53614861 0
-0.045140747 0.047713902 0.0047035301 -0.86507422 -0.043369472 -0.49976566 0
-0.042450443 0.047996048 0.0026359281 -0.5184561 0.49630368 -0.69633752 0
-0.037617672 0.047976114 0.0019924019 -0.068579569 0.76486027 -0.64053541 0
-0.03265316 0.04795346 0.0023351398 0.34246886 0.69556308 -0.63159096 0
-0.029261768 0.047456928 0.0040777358 0.79575312 0.11689137 -0.59423351 0
-0.03713597 0.052551005 0.0045910152 -0.041666541 0.067618348 -0.99684089 0
-0.034851726 0.052077342 0.0048794406 0.60549867 0.0053705424 -0.79582828 0
-0.036446713 0.055114903 0.0049040616 0.050888814 0.90977359 -0.41197374 0
-0.04222377 -0.065313444 0.0075046285 -0.044600606 -0.99889416 -0.014876068 0
-0.026700867 -0.065084413 0.0074068271 0.035123903 -0.9992786 -0.014440363 0
-0.043006241 -0.062894277 0.0076296902 -0.95930552 -0.2652075 -0.096942507 0
-0.038999826 -0.062181417 0.0069765016 0.83921927 -0.3766149 0.39226559 0
-0.030497514 -0.061649531 0.0065901484 -0.64983624 -0.57421076 0.49799088 0
-0.027469816 -0.062865831 0.0074467715 0.18900968 -0.98157769 -0.027940918 0
-0.043688465 -0.057549994 0.0074678757 -0.98697174 0.0043978989 -0.16083321 0
-0.036659025 -0.059411481 0.0075137368 0.26062423 -0.96541911 0.0063946806 0
-0.032867484 -0.059324436 0.0074384836 -0.19084163 -0.98074138 -0.041542854 0
-0.025679324 -0.057349905 0.0074534281 0.98294622 0.052433264 -0.17625993 0
-0.043612186 -0.052520968 0.0074582188 -0.98587692 0.057761572 -0.15719523 0
-0.02593437 -0.052449625 0.0072744144 0.98035866 0.043658152 -0.19233005 0
-0.043719899 -0.047508892 0.0074868128 -0.98163897 -0.097016916 -0.16423373 0
-0.026104337 -0.047445979 0.0074248407 0.98898369 0.038117368 -0.14303292 0
-0.043827299 -0.042541206 0.007414957 -0.9859004 -0.011645176 -0.16692786 0
-0.026373649 -0.042558022 0.0073561277 0.98888761 0.035073984 -0.14446847 0
-0.043900773 -0.037511446 0.0074666571 -0.98779154 0.022596998 -0.15413351 0
-0.026452415 -0.037426535 0.0074547096 0.98804533 0.035204571 -0.15009017 0
-0.043931685 -0.032525707 0.0074989023 -0.99047059 -0.02323423 -0.13575034 0
-0.026668783 -0.032451995 0.0073749772 0.97794807 0.038353577 -0.20529634 0
-0.043969497 -0.02759265 0.0074459887 -0.98341399 -0.020714872 -0.1801883 0
-0.026742557 -0.027387839 0.0074695647 0.98201537 0.026168307 -0.18697847 0
-0.044018671 -0.022492576 0.0074565946 -0.9815945 0.00060852995 -0.19097599 0
-0.026830383 -0.022435183 0.0074574808 0.9821862 0.020022022 -0.18684059 0
-0.044069655 -0.017492037 0.0073791817 -0.98191816 0.0072549013 -0.18916695 0
-0.026965436 -0.01759566 0.0074993079 0.99014556 0.028506506 -0.13710968 0
-0.044083264 -0.012554522 0.0074060815 -0.98247647 -0.019091545 -0.18540658 0
-0.027099811 -0.012529982 0.0073982771 0.98148221 0.026061658 -0.18977228 0
-0.044212367 -0.0074966326 0.0075275283 -0.98812932 -0.0073630018 -0.1534474 0
-0.027274998 -0.0075158975 0.0074177831 0.98248839 0.03429516 -0.18314031 0
-0.044272836 -0.0025362005 0.0075659179 -0.9897961 -0.0118268 -0.14199883 0
-0.027395405 -0.0024820659 0.0075400164 0.98808938 0.024496635 -0.15191908 0
-0.044322811 0.0026054811 0.0075027435 -0.98252845 -0.010597319 -0.18581074 0
-0.027661078 0.0025280577 0.0076448885 0.98561299 0.051633183 -0.16093811 0
-0.044323456 0.0073106354 0.0075403773 -0.98023027 0.010861296 -0.1975618 0
-0.027700964 0.0073959772 0.0074390802 0.99605262 -0.013694 -0.087702379 0
-0.04439174 0.012343898 0.0074417274 -0.97811323 -0.045962576 -0.20293325 0
-0.028048044 0.012424749 0.0073275953 0.98038155 0.081544615 -0.17945054 0
-0.044453818 0.017562142 0.0074120308 -0.98049301 -0.010603011 -0.19626787 0
-0.028023548 0.017464902 0.0074669309 0.98247623 0.016501894 -0.18565595 0
-0.044409204 0.022494439 0.0074589439 -0.9780885 0.09500172 -0.18525025 0
-0.028247148 0.022578657 0.0075846547 0.97697991 0.11843417 -0.17743614 0
-0.043696277 0.027560737 0.0073170871 -0.96584994 -0.025599165 -0.25783435 0
-0.030069748 0.028458221 0.0051453006 0.8447156 -0.077689864 -0.52954686 0
-0.029068248 0.027490659 0.0075645102 0.97451454 0.067780226 -0.21383958 0
-0.044337958 0.032496601 0.0073440499 -0.97645277 -0.099411532 -0.19146085 0
-0.028661026 0.032525752 0.0074321711 0.97076076 -0.093228437 -0.2212058 0
-0.045227058 0.038152698 0.0087738018 -0.98715717 -0.13205758 -0.089896969 0
-0.044645209 0.03703852 0.0066815047 -0.95267254 -0.1108499 -0.28306779 0
-0.028416984 0.03746016 0.0074096518 0.98265588 -0.037911337 -0.18152182 0
-0.045470048 0.042483281 0.0079106279 -0.98672932 -0.074972779 -0.14402829 0
-0.044836555 0.04209685 0.0053615887 -0.91520983 -0.085644342 -0.39377159 0
-0.02820532 0.042592239 0.0074492893 0.98219538 -0.054286908 -0.17984782 0
-0.045716088 0.047522321 0.0075665889 -0.98074448 0.11632702 -0.15687028 0
-0.042953774 0.048933819 0.0075350455 -0.18142137 0.98233348 0.045904133 0
-0.039562937 0.049563188 0.0052767736 -0.5322172 0.10012528 -0.84066635 0
-0.031840205 0.049145162 0.0067525147 0.21996254 0.92112172 -0.32117167 0
-0.028224014 0.047984671 0.0077152858 0.91021568 0.40249407 -0.097499065 0
-0.041131746 0.052605119 0.0075508631 -0.94481546 0.093731835 -0.31390792 0
-0.038573291 0.05380005 0.0066587273 -0.34558567 0.76464653 -0.54395413 0
-0.033019245 0.052471269 0.0073100696 0.90667218 0.087592386 -0.4126417 0
-0.040547855 0.055162609 0.0084172245 -0.16357592 0.98589987 -0.035273153 0
-0.037381973 0.055138681 0.0072872443 -0.010008105 0.99954611 -0.028416149 0
-0.033953644 0.055164784 0.0079083582 0.091470145 0.99452746 -0.050481606 0
-0.041569259 -0.065304972 0.012593059 -0.048559699 -0.99790335 0.042787898 0
-0.039443616 -0.065237314 0.014268755 0.31782374 -0.88737023 -0.33400926 0
-0.030194202 -0.065117411 0.014833393 -0.24695483 -0.91677624 -0.31390223 0
-0.027613802 -0.06511794 0.012631481 0.0079116542 -0.99931407 -0.036176633 0
-0.042454589 -0.062771857 0.012193689 -0.85941207 -0.2738235 0.43177724 0
-0.038011715 -0.06244877 0.013082776 0.68385726 -0.45560309 -0.56988162 0
-0.031886641 -0.062233407 0.013349642 -0.50043458 -0.55100137 -0.66780442 0
-0.027399452 -0.062833369 0.012301142 0.62159532 -0.67879438 0.39096984 0
-0.043075714 -0.057427958 0.012556553 -0.92338043 0.00406816 0.38386473 0
-0.036327504 -0.059461433 0.012384892 0.22032534 -0.97096831 -0.093151778 0
-0.033390444 -0.059348125 0.012389551 -0.11266836 -0.98541057 -0.12756088 0
-0.026256101 -0.057546124 0.012657499 0.91993183 0.048046231 0.38912332 0
-0.042955484 -0.052534074 0.01267126 -0.91924405 0.046415575 0.39094231 0
-0.026531648 -0.052554771 0.012700129 0.91398096 0.063881427 0.40069675 0
-0.042869799 -0.047517516 0.012690272 -0.9009732 -0.070977435 0.42802966 0
-0.026665542 -0.047469318 0.012616395 0.92656869 0.017323466 0.3757264 0
-0.043233473 -0.042482756 0.012497974 -0.92697167 0.0065203574 0.37507465 0
-0.026965072 -0.04251688 0.012698855 0.92875278 0.025183616 0.3698433 0
-0.043161541 -0.037492208 0.012656759 -0.91602302 -0.0093068806 0.40101773 0
-0.027059233 -0.03756167 0.012691244 0.92125493 0.0091737034 0.38885117 0
-0.043210384 -0.032508377 0.012675153 -0.91858411 -0.015273738 0.39493012 0
-0.027129259 -0.032616444 0.012661486 0.90046805 0.021217734 0.43440437 0
-0.043245878 -0.027520694 0.012803077 -0.89645034 -0.016988324 0.4428184 0
-0.027242925 -0.027489107 0.012645628 0.9128834 0.019505303 0.40775409 0
-0.043138869 -0.022456011 0.012624902 -0.89935428 0.043906987 0.4350104 0
-0.02745489 -0.022360668 0.012586598 0.90745634 0.050282676 0.41712657 0
-0.043201208 -0.017358201 0.01260522 -0.89713264 -0.073578477 0.43559062 0
-0.027743552 -0.01761774 0.01269424 0.89368635 0.019354759 0.44827458 0
-0.043459885 -0.012528868 0.012677956 -0.90510935 -0.014238919 0.42494032 0
-0.027748616 -0.01244844 0.012617963 0.89915478 0.0045607495 0.43760699 0
-0.043493155 -0.0074240756 0.0125895 -0.90776372 -0.01528298 0.41920331 0
-0.027923491 -0.0075001917 0.012700418 0.89801127 0.058477342 0.43606889 0
-0.043593798 -0.0025760964 0.012644568 -0.92394996 -0.0012643219 0.38251111 0
-0.028174495 -0.0025677732 0.012811487 0.88549519 0.04184835 0.46276009 0
-0.043625679 0.0025788946 0.012632147 -0.89613152 -0.019528743 0.44335878 0
-0.030063486 0.0026762499 0.014900392 0.81058651 -0.0019394173 0.58561581 0
-0.028306553 0.0025154776 0.012714223 0.89630139 0.012385343 0.44327226 0
-0.043713335 0.0074198111 0.012554819 -0.91148639 -0.0046078861 0.41130444 0
-0.030010799 0.0092709409 0.014961373 0.6186493 0.30713835 0.72314537 0
-0.02858267 0.0074568135 0.012751261 0.91549176 0.050468199 0.3991589 0
-0.043753855 0.012520691 0.012732356 -0.90048337 0.0046700709 0.43486539 0
-0.030141752 0.013578497 0.014858362 0.55641365 0.012573992 0.83081031 0
-0.028672479 0.012479454 0.012755887 0.92056608 0.014948457 0.39030087 0
-0.043776199 0.017543288 0.012609205 -0.89944744 -0.0081668654 0.43695259 0
-0.030154057 0.017989427 0.014904752 0.71564037 0.019835189 0.69818729 0
-0.028640382 0.017467925 0.012485503 0.91147941 0.011853348 0.41117492 0
-0.043651745 0.022509122 0.012739209 -0.88413632 0.097678885 0.45690468 0
-0.030242225 0.023068042 0.014593768 0.72083241 0.14739868 0.67725492 0
-0.028800631 0.022461312 0.012346925 0.90626252 0.11642154 0.40636709 0
-0.042865206 0.027401686 0.012570051 -0.87701994 -0.0042171292 0.48043552 0
-0.030812735 0.027561504 0.014195266 0.74350804 0.015230004 0.66855353 0
-0.029300839 0.027489875 0.011694141 0.93557221 0.046258993 0.35009238 0
-0.043631025 0.032504085 0.012590757 -0.89911878 -0.11446345 0.42247319 0
-0.030491976 0.031859454 0.014472505 0.69691706 -0.1714267 0.69636154 0
-0.028990461 0.032661151 0.012249252 0.92034483 -0.071910918 0.38444012 0
-0.045216884 0.038530499 0.010770108 -0.97888756 -0.086951792 0.1849823 0
-0.044127371 0.037325684 0.013035459 -0.87327325 -0.12622853 0.47059569 0
-0.030265559 0.037331153 0.014682543 0.74665421 -0.0084347809 0.66515875 0
-0.028854666 0.037433736 0.012256312 0.92428106 -0.03578081 0.38003191 0
-0.045341004 0.042550012 0.011334421 -0.96755522 -0.047583789 0.24813841 0
-0.044232234 0.042535521 0.013771267 -0.82282758 -0.066346698 0.56440485 0
-0.030147973 0.041712482 0.014844039 0.76428866 -0.084896185 0.63926166 0
-0.028805284 0.042502053 0.012590278 0.91553938 -0.043560274 0.39986265 0
-0.045561191 0.047437135 0.011589213 -0.94786644 0.060230009 0.31292444 0
-0.043179233 0.048662409 0.012887833 -0.42307672 0.89815581 0.11967592 0
-0.037582383 0.049191587 0.013920508 0.031715132 0.76058835 0.64845937 0
-0.032148451 0.049273644 0.012970788 0.13547838 0.98204255 0.13129328 0
-0.028798858 0.04771708 0.012325369 0.8777653 0.32740504 0.34976304 0
-0.040877886 0.052616913 0.011166543 -0.85848278 0.10234968 0.50252539 0
-0.037460838 0.052720588 0.013258033 -0.084173366 0.084027693 0.99290186 0
-0.033537071 0.052473068 0.011709641 0.75893575 0.13980789 0.63597977 0
-0.040468004 0.055109296 0.010391861 -0.24860644 0.93924719 0.23666328 0
-0.03727011 0.05519234 0.011536053 -0.013075745 0.99952024 0.028079236 0
-0.034416482 0.055134296 0.01106712 0.18372646 0.97344518 0.13656147 0
-0.040609654 -0.065228067 0.015296138 -0.30737811 -0.9038114 0.29773095 0
-0.037384693 -0.065280661 0.016443813 -0.031052016 -0.99706155 0.070028715 0
-0.032661721 -0.065214165 0.016658269 0.028693264 -0.99876201 0.040634006 0
-0.029268028 -0.065156505 0.015641971 0.12598237 -0.97886747 0.16108039 0
-0.040855374 -0.0624815 0.015878616 -0.66481787 -0.04452987 0.74567705 0
-0.037384957 -0.062676229 0.017110197 -0.41020495 -0.15119685 0.89937276 0
-0.032639101 -0.062604971 0.017096434 0.39957067 -0.24949922 0.88209605 0
-0.028648054 -0.062522374 0.016176747 0.62037396 -0.058438458 0.78212601 0
-0.040894099 -0.057376541 0.01585163 -0.66929972 0.0093991626 0.74293303 0
-0.037664853 -0.057542041 0.017604263 -0.33296841 0.016466148 0.94279426 0
-0.032359857 -0.057468068 0.017742489 0.25391853 0.013688269 0.96712875 0
-0.028662134 -0.057412975 0.01603587 0.64326465 0.045317035 0.7643016 0
-0.040969681 -0.052462239 0.01570444 -0.68576205 0.036889993 0.72689039 0
-0.037644047 -0.052655291 0.017552424 -0.31887975 0.0072440729 0.9477675 0
-0.0326408 -0.052562047 0.0177786 0.2371957 0.022181703 0.97120869 0
-0.028896624 -0.052479859 0.015982347 0.64390445 0.036904536 0.76421535 0
-0.040704224 -0.04741995 0.015832929 -0.71352452 -0.016913384 0.70042616 0
-0.037649393 -0.047415469 0.017563559 -0.30348524 0.011692744 0.95276439 0
-0.032459527 -0.047444154 0.017669236 0.26340845 -0.00045755084 0.96468431 0
-0.028928934 -0.047494676 0.015881041 0.63138187 0.0043938952 0.77545959 0
-0.040968571 -0.042539243 0.015783286 -0.57043403 -0.032669105 0.82069343 0
-0.037673343 -0.042582124 0.017492512 -0.32283932 -0.0022694634 0.94645113 0
-0.032433283 -0.042560954 0.017626027 0.24657895 0.027900156 0.96872103 0
-0.029088804 -0.042638469 0.015937265 0.69181216 0.050086766 0.72033828 0
-0.040860049 -0.037384335 0.015843913 -0.68440425 -0.0093451915 0.72904289 0
-0.037523333 -0.037501331 0.017552078 -0.24414502 0.0048223347 0.9697268 0
-0.032356571 -0.037566788 0.017481033 0.28025532 0.020957738 0.95969671 0
-0.029154427 -0.037391942 0.015836837 0.68180865 0.034393657 0.73072159 0
-0.040960848 -0.032311887 0.015843358 -0.66352344 0.0036638733 0.74814647 0
-0.03759617 -0.032454036 0.017503632 -0.24193701 0.0099750953 0.97024065 0
-0.03226785 -0.032489587 0.017346315 0.3127813 0.008964763 0.94978285 0
-0.029197333 -0.0326229 0.015712593 0.67396164 0.034910917 0.73794109 0
-0.040843498 -0.027334971 0.015905572 -0.65917778 0.022620356 0.75164694 0
-0.037552152 -0.027572025 0.017466692 -0.23673308 0.012362932 0.97149605 0
-0.032357767 -0.027620565 0.017297866 0.31684321 0.023293266 0.94819194 0
-0.029327402 -0.027779061 0.015621521 0.65866256 0.044150032 0.75114202 0
-0.040980194 -0.022741962 0.015934117 -0.68122745 -0.025562573 0.73162538 0
-0.037565675 -0.022467924 0.017441822 -0.2211834 0.0089271124 0.9751913 0
-0.032398354 -0.022438331 0.017224615 0.32522213 0.0097719608 0.94558716 0
-0.029476345 -0.022765705 0.015492107 0.73069155 0.0073650633 0.68266803 0
-0.041125122 -0.017593091 0.015851224 -0.6890617 -0.016343053 0.72451836 0
-0.037468988 -0.017547533 0.01743103 -0.19881402 0.0052499543 0.98002315 0
-0.032343432 -0.017414194 0.017113125 0.3534306 0.025607036 0.93511027 0
-0.029677514 -0.017572893 0.015403148 0.77811277 -0.00068630907 0.62812424 0
-0.041079883 -0.0124118 0.015960101 -0.61864501 -0.0013497388 0.78566945 0
-0.037656188 -0.012486444 0.017366018 -0.20745254 0.005724512 0.97822827 0
-0.032230832 -0.012437122 0.01695127 0.41213658 0.024419153 0.91079485 0
-0.029664204 -0.012617567 0.015224206 0.60700238 0.036911987 0.79384238 0
-0.041148718 -0.0074209971 0.015875002 -0.64098591 -0.032565966 0.7668615 0
-0.037517712 -0.007594544 0.017357614 -0.18724664 0.0041502197 0.98230416 0
-0.032338738 -0.007381733 0.016911231 0.38918209 -0.010691904 0.92109877 0
-0.029643726 -0.0076164943 0.015218275 0.68574196 0.060978428 0.72528577 0
-0.041279025 -0.00246207 0.015862638 -0.59343612 -0.0070130462 0.80485064 0
-0.037568375 -0.0026646047 0.017350774 -0.17449421 0.0043218168 0.98464882 0
-0.032226779 -0.0025468254 0.016781891 0.44613531 0.01185168 0.89488709 0
-0.029845385 -0.0010017877 0.01517198 0.68636286 -0.054148868 0.72524053 0
-0.041153129 0.0026082455 0.015873482 -0.63141251 0.020711768 0.77517039 0
-0.03747363 0.0025344396 0.017329451 -0.16204262 0.0026602754 0.98678023 0
-0.032243978 0.0027734491 0.016704008 0.43057176 0.033478405 0.90193522 0
-0.029887926 0.0020219483 0.015099098 0.75902277 0.051590189 0.6490168 0
-0.041196458 0.0074816816 0.015972245 -0.57184619 -0.020497859 0.82010472 0
-0.037533049 0.0075377282 0.017297225 -0.16042536 0.0051072282 0.98703474 0
-0.03246728 0.0075614545 0.016679943 0.4166398 0.012543543 0.90898508 0
-0.029897898 0.006742218 0.015102313 0.75122786 0.053217255 0.65789402 0
-0.041170631 0.012600821 0.015944229 -0.55796915 0.032466508 0.82922637 0
-0.037732854 0.012484013 0.017235123 -0.1727649 0.0065276846 0.98494148 0
-0.032428075 0.012371682 0.016537732 0.43808457 0.043143801 0.89789784 0
-0.029901052 0.011405233 0.015044536 0.58675569 0.02999272 0.80920833 0
-0.041244067 0.017538896 0.01580519 -0.58570129 -0.0046331822 0.81051373 0
-0.037567865 0.017619472 0.017226772 -0.15272266 0.0050518834 0.98825622 0
-0.032589503 0.017331073 0.016487652 0.43497315 0.016901188 0.90028477 0
-0.041102286 0.022423111 0.015798047 -0.56693286 0.093546703 0.81843525 0
-0.037506651 0.022499625 0.0171014 -0.13455591 0.10266394 0.98557335 0
-0.032637864 0.022491222 0.016315864 0.44076023 0.10237175 0.89176822 0
-0.040601019 0.027678205 0.015363947 -0.45473802 0.0083654169 0.89058596 0
-0.037526209 0.027538478 0.016367095 -0.18051301 0.045250636 0.98253113 0
-0.03328193 0.027514387 0.015895963 0.40007859 0.044839319 0.91538328 0
-0.041095402 0.03281232 0.015866764 -0.52073252 -0.13433866 0.84308404 0
-0.037543252 0.032443218 0.016999094 -0.14910454 -0.11880341 0.98165858 0
-0.032711402 0.032636758 0.016218415 0.47040552 -0.11986932 0.87427109 0
-0.041540392 0.037524533 0.016011517 -0.53005368 -0.062155213 0.8456831 0
-0.037604563 0.037668183 0.017383145 -0.14166644 -0.053188559 0.98848444 0
-0.032511812 0.037522521 0.016342653 0.49083385 -0.035181586 0.87054253 0
-0.041744687 0.042615213 0.016322277 -0.57561171 -0.07755585 0.81403697 0
-0.037418038 0.042585377 0.017742949 -0.060089611 -0.092892215 0.99386132 0
-0.032509435 0.042485226 0.016622854 0.48003224 -0.053294975 0.87563044 0
-0.029944813 0.044541832 0.015116753 0.82268834 -0.14190866 0.55049604 0
-0.041954845 0.047813214 0.016392732 -0.50937074 0.22260395 0.83125746 0
-0.037378211 0.048056822 0.017525211 -0.037327129 0.52804106 0.84839815 0
-0.032629889 0.04784805 0.016611148 0.48246163 0.31919664 0.8156864 0
-0.029934211 0.046709795 0.0150502 0.79096425 0.060144998 0.608899 0
