# .PCD v0.7 - Point Cloud Data file format
VERSION 0.7
FIELDS x y z normal_x normal_y normal_z curvature
SIZE 4 4 4 4 4 4 4
TYPE F F F F F F F
COUNT 1 1 1 1 1 1 1
WIDTH 646
HEIGHT 1
VIEWPOINT 0 0 0 1 0 0 0
POINTS 646
DATA ascii
-0.017137112 -0.075967304 0.01353968 -0.23786302 -0.76192749 -0.60240155 0
-0.012104012 -0.07666526 0.012911015 -0.16656111 -0.78533161 -0.59624809 0
-0.0075660869 -0.077014513 0.012647086 0.059161577 -0.81582284 -0.57526773 0
-0.0027445573 -0.076356836 0.013311387 0.25802499 -0.72575891 -0.63772798 0
0.0012467937 -0.075400412 0.014260085 0.33002412 -0.69372487 -0.64017957 0
-0.026624434 -0.071222574 0.013444246 -0.46607125 -0.63451934 -0.61657345 0
-0.022555662 -0.072735809 0.012417927 -0.3579028 -0.67961735 -0.64033264 0
-0.017859953 -0.073859207 0.011387101 -0.26236519 -0.70715189 -0.65658271 0
-0.013413993 -0.074502967 0.010543822 -0.19830446 -0.82882422 -0.52318805 0
-0.0061100703 -0.074544765 0.010274159 0.22245933 -0.64884591 -0.7276749 0
-0.0020702158 -0.073856793 0.010910895 0.26709512 -0.59375381 -0.75902355 0
0.0026800423 -0.072781123 0.012288628 0.36948386 -0.66265094 -0.65144104 0
0.0070222355 -0.071227498 0.013523914 0.47497326 -0.63810891 -0.60598469 0
-0.031663846 -0.06654083 0.013438899 -0.59260172 -0.51474315 -0.61956662 0
-0.02814539 -0.068119347 0.011751111 -0.51065922 -0.55590641 -0.65589279 0
-0.024342861 -0.069503598 0.010256515 -0.40492114 -0.59443849 -0.69475305 0
0.004602138 -0.069661178 0.010376716 0.38812861 -0.57860351 -0.71733832 0
0.0082690511 -0.067960329 0.01150573 0.50666362 -0.54016608 -0.67194694 0
0.01156403 -0.066858709 0.013420413 0.59843075 -0.51402056 -0.61454332 0
-0.035902385 -0.061438661 0.014221047 -0.71544582 -0.36598668 -0.59513944 0
-0.032994103 -0.062735856 0.011936746 -0.6342178 -0.42035273 -0.64890021 0
-0.029772392 -0.064623855 0.010289045 -0.53024697 -0.48753521 -0.6936481 0
0.013089369 -0.062807351 0.011958173 0.62757879 -0.41519651 -0.65860206 0
0.016226485 -0.061322961 0.014209017 0.70443028 -0.46084145 -0.53981769 0
-0.03666117 -0.057276029 0.013003356 -0.74254495 -0.26294902 -0.61602348 0
-0.034175526 -0.05846234 0.010705085 -0.68500334 -0.31057459 -0.65902495 0
0.014120941 -0.058692832 0.0106146 0.66508228 -0.33252457 -0.66865003 0
0.017022943 -0.057347849 0.012813532 0.6880303 -0.33195934 -0.64530391 0
-0.040010761 -0.050670706 0.014996206 -0.87369561 -0.15716062 -0.46038741 0
-0.037454214 -0.052636497 0.012324808 -0.77013588 -0.18166797 -0.61146337 0
0.017883506 -0.052479189 0.012410446 0.74004334 -0.057715386 -0.67007816 0
-0.040159419 -0.0481763 0.014818712 -0.85468727 -0.0051085297 -0.51911807 0
-0.038173221 -0.047381684 0.012317924 -0.79951388 0.028826362 -0.59995556 0
0.018032609 -0.047300596 0.012606503 0.81083304 0.036571126 -0.58413386 0
-0.037423413 -0.042582113 0.012548031 -0.76324427 0.24924694 -0.59609908 0
-0.034729559 -0.040900387 0.01019392 -0.64759517 0.28052977 -0.70846558 0
0.014630035 -0.040499244 0.010238582 0.68656641 0.57252735 -0.44815069 0
0.017074203 -0.042435963 0.012442875 0.76511306 0.22104953 -0.60476375 0
-0.036412761 -0.037720904 0.013401302 -0.72202134 0.30923611 -0.61891693 0
-0.033736311 -0.036913309 0.010995331 -0.64232206 0.32779676 -0.69279999 0
0.014065512 -0.03688651 0.011234523 0.71855402 0.30892381 -0.62309408 0
0.01637084 -0.037859488 0.013339803 0.74180424 0.28715751 -0.60602564 0
-0.035555821 -0.034124076 0.014389098 -0.69942355 0.39226705 -0.59743887 0
-0.032512058 -0.032542586 0.012330266 -0.61471957 0.43309155 -0.65920526 0
-0.029350549 -0.031068614 0.010592454 -0.53056085 0.45668352 -0.71410471 0
0.0095173987 -0.030520096 0.010313706 0.65357125 0.35871053 -0.66646177 0
0.012657669 -0.032385133 0.012424961 0.67533565 0.42017406 -0.60611504 0
0.015368759 -0.033745125 0.014466065 0.70387524 0.4162305 -0.57559687 0
-0.031050924 -0.028634703 0.013871124 -0.57145137 0.5409165 -0.61713254 0
-0.02777184 -0.027256478 0.012387251 -0.49501109 0.57269824 -0.65343761 0
-0.023292083 -0.025798468 0.010712418 -0.37475696 0.60486084 -0.70263833 0
0.0045304182 -0.025754236 0.010398888 0.40927804 0.45938748 -0.78832388 0
0.0077808467 -0.026997345 0.011962778 0.53491777 0.57145637 -0.62233478 0
0.011132694 -0.028640121 0.013797191 0.59487385 0.55715698 -0.57939726 0
-0.026375445 -0.024256591 0.014171797 -0.4560892 0.65626502 -0.60108131 0
-0.02239541 -0.023118315 0.012860353 -0.35283199 0.68402493 -0.63845092 0
-0.017519107 -0.021973483 0.012033026 -0.20441921 0.70985925 -0.67402726 0
-0.012618101 -0.02149418 0.011431327 -0.094385102 0.71811533 -0.68949389 0
-0.0074670594 -0.021342823 0.011444853 0.051686455 0.72486502 -0.68694925 0
-0.0022280151 -0.0218809 0.011832735 0.18254292 0.71440244 -0.67550516 0
0.0024803791 -0.022560952 0.012668468 0.29742968 0.72612184 -0.61990535 0
0.0064212568 -0.023722358 0.013864762 0.51172835 0.57398981 -0.63927293 0
-0.016889617 -0.019525236 0.014586287 -0.18986583 0.7742613 -0.60371393 0
-0.012307058 -0.019197803 0.014050554 -0.080380253 0.79192752 -0.6053015 0
-0.007675888 -0.019138224 0.013980191 0.045462523 0.79465884 -0.60535151 0
-0.0029387122 -0.01947267 0.014376093 0.17722724 0.72611648 -0.66433829 0
-0.015649099 -0.080244586 0.019741049 -0.18368849 -0.87046456 -0.45667264 0
-0.012141291 -0.080484852 0.018978516 -0.16039829 -0.88484246 -0.43740854 0
-0.0072180177 -0.08084286 0.018474773 0.028129555 -0.89163333 -0.45188349 0
-0.0030008678 -0.080519855 0.019229731 0.28355882 -0.81077033 -0.5120995 0
-0.026195729 -0.07569018 0.018882629 -0.45813182 -0.76526809 -0.45219469 0
-0.022443278 -0.076796152 0.017612396 -0.35405168 -0.79474819 -0.49297327 0
-0.01756933 -0.078436434 0.017408283 -0.23399729 -0.83587343 -0.49654904 0
-0.012724571 -0.079009242 0.016629618 -0.12960707 -0.84778732 -0.51425546 0
-0.0076074395 -0.079319224 0.016171541 0.015925407 -0.8373946 -0.54636687 0
-0.0023252994 -0.07880345 0.01692955 0.27540743 -0.83932304 -0.46870837 0
0.0023611693 -0.077127196 0.017505467 0.38230211 -0.77499539 -0.50321692 0
0.0062961113 -0.075796552 0.018732427 0.46016401 -0.75343078 -0.4696714 0
-0.031534117 -0.071452737 0.018427035 -0.58923823 -0.64864194 -0.48172808 0
-0.027920388 -0.073191836 0.016893737 -0.49682474 -0.69673496 -0.51742202 0
-0.02415291 -0.074584097 0.015465426 -0.39865759 -0.73543179 -0.54791635 0
0.0041950415 -0.074645236 0.015271051 0.40384564 -0.71588117 -0.56958133 0
0.0079938741 -0.073429339 0.016969711 0.49782085 -0.69423664 -0.51981729 0
0.011511256 -0.071527138 0.018235797 0.59759837 -0.6418857 -0.48047772 0
-0.036012053 -0.066358522 0.018434405 -0.71864605 -0.51943552 -0.46231437 0
-0.033338178 -0.067996509 0.016594687 -0.64434654 -0.5510329 -0.53026438 0
0.013652099 -0.068038881 0.016818158 0.65503913 -0.54445881 -0.52391636 0
0.016083868 -0.066504136 0.018477919 0.70830011 -0.51661539 -0.48106065 0
-0.037621349 -0.062534906 0.017364169 -0.76218486 -0.40448734 -0.50543457 0
-0.034845248 -0.064774334 0.015310496 -0.66726029 -0.4677527 -0.57963026 0
0.014757115 -0.064989403 0.015262997 0.67435187 -0.48416433 -0.55752534 0
0.017763546 -0.062630817 0.017186146 0.70982838 -0.46245202 -0.53130192 0
0.020299919 -0.060687706 0.019114813 0.85804021 -0.48100063 -0.18001494 0
-0.040759373 -0.057084344 0.018783908 -0.84075993 -0.25296569 -0.47867632 0
-0.039105203 -0.057796735 0.016455935 -0.8028512 -0.26950765 -0.53178525 0
0.019293468 -0.058206573 0.016256798 0.85434359 -0.33061859 -0.40098435 0
0.02109565 -0.057328582 0.018342374 0.81356418 -0.22980458 -0.53413773 0
-0.041282233 -0.052196391 0.017750146 -0.86346376 -0.16393781 -0.47702688 0
-0.039720036 -0.053703897 0.015556477 -0.84345245 -0.1940513 -0.50093114 0
0.021268558 -0.052408542 0.017593078 0.89486557 -0.014284976 -0.44610697 0
-0.041741446 -0.047213633 0.017480414 -0.85805106 0.026662424 -0.51287168 0
-0.0399222 -0.045563389 0.015214071 -0.92675942 0.016386872 -0.37529778 0
0.019817978 -0.047673441 0.015141725 0.79067945 0.021818029 -0.61184156 0
0.021402886 -0.047416221 0.01777559 0.87137949 0.041483123 -0.48885259 0
-0.041566618 -0.042635441 0.017984593 -0.80509442 0.18824516 -0.56248254 0
-0.039596628 -0.041933242 0.015500567 -0.64869881 0.2096642 -0.73159468 0
0.019505311 -0.042324871 0.015698502 0.82011342 0.17287965 -0.54545999 0
0.021184642 -0.0426898 0.018325515 0.86419183 0.16337612 -0.4758999 0
-0.040784981 -0.038492355 0.018828319 -0.80914253 0.30762818 -0.50065279 0
-0.038684871 -0.037303038 0.016475763 -0.76312888 0.33165482 -0.55465257 0
0.018709419 -0.037066605 0.016954787 0.79398829 0.30773053 -0.52429432 0
0.020582849 -0.038375143 0.019223345 0.84448671 0.26879045 -0.46324265 0
-0.037067935 -0.03276103 0.017416157 -0.73571032 0.43001676 -0.52327424 0
-0.034497689 -0.030819662 0.015613521 -0.66868484 0.47585386 -0.57133496 0
0.014590463 -0.030927453 0.015689718 0.68645829 0.46007743 -0.56311965 0
0.017141206 -0.032708008 0.01768643 0.74491811 0.42416209 -0.51495975 0
-0.035807852 -0.029219897 0.018892515 -0.70303494 0.5276351 -0.47680509 0
-0.032711413 -0.027082494 0.017255789 -0.6251446 0.58283097 -0.51913607 0
-0.029313071 -0.025361631 0.015422182 -0.52984858 0.62043256 -0.57820755 0
0.0097745024 -0.025493005 0.015674939 0.52550268 0.47104558 -0.70849347 0
0.012947502 -0.027279191 0.017200733 0.64391315 0.5669533 -0.51375079 0
0.015837025 -0.029163992 0.019058296 0.71133673 0.52149051 -0.47121939 0
-0.030985842 -0.024219962 0.01863943 -0.57698965 0.66031688 -0.4806917 0
-0.027562998 -0.022321513 0.017699597 -0.48784539 0.71503806 -0.50072694 0
-0.023287857 -0.020876121 0.016071558 -0.37742245 0.74797618 -0.54597062 0
-0.019738022 -0.020043435 0.015032951 -0.2891762 0.76262462 -0.57860249 0
0.0034140619 -0.020647855 0.015779484 0.31368366 0.71079385 -0.629583 0
0.0077241692 -0.022088572 0.017303355 0.56232202 0.66614795 -0.48993957 0
0.0110262 -0.024109829 0.018535383 0.60754335 0.63922805 -0.47146434 0
-0.025364706 -0.019762989 0.019491486 -0.44273311 0.78390342 -0.43529615 0
-0.022129521 -0.01887551 0.018356869 -0.35030124 0.81101876 -0.46854848 0
-0.01756292 -0.017760001 0.017554428 -0.22178057 0.83475667 -0.50397885 0
-0.012587306 -0.01702386 0.017296676 -0.085079789 0.85145396 -0.5174818 0
-0.0074482677 -0.01678955 0.017469017 0.043905649 0.85393989 -0.51851606 0
-0.0026133708 -0.017309751 0.017566038 0.14631778 0.84614497 -0.51247418 0
0.0022335458 -0.018558348 0.0177087 0.30643114 0.78135699 -0.54367393 0
0.005965584 -0.01953751 0.018919488 0.51880908 0.80185568 -0.29641953 0
-0.021223016 -0.080399945 0.02366459 -0.31857461 -0.88826358 -0.33090472 0
-0.017510002 -0.081058472 0.022636311 -0.22201449 -0.90700668 -0.35783863 0
-0.012641689 -0.081892341 0.022573857 -0.11611958 -0.92447323 -0.36313289 0
-0.0074596629 -0.0826049 0.022540271 -0.039738003 -0.94456685 -0.32590538 0
-0.0026496532 -0.081592314 0.02238322 0.2952466 -0.90115017 -0.31742388 0
0.001283392 -0.080537088 0.02342087 0.35511062 -0.88073617 -0.31336918 0
-0.030459698 -0.075387962 0.023847239 -0.54757559 -0.76472712 -0.33963719 0
-0.02743927 -0.07685373 0.022685148 -0.49406821 -0.79125988 -0.36028367 0
-0.02295829 -0.078990057 0.022038735 -0.37378246 -0.84416491 -0.38428152 0
-0.018906619 -0.079759091 0.020419272 -0.25531244 -0.8713131 -0.41908121 0
-4.2192027e-05 -0.079875998 0.020023704 0.38970849 -0.79394269 -0.4666715 0
0.0032287606 -0.079064757 0.021908814 0.41385657 -0.83490741 -0.36283931 0
0.0073789372 -0.077079974 0.022518538 0.48173091 -0.80194759 -0.3532922 0
0.01057106 -0.075559154 0.023883574 0.59420943 -0.74163377 -0.31127903 0
-0.035621468 -0.070685066 0.023795163 -0.71265173 -0.61938 -0.32938725 0
-0.032841273 -0.072727479 0.022467168 -0.62581146 -0.68951279 -0.3645986 0
-0.029355591 -0.074740738 0.020886496 -0.53267092 -0.75081986 -0.39055255 0
0.0094976593 -0.074807756 0.020605341 0.54841441 -0.73050141 -0.40695119 0
0.012821788 -0.072863072 0.022383401 0.6384837 -0.68413705 -0.35255507 0
0.015561691 -0.070826851 0.023727508 0.70701557 -0.62901026 -0.32322592 0
-0.040044449 -0.0650087 0.024978537 -0.83349192 -0.46331543 -0.30104834 0
-0.037464093 -0.067453593 0.02255955 -0.76916283 -0.5298751 -0.35724056 0
-0.034634531 -0.06972453 0.020356275 -0.68759876 -0.58873332 -0.42497173 0
0.014678981 -0.069774374 0.020279851 0.69481373 -0.60352111 -0.39114726 0
0.01763081 -0.067516789 0.022504002 0.7475161 -0.55926627 -0.35838658 0
0.020087406 -0.065112986 0.024733275 0.89441025 -0.43317953 -0.11129157 0
-0.040888619 -0.061760295 0.022875179 -0.84284788 -0.40860587 -0.35021228 0
-0.039281398 -0.063875355 0.021640126 -0.81375903 -0.44402847 -0.37501317 0
0.019264301 -0.063939951 0.021066505 0.75142372 -0.45216909 -0.4805263 0
0.021125371 -0.062286418 0.022839544 0.82070059 -0.46387947 -0.33356595 0
-0.042353418 -0.057668991 0.022511289 -0.89286488 -0.2705988 -0.35995632 0
0.022867993 -0.057698309 0.022442659 0.91933936 -0.22558066 -0.32237938 0
-0.043512776 -0.052552041 0.022556914 -0.92222291 -0.14414977 -0.35878375 0
0.023517085 -0.052332215 0.022390194 0.92545509 -0.069817252 -0.37236854 0
-0.045167163 -0.045146465 0.024721311 -0.92976618 -0.050668877 -0.36464712 0
-0.044012535 -0.047395557 0.022156598 -0.93254262 -0.086045898 -0.35065687 0
0.023649609 -0.047477115 0.022481155 0.93026501 0.040080227 -0.36469263 0
-0.045143668 -0.04386539 0.024608631 -0.94254249 0.02208598 -0.33335543 0
-0.043849036 -0.042388659 0.022336734 -0.90372777 0.16008112 -0.39705184 0
0.023192069 -0.042553995 0.022696773 0.91650343 0.16641597 -0.36376813 0
-0.04248542 -0.037788376 0.022637377 -0.85060143 0.35510963 -0.38778135 0
0.021840084 -0.037505932 0.022503477 0.88194191 0.28546172 -0.37508667 0
-0.040689468 -0.033432811 0.023097865 -0.8262648 0.42483982 -0.36986154 0
-0.039037015 -0.031473868 0.021867916 -0.79067135 0.47081134 -0.39137641 0
0.019017395 -0.03185904 0.021609612 0.79704219 0.45333856 -0.39900854 0
0.020658188 -0.033536162 0.023264974 0.84983236 0.38683125 -0.35797575 0
-0.036841828 -0.027755382 0.022595523 -0.73114616 0.56905365 -0.37630194 0
-0.03435399 -0.025820117 0.021010514 -0.6696831 0.6102547 -0.42321846 0
0.014390904 -0.025870966 0.020968582 0.67993599 0.60649896 -0.41212389 0
0.016863925 -0.027821474 0.022714738 0.74327701 0.55767274 -0.36951381 0
-0.035207063 -0.024580095 0.024718601 -0.66419345 0.68229055 -0.30549404 0
-0.032319173 -0.022884984 0.022768768 -0.60929996 0.70298898 -0.36682427 0
-0.028844247 -0.020710334 0.021728821 -0.51830643 0.7613675 -0.38945857 0
0.0087543214 -0.020610912 0.021218821 0.50825244 0.77107215 -0.38357168 0
0.012415688 -0.022954421 0.022583991 0.63710082 0.67642373 -0.36953157 0
0.015134452 -0.024542337 0.024574444 0.70556283 0.63319987 -0.3181805 0
-0.026813373 -0.018906768 0.022861544 -0.46898669 0.80523598 -0.36283121 0
-0.022697715 -0.016986836 0.022616064 -0.35679531 0.85545695 -0.37535396 0
-0.01804621 -0.015669582 0.021864077 -0.24771045 0.8933835 -0.37484041 0
-0.01308929 -0.015224539 0.020688236 -0.088289276 0.90503472 -0.41607347 0
-0.0073743612 -0.015142193 0.020442482 0.023906406 0.90678918 -0.42090604 0
-0.002143027 -0.015572263 0.020939359 0.20327637 0.8004151 -0.56392777 0
0.0026861127 -0.01633632 0.022413872 0.3743636 0.84286493 -0.38656265 0
0.0070342203 -0.018590182 0.022808772 0.54103827 0.76216161 -0.35550994 0
0.010184502 -0.019891102 0.024808571 0.57946861 0.75361753 -0.31028515 0
-0.016863445 -0.014575299 0.023908013 -0.2060921 0.9238528 -0.32252464 0
-0.012252048 -0.014274899 0.022841457 -0.076908596 0.93066972 -0.35768539 0
-0.007527682 -0.014137772 0.022916012 0.029826928 0.92973053 -0.36703083 0
-0.0026795813 -0.014292857 0.023291113 0.09380357 0.9369337 -0.33668399 0
0.00092988304 -0.014697011 0.024194634 0.32697931 0.93064851 -0.16424958 0
-0.025497437 -0.080258533 0.02920283 -0.44436368 -0.87516737 -0.19137135 0
-0.022238841 -0.081238963 0.027716842 -0.34023359 -0.9112857 -0.23194697 0
-0.017643604 -0.082492717 0.027179733 -0.22314958 -0.94389349 -0.24345267 0
-0.012571789 -0.083402358 0.027249372 -0.13842063 -0.96007001 -0.24311586 0
-0.0075439173 -0.083784088 0.027381411 0.063099109 -0.97630352 -0.207002 0
-0.0024111322 -0.082961999 0.027551688 0.26027641 -0.9491064 -0.1773507 0
0.0024684393 -0.081262834 0.027650263 0.37282231 -0.90901035 -0.18628931 0
0.0053510014 -0.08021941 0.028709121 0.4355644 -0.88447183 -0.16731134 0
-0.031502839 -0.076008901 0.027621599 -0.58562815 -0.77423483 -0.24000031 0
-0.027619682 -0.078578278 0.027510209 -0.4971216 -0.83162004 -0.2475443 0
-0.024520576 -0.079793833 0.025871802 -0.40010524 -0.87154025 -0.28343156 0
0.0046434682 -0.079805285 0.025601741 0.43538672 -0.85744429 -0.27427658 0
0.0076091001 -0.078671172 0.027475178 0.49343148 -0.84221679 -0.21724683 0
0.011499133 -0.076140903 0.027813178 0.6048733 -0.76732606 -0.21292947 0
-0.036242951 -0.071645811 0.027720163 -0.72515249 -0.65100461 -0.2243813 0
-0.033700582 -0.074059777 0.02727155 -0.65701205 -0.71427613 -0.2411322 0
0.013924019 -0.073819369 0.027040891 0.66420025 -0.70838946 -0.23879391 0
0.016454875 -0.071434714 0.027672427 0.72470337 -0.65259254 -0.22119685 0
-0.040515702 -0.065861307 0.028195236 -0.84068322 -0.4995071 -0.20915145 0
-0.038822725 -0.067949876 0.026924634 -0.80484807 -0.53917366 -0.24801463 0
0.018719386 -0.068555124 0.027242407 0.77330524 -0.59239137 -0.22599028 0
0.020673541 -0.06606809 0.027838154 0.81001621 -0.55301499 -0.1950592 0
-0.042046804 -0.062567174 0.027565232 -0.88259959 -0.41277516 -0.22502129 0
0.022532616 -0.062723234 0.027252171 0.831402 -0.46785328 -0.29980674 0
-0.043883022 -0.057588913 0.027389072 -0.94071758 -0.26341894 -0.21368411 0
0.024398966 -0.057446368 0.02735167 0.96432996 -0.14829955 -0.21926023 0
0.025183307 -0.055511601 0.029864194 0.96603554 -0.18170102 -0.18373914 0
-0.04531851 -0.051988292 0.028641326 -0.97208697 -0.14611068 -0.18357182 0
-0.04465799 -0.053131301 0.02651505 -0.95565987 -0.15833023 -0.24828549 0
0.024672452 -0.05276674 0.025890091 0.95804322 -0.10666651 -0.26603648 0
0.0253403 -0.052192919 0.028329238 0.97215176 -0.096740492 -0.21345305 0
-0.045565657 -0.047639869 0.02761001 -0.97604084 -0.075645149 -0.20401472 0
-0.044829946 -0.048987333 0.025406552 -0.7374379 -0.14809304 -0.65897924 0
0.024789378 -0.047418755 0.025793798 0.95750344 0.036616858 -0.28608811 0
0.025445029 -0.047690134 0.028271994 0.97427893 0.040091086 -0.22175033 0
-0.045528788 -0.042653218 0.027712626 -0.97878039 0.12000037 -0.16609867 0
-0.044900544 -0.040864453 0.025921293 -0.98308682 0.12381431 -0.13494501 0
0.024477063 -0.042236056 0.026629372 0.9502154 0.16591582 -0.26374713 0
0.02525674 -0.043367788 0.029096311 0.97202092 0.13058619 -0.19524984 0
-0.045180652 -0.039370466 0.028834881 -0.96519369 0.23661004 -0.11143113 0
-0.043954019 -0.037208825 0.027257247 -0.89578104 0.38578779 -0.22078094 0
0.023500565 -0.037445687 0.027404048 0.92699945 0.2852577 -0.2435157 0
-0.041750487 -0.032406658 0.027578786 -0.85687399 0.4583852 -0.2359025 0
-0.0398391 -0.030256679 0.025277227 -0.80063558 0.51044935 -0.31372628 0
0.019844115 -0.030269213 0.02561456 0.81068558 0.50506318 -0.29614195 0
0.021636782 -0.032624312 0.027392143 0.87384367 0.42310613 -0.23953813 0
-0.040331203 -0.029383522 0.028724387 -0.82656646 0.52511883 -0.20257874 0
-0.038373496 -0.027195046 0.027302876 -0.77483141 0.57950795 -0.25259992 0
0.018264847 -0.027210666 0.027254343 0.781205 0.57322258 -0.24725421 0
0.020341404 -0.029513482 0.028929697 0.8315869 0.51710135 -0.20265605 0
-0.035850752 -0.024012258 0.027813189 -0.69607478 0.6764676 -0.24056479 0
-0.033092353 -0.021600723 0.027324896 -0.62168181 0.74344671 -0.24657419 0
0.013157242 -0.021497173 0.027309785 0.65195405 0.71646565 -0.24825996 0
0.015973875 -0.024147691 0.02771797 0.71881145 0.65259641 -0.23964125 0
-0.030855564 -0.019556511 0.028334156 -0.56576085 0.80026197 -0.1987348 0
-0.027618909 -0.017774604 0.027526701 -0.4857733 0.84766275 -0.21328938 0
-0.023349974 -0.015690619 0.027034549 -0.39138839 0.890894 -0.23048444 0
0.00413435 -0.015484873 0.026712053 0.53380007 0.82940638 -0.16474994 0
0.0074911136 -0.017260941 0.027418243 0.50417072 0.82875484 -0.24285229 0
0.010973451 -0.019399902 0.028042082 0.59170848 0.77536035 -0.22067472 0
-0.021321336 -0.014603444 0.028252045 -0.31922713 0.93264997 -0.1681011 0
-0.017639317 -0.013730243 0.027683951 -0.2239705 0.95678473 -0.1854727 0
-0.01246663 -0.012864539 0.027488643 -0.095533043 0.97071558 -0.22041941 0
-0.0074010408 -0.012614566 0.027680725 0.014918603 0.96849483 -0.2485863 0
-0.0023290853 -0.012976712 0.02735598 0.15761979 0.95539689 -0.24974547 0
0.0019673419 -0.014009071 0.027682934 0.37002206 0.90639096 -0.2038115 0
-0.026017085 -0.080526613 0.033117473 -0.44240105 -0.89331818 -0.079145223 0
-0.022774443 -0.08188422 0.032666706 -0.35868812 -0.92957306 -0.085069932 0
-0.01758793 -0.083467782 0.032548595 -0.22226551 -0.9701699 -0.096789956 0
-0.012444234 -0.084407598 0.032634601 -0.12479464 -0.9874745 -0.096542329 0
-0.0074963891 -0.084577575 0.03247036 0.053715821 -0.99512607 -0.082696818 0
-0.0023435161 -0.083634071 0.032429203 0.27260408 -0.95884681 -0.079371691 0
0.0027465073 -0.081843913 0.032432068 0.38208625 -0.92094684 -0.076596186 0
0.0060648681 -0.080392331 0.032805122 0.44832656 -0.89045686 -0.078038625 0
-0.03202901 -0.076648876 0.032484047 -0.6095103 -0.78677624 -0.097367309 0
-0.02854244 -0.079055734 0.032538265 -0.51728016 -0.85007823 -0.098935604 0
0.008536689 -0.07902047 0.032495402 0.50179851 -0.86111277 -0.081749454 0
0.012146297 -0.076523632 0.032603081 0.61836809 -0.78062451 -0.090808958 0
-0.036807269 -0.072115935 0.0324517 -0.74857444 -0.6567716 -0.091035143 0
-0.034499411 -0.074502677 0.031917933 -0.6813128 -0.72326875 -0.11267314 0
0.01448171 -0.07447274 0.031944666 0.67028862 -0.73418164 -0.10812259 0
0.01695418 -0.072029747 0.032548226 0.73908234 -0.66790098 -0.087553725 0
-0.040959548 -0.066394523 0.032706 -0.8563832 -0.50897419 -0.0869084 0
-0.039363142 -0.068874389 0.03250723 -0.82325548 -0.55928367 -0.097222976 0
0.019346695 -0.069050364 0.031897545 0.79488808 -0.59714895 -0.10754558 0
0.021072421 -0.066614628 0.032427575 0.82873434 -0.54401183 -0.13134125 0
-0.042934988 -0.062542066 0.032436319 -0.90899187 -0.40630522 -0.093003906 0
0.023581909 -0.062570497 0.032637585 0.87791979 -0.46366486 -0.11946482 0
-0.045190968 -0.05586087 0.032996379 -0.97101116 -0.22827893 -0.070893541 0
-0.044552229 -0.058089063 0.032340407 -0.95864838 -0.27209926 -0.083397716 0
0.024873409 -0.058739144 0.031795096 0.97880924 -0.11631963 -0.1685297 0
0.025323644 -0.057038788 0.032967314 0.97398013 -0.18264721 -0.13417469 0
-0.045763496 -0.052437752 0.032479316 -0.98610049 -0.14282 -0.084901556 0
0.025973167 -0.052540526 0.032591365 0.98805201 -0.11702131 -0.10029592 0
-0.046202719 -0.047361471 0.032393649 -0.99731475 -0.019895963 -0.070480257 0
0.026133193 -0.047572322 0.032480791 0.99303621 0.049216565 -0.10703634 0
-0.046239406 -0.042458754 0.032542102 -0.99374545 0.073939487 -0.083683722 0
0.024960298 -0.040447362 0.030105585 0.96086371 0.20639807 -0.18477243 0
0.025614271 -0.042423971 0.032656334 0.98307467 0.15771337 -0.093222633 0
-0.045483824 -0.038375828 0.032977816 -0.96368515 0.2604526 -0.058953211 0
-0.044467576 -0.035995502 0.031815547 -0.8633396 0.42287403 -0.27535877 0
0.024333267 -0.037011914 0.032398984 0.94900328 0.29563671 -0.10950721 0
0.025126766 -0.039376114 0.033645548 0.97008747 0.2323827 -0.070204198 0
-0.042737883 -0.032391384 0.032267012 -0.86970854 0.46795729 -0.15691736 0
0.022535246 -0.032444097 0.032537051 0.89578658 0.43305749 -0.10013805 0
-0.040708546 -0.028830122 0.032728057 -0.83176321 0.5441184 -0.11002284 0
-0.038995024 -0.026428876 0.032567907 -0.78856277 0.60731924 -0.0966032 0
0.018855663 -0.026374405 0.032626662 0.80280381 0.58831751 -0.09689489 0
0.020688854 -0.028988566 0.032998122 0.83971262 0.53549892 -0.09013135 0
-0.036387313 -0.023440067 0.03271972 -0.708606 0.70011348 -0.087855801 0
-0.033762597 -0.021097435 0.032132816 -0.6397807 0.76451045 -0.078767739 0
0.013884039 -0.020949498 0.032240529 0.67749488 0.72768033 -0.10715417 0
0.016367286 -0.023377765 0.032593027 0.73287433 0.67328787 -0.097871155 0
-0.031198621 -0.01904734 0.032754485 -0.57869154 0.81126916 -0.083417743 0
-0.027526224 -0.016884588 0.032421369 -0.47204372 0.8788656 -0.0690649 0
-0.024274779 -0.015309595 0.032221656 -0.40598145 0.9120599 -0.057670273 0
0.0049400092 -0.015031742 0.030986924 0.37580687 0.92421615 -0.067777731 0
0.007812826 -0.016491711 0.032386355 0.50163633 0.86167949 -0.076612659 0
0.011366959 -0.018796571 0.032472905 0.59648567 0.7966308 -0.097899079 0
-0.02186027 -0.014366438 0.032712054 -0.33858818 0.94071525 -0.020319493 0
-0.017390097 -0.013060549 0.03252976 -0.23365168 0.97060037 -0.057807636 0
-0.012560359 -0.012148325 0.032448091 -0.11794191 0.98878646 -0.09160237 0
-0.007568371 -0.011818931 0.032444876 -0.032155614 0.99651599 -0.076954037 0
-0.002410308 -0.012220927 0.032363087 0.18322064 0.97645783 -0.11384287 0
0.002404521 -0.013797452 0.032710765 0.39239657 0.91964966 -0.016413938 0
0.0050108396 -0.014834728 0.034832072 0.4293938 0.90291733 0.019008877 0
-0.0086942781 -0.085050151 0.036592346 0.008108587 -0.99966532 0.024565293 0
-0.026109828 -0.080615819 0.037459213 -0.44536191 -0.89488626 0.028833391 0
-0.022524426 -0.082149312 0.037448384 -0.3552379 -0.93437362 0.02742203 0
-0.017535172 -0.083681263 0.037517659 -0.24548264 -0.9693495 -0.0099884421 0
-0.012390686 -0.084594458 0.037607234 -0.052126292 -0.99826223 0.027483175 0
-0.0073926537 -0.084653191 0.037583038 0.06990777 -0.9949367 0.072206669 0
-0.0026566673 -0.083724543 0.037523542 0.25921431 -0.96154547 0.090764798 0
0.0025645802 -0.081999913 0.037357725 0.37216392 -0.92696279 0.047265209 0
0.006046562 -0.080456287 0.037473097 0.45088172 -0.89074939 0.057194885 0
-0.031817731 -0.07700783 0.037419118 -0.60872811 -0.79265451 0.033894852 0
-0.028693387 -0.079180092 0.037517469 -0.51747173 -0.85532749 0.025258003 0
0.0084969895 -0.079097487 0.037614856 0.50458246 -0.86078674 0.066653714 0
0.0121386 -0.076676801 0.037495852 0.60191023 -0.79707229 0.048782922 0
-0.036900684 -0.072233126 0.037459433 -0.75662744 -0.6530152 0.0329559 0
-0.034566276 -0.074716114 0.037652832 -0.67991042 -0.73206776 0.042409368 0
0.014617585 -0.074654907 0.037239347 0.67908949 -0.73348838 0.028849391 0
0.017026912 -0.072152242 0.037488442 0.74442339 -0.66697156 0.031348012 0
-0.04096904 -0.066603996 0.037471768 -0.85457307 -0.51724333 0.046520546 0
-0.039387017 -0.069052309 0.037763517 -0.82129872 -0.56775683 0.055861991 0
0.019338896 -0.069372892 0.037709467 0.7928881 -0.6081323 0.038775939 0
0.021320712 -0.0667243 0.037360899 0.81114268 -0.58465618 0.01498646 0
-0.043119449 -0.06237679 0.037445962 -0.92087251 -0.38714889 0.045930281 0
0.023788951 -0.062656395 0.037522461 0.89451838 -0.44259331 0.062833987 0
0.025106551 -0.06033431 0.035613868 0.97560316 -0.20733759 -0.072178341 0
-0.045232888 -0.055842154 0.037551738 -0.97319216 -0.22398803 0.05221419 0
-0.044524733 -0.058468815 0.037476841 -0.95599771 -0.28871271 0.052090682 0
0.024895841 -0.05988333 0.038135551 0.93981993 -0.34159243 0.0072914646 0
0.025419254 -0.057463013 0.037361227 0.98644322 -0.16394322 0.0072394218 0
-0.04582369 -0.05259908 0.037605934 -0.98801357 -0.14699376 0.04713773 0
0.02613287 -0.052543882 0.037486754 0.99410158 -0.10484245 0.027747706 0
-0.046278723 -0.047410551 0.037610114 -0.9973911 -0.026927255 0.066977613 0
0.026323065 -0.047702923 0.037702896 0.99833244 0.035171818 0.045772992 0
-0.046141922 -0.042854797 0.037601862 -0.99459034 0.069633737 0.077078894 0
0.025763568 -0.042505331 0.037814006 0.98537427 0.16355978 0.047810279 0
-0.045537699 -0.037970994 0.037276339 -0.96577966 0.2453413 0.084126011 0
-0.044742163 -0.035954557 0.038092904 -0.92490971 0.36194599 0.11634916 0
0.024460634 -0.037012838 0.037807699 0.95235449 0.29930043 0.058653209 0
0.025165647 -0.039251998 0.037007824 0.96910715 0.24411353 0.035212286 0
-0.043203216 -0.03233644 0.037476011 -0.87258869 0.48811215 -0.018312689 0
0.022740969 -0.032511659 0.037376028 0.90363944 0.42662472 0.037777435 0
-0.040903389 -0.028751316 0.037652537 -0.83613896 0.54851717 0.00065605924 0
-0.039175738 -0.026331713 0.037629303 -0.7846483 0.61911523 0.031990424 0
0.0190257 -0.026337516 0.037516013 0.80997473 0.58539236 0.035448141 0
0.020718265 -0.028835734 0.037597518 0.84525043 0.53306007 0.037398849 0
-0.036511131 -0.023345202 0.037428349 -0.70857483 0.70496005 0.03086929 0
-0.033779394 -0.020848263 0.037427094 -0.63272107 0.77331614 0.040573429 0
0.014138646 -0.02091906 0.037673417 0.67309684 0.73866343 0.036291368 0
0.01644038 -0.023200758 0.037676495 0.73242849 0.67998201 0.034247331 0
-0.031309448 -0.019001003 0.03732872 -0.56750828 0.82261723 0.035147235 0
-0.027546516 -0.016858598 0.037490871 -0.44002199 0.89641154 0.053169474 0
-0.024121687 -0.015329457 0.037524998 -0.37293187 0.92568338 0.063497864 0
0.0048749247 -0.01506546 0.039833013 0.381834 0.91765577 0.11004908 0
0.0076740407 -0.016351501 0.03766067 0.48410994 0.87332737 0.054192845 0
0.011549428 -0.018772118 0.037246808 0.59434587 0.80349731 0.033839095 0
-0.021681458 -0.014419471 0.037195537 -0.32282773 0.94470638 0.057551637 0
-0.017314419 -0.013105428 0.03750556 -0.25957078 0.96314228 0.070568077 0
-0.012195153 -0.011995766 0.037457664 -0.17989825 0.97979414 0.087407589 0
-0.0076586679 -0.011639655 0.037607782 0.014673124 0.9968614 0.077793978 0
-0.002395944 -0.012321101 0.037385598 0.25950491 0.96062452 0.099286407 0
0.0026476844 -0.013989132 0.037380606 0.35964996 0.93178034 0.049368255 0
0.0050879847 -0.014964756 0.037686136 0.43910542 0.89693666 0.05187548 0
-0.025740176 -0.080364592 0.042006485 -0.44889259 -0.88098741 0.14952122 0
-0.02260498 -0.081636786 0.042850375 -0.3827419 -0.916695 0.11479969 0
-0.017598974 -0.083362103 0.042468622 -0.25526357 -0.95671785 0.13975528 0
-0.012266248 -0.084219128 0.042723555 -0.049685195 -0.98650998 0.1559791 0
-0.0072866818 -0.083820216 0.04269325 0.14573991 -0.96395493 0.22259977 0
-0.0023668506 -0.082909659 0.042544402 0.2338845 -0.94917363 0.21063565 0
0.0025841719 -0.081305929 0.04264101 0.36597145 -0.90776575 0.20500305 0
0.005339371 -0.080306567 0.041630052 0.44204959 -0.88095754 0.16883706 0
-0.03175059 -0.076419331 0.042386595 -0.6159355 -0.76966715 0.16803586 0
-0.028341444 -0.07880079 0.042491727 -0.51614779 -0.8384552 0.17488378 0
0.0047224471 -0.079856232 0.044745199 0.42797217 -0.8609761 0.27488178 0
0.0077306763 -0.078746744 0.042686071 0.48731434 -0.8494606 0.20233989 0
0.011603982 -0.076361842 0.042319894 0.57431483 -0.7959044 0.19156881 0
-0.036566861 -0.071815573 0.042489361 -0.74354136 -0.64323449 0.18274473 0
-0.034211133 -0.074138045 0.043046407 -0.67053318 -0.71466333 0.19910166 0
0.014090557 -0.074173369 0.04315912 0.64897209 -0.72826433 0.22015066 0
0.016830275 -0.071657106 0.042376056 0.72853142 -0.66137362 0.17840086 0
-0.040621888 -0.06624829 0.042122047 -0.84635103 -0.50818086 0.15950611 0
-0.03898941 -0.068508074 0.042947233 -0.81074589 -0.55345702 0.19072592 0
0.019170238 -0.068745434 0.042688865 0.78677714 -0.58953261 0.18284696 0
0.021039693 -0.066245563 0.042268131 0.82009399 -0.54741776 0.16667204 0
-0.04242767 -0.062523536 0.04267136 -0.90043223 -0.39588666 0.18026507 0
0.023242051 -0.062463898 0.042548288 0.87123579 -0.44455317 0.20813601 0
-0.045102626 -0.055333216 0.040590372 -0.96781969 -0.22176538 0.11893397 0
-0.044137724 -0.057647735 0.042700324 -0.9493956 -0.26125139 0.174344 0
0.024753172 -0.058830421 0.043296587 0.87993705 -0.37709126 0.28898609 0
0.025349451 -0.05700247 0.042188417 0.98311728 -0.14737974 0.10844133 0
-0.045418367 -0.052198086 0.042140104 -0.97596192 -0.13844256 0.16832164 0
-0.044806369 -0.053701114 0.044084463 -0.96006697 -0.18463403 0.21019427 0
0.024905575 -0.053972214 0.044805411 0.93083984 -0.12261575 0.34424219 0
0.025615245 -0.05263754 0.042668708 0.97947747 -0.063253909 0.1913708 0
-0.045636903 -0.047706842 0.042611107 -0.98227525 -0.0096307378 0.18719649 0
0.025753699 -0.047597241 0.042405423 0.98374468 0.036801785 0.17576131 0
-0.045522954 -0.042795539 0.042034302 -0.96974397 0.1160016 0.21480292 0
-0.044848546 -0.041535232 0.044376347 -0.95741081 0.12608354 0.25974506 0
0.024797458 -0.041144051 0.043720998 0.95957214 0.19453387 0.20341541 0
0.025356051 -0.042909935 0.042187855 0.9757489 0.14978325 0.15962189 0
-0.045088787 -0.038404785 0.041040476 -0.99112803 0.082445644 0.10424967 0
-0.044481151 -0.037163928 0.042764436 -0.9393875 0.22414531 0.25944182 0
0.024005525 -0.037304007 0.042500362 0.94246006 0.2926634 0.16160835 0
0.025002589 -0.039552752 0.040244579 0.96665043 0.23379211 0.10453816 0
-0.042773701 -0.03249323 0.042505495 -0.87640768 0.43908927 0.19776291 0
0.022155154 -0.032516219 0.042495407 0.89037567 0.42071205 0.17387444 0
-0.040754493 -0.028886192 0.042541798 -0.85435951 0.50878042 0.10588778 0
-0.038698852 -0.026298663 0.042717189 -0.72229558 0.68574727 0.089664713 0
0.018662645 -0.026785836 0.042740814 0.79450858 0.5820635 0.17308402 0
0.02048536 -0.029212106 0.041942358 0.83968943 0.52103943 0.15310015 0
-0.036428042 -0.023861783 0.042383298 -0.70998347 0.69729298 0.098518595 0
-0.033537652 -0.021300977 0.042470075 -0.63240463 0.7615245 0.14193223 0
0.013613198 -0.021225944 0.042675883 0.64613414 0.73912901 0.19026014 0
0.01623562 -0.023679575 0.042322062 0.72633255 0.66624385 0.16899729 0
-0.030913783 -0.019262563 0.042205129 -0.55570811 0.82057196 0.13360433 0
-0.027693605 -0.017482605 0.042654868 -0.44808787 0.88371819 0.13512725 0
-0.023477741 -0.01571599 0.043071173 -0.37797487 0.91360343 0.14987928 0
0.0041450071 -0.015286874 0.042852152 0.3764419 0.90677077 0.18989022 0
0.007697158 -0.01698599 0.042475931 0.48161325 0.85857046 0.17579943 0
0.011120417 -0.019149102 0.042476378 0.59170979 0.78345466 0.18994296 0
-0.020966267 -0.014567709 0.042571202 -0.40226233 0.91295093 0.06859716 0
-0.017519942 -0.013578149 0.042464279 -0.2245865 0.97166866 0.07362628 0
-0.012484955 -0.012574836 0.042563781 -0.18763703 0.96336299 0.19163527 0
-0.0074362815 -0.012221546 0.042321559 0.066398658 0.97836322 0.19595078 0
-0.0025513871 -0.013198921 0.042665709 0.21683362 0.95149028 0.21828771 0
0.0018610975 -0.014318206 0.042238183 0.3132374 0.93269712 0.1787691 0
-0.021951618 -0.081090152 0.04719191 -0.45484179 -0.82481086 0.33586603 0
-0.017523997 -0.082285285 0.047482688 -0.17963225 -0.94160783 0.28479296 0
-0.012471734 -0.08283218 0.047524229 0.001862544 -0.93061 0.3660076 0
-0.0075426688 -0.082433291 0.047576629 0.1226718 -0.93274194 0.33903396 0
-0.0023377303 -0.081457213 0.047490399 0.23970561 -0.91006523 0.33811614 0
0.0016132058 -0.08058539 0.046474844 0.33748165 -0.88274735 0.3268995 0
-0.030794125 -0.075940028 0.046758987 -0.61562824 -0.74089354 0.26847467 0
-0.027776625 -0.07777983 0.047512736 -0.51154745 -0.82545441 0.23863015 0
-0.023770802 -0.079513505 0.048587993 -0.3739019 -0.86468685 0.33543101 0
-0.00017894432 -0.079917639 0.049679786 0.29467767 -0.85995716 0.41669992 0
0.0030221536 -0.079208277 0.048412766 0.37212873 -0.85143572 0.36956388 0
0.0073706065 -0.077325299 0.047637306 0.46878961 -0.81713212 0.335457 0
0.010787254 -0.075594023 0.046654765 0.54386544 -0.78293353 0.30203572 0
-0.035820663 -0.070985973 0.046954717 -0.72351301 -0.62366819 0.29591718 0
-0.033125188 -0.073294029 0.047981977 -0.65866679 -0.68047279 0.32111505 0
0.013037126 -0.073334247 0.047690671 0.62022829 -0.71267724 0.32773161 0
0.015853466 -0.070973724 0.04697109 0.69798601 -0.64150518 0.31825563 0
-0.040287696 -0.065231711 0.045894571 -0.83655834 -0.46845713 0.28410915 0
-0.038043611 -0.067717351 0.04751242 -0.78273851 -0.53432751 0.31908375 0
0.018058036 -0.067823924 0.047838219 0.75282615 -0.56310087 0.34083748 0
0.020371404 -0.065742575 0.045854378 0.80219591 -0.53189862 0.27122965 0
-0.041285057 -0.062206842 0.047293086 -0.86081898 -0.39587468 0.31980315 0
-0.03966783 -0.064143494 0.048959188 -0.82324713 -0.43300572 0.36711061 0
0.019652788 -0.064512879 0.049363114 0.77602136 -0.50118953 0.38288376 0
0.021744356 -0.062460888 0.04731562 0.83566529 -0.45465872 0.30813774 0
-0.042890225 -0.057685178 0.047418147 -0.91153675 -0.26365608 0.31557295 0
0.023822367 -0.057567794 0.047513019 0.90774882 -0.31904656 0.27239904 0
-0.045029163 -0.050329998 0.045150395 -0.96313798 -0.070516437 0.25960106 0
-0.043975782 -0.052579284 0.047536541 -0.9356966 -0.14104155 0.32338706 0
0.024451176 -0.052685741 0.047849488 0.97184849 -0.017623417 0.23494665 0
0.025148524 -0.051433157 0.045544177 0.98363554 -0.080782399 0.16104427 0
-0.045076091 -0.048137609 0.04521428 -0.96774197 -0.0058473637 0.25187552 0
-0.044221535 -0.047700353 0.047890298 -0.94328129 0.00089707499 0.33199337 0
0.024346609 -0.047586732 0.048070148 0.94562459 0.044778626 0.32216293 0
0.025155291 -0.047793236 0.045425843 0.96534222 0.046594068 0.25679427 0
-0.043971278 -0.042381197 0.047478322 -0.93782693 0.13490446 0.31981474 0
0.024014112 -0.042669043 0.047526162 0.94250786 0.15168396 0.29777676 0
0.025014943 -0.044951923 0.045266666 0.96064276 0.087264642 0.26372418 0
-0.042977639 -0.037732363 0.047549743 -0.90920645 0.24080998 0.33963838 0
0.022743413 -0.037475932 0.04767137 0.90766412 0.29113129 0.30230537 0
-0.041375224 -0.032747846 0.047395434 -0.86837476 0.33529195 0.36538267 0
-0.039556332 -0.030635042 0.049335361 -0.71112937 0.50687897 0.48720494 0
0.019512288 -0.030884055 0.048694875 0.81838036 0.46973327 0.33106539 0
0.021137519 -0.032999709 0.047142126 0.86416191 0.4090541 0.2930854 0
-0.040385038 -0.029246515 0.046024591 -0.86292988 0.45357484 0.22275947 0
-0.037907284 -0.027131751 0.047687117 -0.7295599 0.59394735 0.33907056 0
0.014959142 -0.025121033 0.04943689 0.67758328 0.64269 0.35753381 0
0.017691353 -0.027472379 0.047442332 0.76651186 0.56664395 0.3022818 0
0.020165863 -0.029957658 0.045296937 0.8264634 0.50697124 0.24482322 0
-0.035776392 -0.024295121 0.046899475 -0.62488127 0.71697152 0.30899069 0
-0.032808632 -0.021822672 0.047830641 -0.63661122 0.73331654 0.23869003 0
-0.029106192 -0.020131793 0.049717002 -0.28171262 0.85105807 0.44310063 0
0.0095571196 -0.020420516 0.049316812 0.51798701 0.77151823 0.36939022 0
0.012750708 -0.022176543 0.0475269 0.62101173 0.71969181 0.31046462 0
0.015737537 -0.024454979 0.046312775 0.71340662 0.6452539 0.27331012 0
-0.030450834 -0.019608391 0.04654194 -0.60799193 0.7859996 0.11202854 0
-0.027388699 -0.018258063 0.047411505 -0.38312405 0.89249891 0.23803712 0
-0.022629652 -0.016381059 0.047789361 -0.35937425 0.89334339 0.26979199 0
-0.019006805 -0.015454895 0.049176086 -0.41099241 0.7842586 0.46478346 0
-0.012624251 -0.015132922 0.049604345 -0.022344101 0.93687195 0.34895799 0
-0.0069858455 -0.015095208 0.04981498 0.043479525 0.92500883 0.37744954 0
-0.0020120968 -0.015408973 0.0491831 0.17473522 0.91351861 0.36735734 0
0.0026744539 -0.016207607 0.047828007 0.32327181 0.88679969 0.33027497 0
0.0075332639 -0.018319117 0.047334418 0.48122874 0.81645578 0.31909049 0
0.010501245 -0.019724319 0.046026736 0.57142437 0.775002 0.26989993 0
-0.020485178 -0.014642532 0.045843851 -0.54044181 0.80544537 0.24327001 0
-0.017269181 -0.014239522 0.047346108 -0.11279975 0.95503455 0.27419928 0
-0.012583027 -0.013918011 0.047140036 -0.0067316229 0.91413242 0.40535983 0
-0.0074521368 -0.014120559 0.047396906 0.035536438 0.92321318 0.38264161 0
-0.0027837735 -0.01440584 0.046828181 0.16026649 0.93255895 0.32349414 0
0.0007434187 -0.014786934 0.045691375 0.27728021 0.91560346 0.29118031 0
-0.020260857 -0.080358222 0.05029168 -0.65852028 -0.52867544 0.53558683 0
-0.017079344 -0.080865234 0.051380962 -0.10423636 -0.86369145 0.4931246 0
-0.012550028 -0.080846712 0.051828105 -0.021850877 -0.8773669 0.4793222 0
-0.0075541441 -0.080809332 0.051354077 0.11042169 -0.89086026 0.44065297 0
-0.0036030684 -0.080409795 0.050762739 0.21740592 -0.87336004 0.43586349 0
-0.02720893 -0.076576531 0.052086379 -0.5866791 -0.67631787 0.44542325 0
-0.022425212 -0.078429967 0.052612785 -0.27961999 -0.88235021 0.3785114 0
-0.018028235 -0.079151332 0.053571537 -0.16186191 -0.82513922 0.5412448 0
-0.012384082 -0.079437524 0.054334804 -0.014679655 -0.8459478 0.53306365 0
-0.0072311237 -0.079324961 0.054026317 0.11432527 -0.85768712 0.50130093 0
-0.0023010196 -0.078852475 0.052963831 0.24696179 -0.84497583 0.47436869 0
0.0024400277 -0.077465646 0.052393295 0.34482524 -0.81794244 0.46050596 0
0.0066304859 -0.075892068 0.051615287 0.44385481 -0.7874496 0.42768684 0
-0.035158269 -0.070053287 0.050132595 -0.72145301 -0.58296472 0.37370807 0
-0.031886183 -0.072237909 0.052012518 -0.63142616 -0.65867239 0.4092086 0
-0.028631359 -0.074263304 0.053320687 -0.54102993 -0.71009922 0.45060593 0
0.0049163611 -0.074822523 0.054922469 0.41497439 -0.74505007 0.52220362 0
0.008373077 -0.073970973 0.053029582 0.49046233 -0.7305674 0.47509789 0
0.011992791 -0.071814209 0.052024502 0.5968883 -0.66042846 0.45558593 0
-0.036326654 -0.066924311 0.052189335 -0.74579555 -0.50794429 0.43102384 0
-0.034346029 -0.068930738 0.053065144 -0.70812851 -0.55654556 0.43452394 0
0.013966364 -0.068819307 0.053386588 0.65237045 -0.5774653 0.49086314 0
0.01641505 -0.066872217 0.052143123 0.70556134 -0.53863615 0.46049351 0
-0.040332124 -0.060862038 0.0509464 -0.83359659 -0.36322349 0.41615546 0
-0.038462207 -0.062790044 0.052639 -0.79623955 -0.40275791 0.45142958 0
0.018481325 -0.062996477 0.052983332 0.74744189 -0.44579807 0.49253905 0
0.02066472 -0.061315484 0.051094279 0.79289234 -0.43392187 0.42782414 0
-0.041069347 -0.057068106 0.052080326 -0.86204928 -0.24770354 0.44216967 0
-0.039527331 -0.058564741 0.054063801 -0.82370341 -0.29023445 0.48711053 0
0.019698586 -0.05908829 0.054332007 0.77632189 -0.39313453 0.49271649 0
0.021649985 -0.057327721 0.052384973 0.81370062 -0.31418243 0.48906097 0
-0.041937076 -0.052572504 0.052289452 -0.88231581 -0.13675947 0.45035058 0
0.022672255 -0.05251551 0.052522503 0.88880974 -0.07448668 0.45218244 0
-0.042257208 -0.047470737 0.052415196 -0.89003593 0.0004233745 0.45589021 0
0.022499582 -0.047584731 0.052661628 0.91332728 0.098507755 0.39513221 0
-0.041736692 -0.04243727 0.052727528 -0.87360084 0.13243592 0.46827582 0
0.021889141 -0.042440489 0.052736413 0.88414359 0.15337408 0.44132358 0
-0.041023862 -0.037782155 0.051997252 -0.85003507 0.27374148 0.45000643 0
-0.039304115 -0.036325421 0.054033872 -0.78978485 0.31337714 0.52728987 0
0.019493988 -0.036385927 0.054161187 0.81996256 0.31858242 0.47556973 0
0.021024833 -0.037662849 0.052064266 0.86147505 0.28624555 0.41943318 0
-0.040344052 -0.034005377 0.050809775 -0.83980054 0.32176283 0.43726835 0
-0.03828093 -0.032229375 0.052705232 -0.7589497 0.40266255 0.5117209 0
0.018274216 -0.032279301 0.052678023 0.77412164 0.44669858 0.44854879 0
0.020354684 -0.0341134 0.05066419 0.84189111 0.39343837 0.36935833 0
-0.036409028 -0.02831912 0.052048013 -0.69402659 0.51818669 0.49980959 0
-0.033671413 -0.026255861 0.05348355 -0.65784174 0.52388591 0.54109871 0
0.013676699 -0.026193339 0.053063318 0.65138525 0.60317129 0.46030602 0
0.016226308 -0.028420677 0.051934339 0.7266233 0.53486943 0.43119982 0
-0.031794768 -0.02323005 0.052000839 -0.58481419 0.64696741 0.48931131 0
-0.027986784 -0.021348733 0.053129356 -0.4508796 0.72024065 0.52722001 0
-0.024054637 -0.020202165 0.054575596 -0.27399671 0.76092261 0.58815187 0
0.0042921626 -0.020113381 0.054476049 0.39446357 0.76109737 0.51490706 0
0.008073858 -0.021476667 0.052951217 0.49335042 0.73533249 0.46464118 0
0.011548896 -0.023520818 0.052082345 0.57887781 0.69019842 0.43419656 0
-0.026429281 -0.019170731 0.051594563 -0.46088216 0.77623504 0.43017069 0
-0.022481818 -0.018351832 0.052476566 -0.27515551 0.82796639 0.48863184 0
-0.017501585 -0.0169954 0.052419771 -0.17361505 0.84325284 0.50870657 0
-0.012671112 -0.016365733 0.052435841 -0.056113876 0.89978105 0.43271837 0
-0.007417527 -0.016389102 0.052759837 0.036112409 0.90167618 0.43090129 0
-0.0026787994 -0.016814161 0.052557535 0.16234362 0.88449949 0.43738461 0
0.002208876 -0.018216575 0.052681167 0.31258675 0.83902127 0.44534579 0
0.0059314524 -0.01923231 0.051457949 0.44733748 0.79062366 0.41809496 0
-0.025345379 -0.075335361 0.055153914 -0.65755177 -0.36469269 0.65926099 0
-0.022188479 -0.076316915 0.056369592 -0.26123777 -0.70635825 0.65788513 0
-0.017485492 -0.076625757 0.057304587 -0.16246608 -0.77498657 0.61073768 0
-0.012298668 -0.0771152 0.057614867 -0.044742525 -0.79016811 0.61125481 0
-0.0075488561 -0.076930411 0.057656277 0.10471217 -0.79228991 0.60109234 0
-0.0028420507 -0.07655362 0.056823358 0.23012336 -0.78833961 0.57058209 0
0.0018763724 -0.075558074 0.055837408 0.33325726 -0.76747346 0.54765326 0
-0.030896029 -0.07068444 0.056238461 -0.55762845 -0.75852776 0.33717391 0
-0.027331935 -0.072245039 0.057464156 -0.44310638 -0.72448421 0.52799565 0
-0.022764677 -0.073666193 0.058593813 -0.3277657 -0.64643145 0.68898189 0
-0.018225683 -0.074527659 0.059555762 -0.21193969 -0.69581938 0.68623394 0
-0.0055308607 -0.074855506 0.059836656 0.16276328 -0.71704936 0.67775238 0
-0.0015576266 -0.07436052 0.059133112 0.25081331 -0.73303413 0.63226074 0
0.0029290267 -0.073303796 0.058073819 0.3550573 -0.71362722 0.60387957 0
0.0070230234 -0.071756594 0.057098519 0.45512107 -0.66762698 0.58918506 0
0.010697479 -0.070395663 0.055446252 0.56479371 -0.63127178 0.53151119 0
-0.035254765 -0.065758631 0.055179864 -0.70629537 -0.48252079 0.51799655 0
-0.032401554 -0.067432381 0.057242934 -0.67313862 -0.47744447 0.56473988 0
-0.029288316 -0.068698287 0.059367519 -0.54244196 -0.25816485 0.79944211 0
0.0084542129 -0.068870656 0.059010264 0.50300735 -0.58756649 0.63383704 0
0.012198039 -0.067065209 0.057215925 0.60370475 -0.53726685 0.58896941 0
0.0153288 -0.065462969 0.055207636 0.68473357 -0.49676725 0.53325635 0
-0.036151759 -0.062082 0.056812357 -0.74894339 -0.38046008 0.54252553 0
-0.033800744 -0.063264079 0.05892643 -0.70363736 -0.34006768 0.62389773 0
0.013751797 -0.063003786 0.058813319 0.63974309 -0.41531003 0.64671981 0
0.016389417 -0.061885349 0.056693189 0.69853187 -0.41256994 0.58467019 0
-0.037599415 -0.057437636 0.057468906 -0.77410257 -0.25556833 0.57918036 0
0.01491515 -0.059998196 0.059467155 0.6484766 -0.36081013 0.67029417 0
0.017815158 -0.057640094 0.057529435 0.71757698 -0.31167519 0.62284976 0
0.020303909 -0.056345176 0.055245399 0.69623643 -0.16484728 0.69862741 0
-0.040255763 -0.052460756 0.055377223 -0.83876485 -0.1302285 0.52869081 0
-0.038525984 -0.052650608 0.05778468 -0.79308897 -0.12032814 0.59710217 0
0.018640352 -0.052624434 0.058444791 0.74105257 -0.17227761 0.64896965 0
0.020744147 -0.052326743 0.056071151 0.80989951 -0.096136861 0.57863683 0
-0.040441211 -0.047512252 0.055650111 -0.8403722 0.0050497996 0.54198611 0
-0.038491908 -0.047602136 0.058282081 -0.77655381 0.01215353 0.62993371 0
0.018908469 -0.047651436 0.058933549 0.72696537 0.0037085523 0.68666404 0
0.020806657 -0.047533024 0.056449171 0.86806935 0.025205782 0.49580267 0
-0.040286608 -0.043103103 0.055379756 -0.82573938 0.12110454 0.5508976 0
-0.038280562 -0.0425236 0.057934381 -0.76777673 0.13814433 0.62564766 0
0.018791975 -0.042378422 0.057920597 0.80718219 0.22217384 0.5468964 0
0.020464582 -0.043233648 0.055525497 0.7958715 0.18549681 0.57635009 0
-0.037344832 -0.037546292 0.057377037 -0.75256675 0.28481838 0.59373552 0
-0.03466361 -0.035870317 0.059761576 -0.67492771 0.29223993 0.67754591 0
0.014816896 -0.035117202 0.059695788 0.71960384 0.28958687 0.63111794 0
0.017624211 -0.037439633 0.057519842 0.7690199 0.29268771 0.56828004 0
-0.036059771 -0.033031862 0.0563371 -0.71209162 0.3981888 0.57824838 0
-0.033615887 -0.031954426 0.058353595 -0.63986874 0.44150808 0.6289981 0
0.013404389 -0.03163578 0.058762103 0.6376127 0.47042871 0.61003846 0
0.016245034 -0.033125579 0.056567091 0.72494012 0.42874342 0.53911126 0
-0.031931881 -0.02802803 0.05692184 -0.58562332 0.53706419 0.60713035 0
-0.028061409 -0.026318777 0.058748394 -0.50416821 0.60060436 0.62055534 0
-0.024875399 -0.02502309 0.059772782 -0.40448317 0.65194798 0.64137131 0
0.0082079154 -0.026233055 0.058891211 0.49317923 0.61714399 0.61311299 0
0.011740758 -0.027826473 0.057154853 0.59969395 0.55843687 0.57316262 0
