# .PCD v0.7 - Point Cloud Data file format
VERSION 0.7
FIELDS x y z normal_x normal_y normal_z curvature
SIZE 4 4 4 4 4 4 4
TYPE F F F F F F F
COUNT 1 1 1 1 1 1 1
WIDTH 648
HEIGHT 1
VIEWPOINT 0 0 0 1 0 0 0
POINTS 648
DATA ascii
0.025893779 -0.065742142 0.014163369 0.507402 -0.62749636 -0.59058583 0
-0.011564746 -0.061718069 0.013216811 -0.60758549 -0.501854 -0.61561543 0
-0.0082279323 -0.063086636 0.0115934 -0.49082363 -0.60761791 -0.62441379 0
-0.0043386188 -0.064595357 0.010366919 -0.42957345 -0.70381039 -0.56578934 0
0.023840707 -0.063979991 0.010887576 0.46200904 -0.57631946 -0.67409456 0
0.027469253 -0.062453691 0.012578355 0.58256727 -0.52210355 -0.62291509 0
0.030550765 -0.060852583 0.014300816 0.6642586 -0.49893227 -0.55662102 0
-0.015902331 -0.056477472 0.013578889 -0.71721298 -0.4727838 -0.51193851 0
-0.013443592 -0.058117658 0.012062431 -0.6639052 -0.50529122 -0.55128092 0
0.028952174 -0.058506299 0.011079477 0.609626 -0.43749347 -0.66102612 0
0.031671859 -0.05711782 0.013036759 0.69806278 -0.40508634 -0.59043485 0
-0.01715922 -0.052416414 0.012644218 -0.75223988 -0.28108749 -0.59592366 0
-0.014578266 -0.054224771 0.010471234 -0.67228454 -0.36358958 -0.64485359 0
0.032970253 -0.052575327 0.012125606 0.74781805 -0.24210639 -0.61818498 0
0.035339918 -0.050916091 0.014494549 0.81813765 -0.25398275 -0.51589102 0
-0.018138861 -0.047482323 0.012493424 -0.78325325 -0.073000133 -0.61740196 0
0.033796482 -0.047517236 0.011668687 0.76201051 -0.082727946 -0.64225858 0
0.035737094 -0.047099624 0.01407893 0.83891469 -0.074865714 -0.53908926 0
-0.018240374 -0.042437803 0.01257153 -0.80294943 0.063208073 -0.5926863 0
0.033798561 -0.042431585 0.011416687 0.77687925 0.030158343 -0.62892699 0
0.035720732 -0.042599633 0.014048756 0.84097821 0.068651468 -0.53669596 0
-0.017302103 -0.037318192 0.012494572 -0.76758957 0.213229 -0.60443336 0
-0.014727362 -0.035437118 0.010230581 -0.68546748 0.28284231 -0.67092073 0
0.033464879 -0.037335902 0.012240182 0.79997116 0.25063956 -0.54518431 0
0.035320096 -0.039079819 0.014344051 0.8614279 0.20314819 -0.46548116 0
-0.016303398 -0.032937329 0.013210122 -0.72642606 0.32831466 -0.60375047 0
-0.013788105 -0.031873658 0.011080999 -0.64430362 0.35763398 -0.67599618 0
0.029121993 -0.031262148 0.010922813 0.64494073 0.5024153 -0.57587361 0
0.031693678 -0.032925349 0.012581608 0.72749966 0.38680404 -0.56668061 0
-0.015511953 -0.029241832 0.014447975 -0.72735888 0.40215132 -0.55607861 0
-0.012405046 -0.027571151 0.012488362 -0.60547459 0.48524335 -0.63082433 0
-0.00891669 -0.025843102 0.010796062 -0.49984601 0.55834633 -0.66212034 0
0.024390705 -0.025903456 0.010395596 0.42704317 0.37561965 -0.822523 0
0.027626891 -0.027263185 0.012003642 0.56553525 0.42182615 -0.70868373 0
0.030895153 -0.028583068 0.014033367 0.67443228 0.39374229 -0.6245864 0
-0.010968394 -0.02416474 0.014162811 -0.56876111 0.58496916 -0.5782057 0
-0.0073431819 -0.02281878 0.01248851 -0.4613634 0.62598097 -0.62872225 0
-0.0029720271 -0.021120867 0.0113082 -0.3461982 0.68463194 -0.64142489 0
0.0019616666 -0.020315964 0.01035106 -0.14793138 0.7108168 -0.68764514 0
0.0078114751 -0.020295788 0.010374615 0.11692774 0.81881779 -0.56201905 0
0.012826097 -0.020470046 0.010523235 0.012744868 0.63181812 -0.77501184 0
0.017907063 -0.021032132 0.011018564 0.27107209 0.66452974 -0.69636214 0
0.022433497 -0.022472952 0.011935695 0.39051768 0.63664353 -0.66496682 0
0.026555708 -0.023818903 0.013712187 0.57485682 0.56783819 -0.58915144 0
-0.0055354014 -0.019686917 0.014528831 -0.43312415 0.72146285 -0.54027289 0
-0.0020652902 -0.018783893 0.013613363 -0.29016557 0.76701397 -0.57227045 0
0.002496589 -0.018498521 0.01265325 -0.066615134 0.82953095 -0.55447334 0
0.0074922452 -0.018363724 0.012721043 -0.05295999 0.76895326 -0.63710761 0
0.012310239 -0.018034777 0.01293442 0.082964405 0.74540335 -0.6614309 0
0.01700973 -0.018654188 0.013426935 0.23027545 0.77229339 -0.59206098 0
0.020935643 -0.019516198 0.01423836 0.35875192 0.75978321 -0.54224217 0
0.004885077 -0.0750494 0.019958107 -0.1135157 -0.9206745 -0.3734605 0
0.0076277317 -0.075057648 0.019564318 -0.017390667 -0.8639397 -0.50329494 0
0.010857675 -0.075055286 0.019810952 0.15662007 -0.85460472 -0.49509692 0
-0.0064123017 -0.070879757 0.018759793 -0.45684695 -0.78530478 -0.41783649 0
-0.0025668312 -0.07219062 0.017732972 -0.32607892 -0.81351864 -0.48151836 0
0.0025404517 -0.073331833 0.017353384 -0.12134807 -0.83984232 -0.52909303 0
0.0075201457 -0.07333342 0.017130427 0.040773958 -0.8097688 -0.58533067 0
0.012290474 -0.073119566 0.017492216 0.10704872 -0.88177323 -0.4593654 0
0.017572274 -0.072095297 0.017403323 0.2438948 -0.89315289 -0.37787992 0
0.022020187 -0.070950173 0.018361256 0.40450734 -0.83766699 -0.3669984 0
-0.01173211 -0.06659282 0.01792134 -0.60778415 -0.64984876 -0.45639348 0
-0.0079622976 -0.068708114 0.016732601 -0.47919092 -0.73497427 -0.47978011 0
-0.0041249301 -0.069889754 0.015137392 -0.33869347 -0.77361655 -0.535541 0
0.02349619 -0.069123916 0.016497029 0.46025315 -0.74917501 -0.47634426 0
0.027205843 -0.067255735 0.017810632 0.57588875 -0.70614803 -0.41195509 0
0.030388488 -0.065329924 0.019445868 0.66837662 -0.64403528 -0.37214413 0
-0.016136428 -0.061837833 0.018465795 -0.73935163 -0.44515708 -0.50516766 0
-0.013689741 -0.063158073 0.016446577 -0.664671 -0.49139068 -0.56280351 0
0.029357443 -0.063900761 0.015965614 0.63312382 -0.57026196 -0.52340764 0
0.031940855 -0.062358692 0.01792804 0.7141481 -0.54559255 -0.4385446 0
-0.020034807 -0.05521059 0.019851414 -0.7699247 -0.56356126 -0.29935706 0
-0.017552298 -0.057415128 0.01728439 -0.7726655 -0.455322 -0.44234592 0
-0.014695566 -0.059621021 0.015179748 -0.69710672 -0.4358826 -0.56925267 0
0.033830173 -0.058159895 0.016706387 0.76907986 -0.39767945 -0.50036711 0
0.035711758 -0.056592818 0.018630438 0.82688737 -0.37205055 -0.4217056 0
-0.020847179 -0.052070204 0.018308392 -0.87072802 -0.27990738 -0.40433219 0
-0.019322541 -0.053350195 0.016213931 -0.80153143 -0.34312633 -0.48970571 0
0.034710757 -0.054710191 0.015494934 0.75432456 -0.31259343 -0.57730389 0
0.03668407 -0.05218954 0.017434383 0.86352175 -0.23235521 -0.447595 0
-0.021247495 -0.047419772 0.017353969 -0.87402207 -0.074555412 -0.4801321 0
-0.019906141 -0.048779272 0.01518404 -0.85236114 -0.13409995 -0.50546783 0
0.037453942 -0.047601737 0.017382121 0.90316707 -0.082572758 -0.42127311 0
-0.021364443 -0.042403229 0.017422138 -0.86885685 0.035374071 -0.49379799 0
-0.019854456 -0.040963057 0.015046182 -0.82404786 0.10862118 -0.55600953 0
0.037419587 -0.042506374 0.017473713 0.92314154 0.12482163 -0.36363339 0
-0.021120219 -0.037707377 0.018098932 -0.86195076 0.20561457 -0.46342587 0
-0.019480154 -0.036845211 0.015708085 -0.82909834 0.20452923 -0.52034956 0
0.034611385 -0.03551298 0.015405988 0.83926141 0.35606548 -0.41092274 0
0.036510479 -0.037620708 0.01765731 0.86758387 0.20028003 -0.45517701 0
-0.020425512 -0.03372921 0.01898109 -0.87763572 0.30526739 -0.36955011 0
-0.018795099 -0.032238279 0.017033717 -0.80877382 0.32587665 -0.48958075 0
0.034152947 -0.032570697 0.016087918 0.77740884 0.22553736 -0.58716983 0
0.036019094 -0.03281755 0.018532189 0.82777786 0.21000013 -0.52027279 0
-0.016872866 -0.027832026 0.017731298 -0.7466259 0.48943126 -0.45056283 0
-0.014328925 -0.026076814 0.015770154 -0.67605805 0.50407684 -0.53744948 0
0.029526031 -0.025381586 0.015338771 0.65711045 0.54411495 -0.52167493 0
0.032786384 -0.027606703 0.017422449 0.72238189 0.50058806 -0.47704929 0
0.035314914 -0.029713424 0.01931365 0.79756194 0.43546805 -0.41744766 0
-0.015308043 -0.024490792 0.019100942 -0.71295303 0.62080765 -0.32603055 0
-0.012428421 -0.022631459 0.017528282 -0.60204405 0.64696515 -0.46795192 0
-0.0089590084 -0.020732738 0.016077736 -0.50915718 0.69498515 -0.50769526 0
0.024420315 -0.02044015 0.015834169 0.47999877 0.74605751 -0.46151853 0
0.027870545 -0.022239311 0.017213468 0.59275311 0.67225963 -0.44352087 0
0.030668009 -0.024136491 0.01846477 0.68526423 0.59701622 -0.41711459 0
-0.01034832 -0.019653872 0.01937842 -0.55564708 0.74185544 -0.37537563 0
-0.0069752736 -0.018446706 0.017817829 -0.43793425 0.78656244 -0.43535405 0
-0.0025819074 -0.016679171 0.017466744 -0.27237141 0.86796194 -0.41527799 0
0.0021365501 -0.016128104 0.016863126 -0.088163495 0.84313893 -0.53041869 0
0.0073205843 -0.015748965 0.015915498 -0.15489277 0.7824297 -0.60316831 0
0.012680732 -0.015611022 0.016182333 0.14556985 0.83086354 -0.53709888 0
0.017772151 -0.016386474 0.017106818 0.28647274 0.82068878 -0.49437171 0
0.022543548 -0.018246207 0.017719019 0.44563237 0.77501619 -0.44806442 0
0.025713544 -0.019552823 0.018942943 0.51196909 0.74445832 -0.42856672 0
0.0033925786 -0.014375499 0.019089233 -0.23427506 0.87161595 -0.43058205 0
0.0077027394 -0.014087348 0.018370219 -0.040960543 0.88154733 -0.47031531 0
0.011929451 -0.014272304 0.018455757 0.11574125 0.88703811 -0.44695342 0
0.016423669 -0.014684757 0.019365564 0.21938474 0.88446844 -0.41180819 0
-0.00067769119 -0.075293504 0.023824168 -0.30005261 -0.93021965 -0.21132864 0
0.0026218011 -0.075714253 0.022643082 -0.16820596 -0.94257498 -0.28854671 0
0.0075991885 -0.076190889 0.022532096 -0.031454261 -0.9499259 -0.31088826 0
0.012419601 -0.076021984 0.022800196 0.15580934 -0.92851645 -0.33701724 0
0.016501227 -0.07549715 0.023859885 0.29090735 -0.89011186 -0.35081881 0
-0.010595641 -0.070363648 0.023472834 -0.56972593 -0.78025484 -0.25809813 0
-0.0075191665 -0.071961284 0.022569064 -0.48260355 -0.82119322 -0.30452499 0
-0.0027136274 -0.074138105 0.022130596 -0.29555315 -0.91243279 -0.28304559 0
0.0010559114 -0.074802987 0.020876588 -0.24313176 -0.88812524 -0.39002624 0
0.013779448 -0.074508108 0.020461058 0.31431374 -0.77112132 -0.55369556 0
0.017844433 -0.073841713 0.02200211 0.35651636 -0.81592172 -0.45515686 0
0.022477509 -0.072083093 0.022697845 0.44911906 -0.83560103 -0.31632736 0
0.025602039 -0.070333548 0.022803906 0.50497341 -0.8486883 -0.15725791 0
-0.015736243 -0.065811306 0.023661105 -0.67956495 -0.67463112 -0.28820875 0
-0.012823295 -0.068012819 0.022275079 -0.64067745 -0.706065 -0.30166957 0
-0.0094035845 -0.069780841 0.020078633 -0.45476592 -0.77464217 -0.43945143 0
0.028017303 -0.068526417 0.022301825 0.59475189 -0.78023469 -0.19365942 0
0.031078881 -0.066013724 0.022797676 0.70328915 -0.68944341 -0.17335553 0
-0.020152148 -0.060090259 0.024641864 -0.84908909 -0.45853224 -0.2622897 0
-0.017668385 -0.062522352 0.022145368 -0.78197265 -0.51942873 -0.34454697 0
0.033398028 -0.063016124 0.022211412 0.78013629 -0.58578354 -0.21964748 0
0.035382975 -0.060579691 0.023430409 0.86132497 -0.49437869 -0.11708565 0
-0.020709097 -0.057300452 0.023459004 -0.88346565 -0.30761147 -0.35336041 0
-0.019270204 -0.058626465 0.021232439 -0.85131812 -0.30678213 -0.42560813 0
0.034884874 -0.059804216 0.020002384 0.80073273 -0.44955781 -0.39588505 0
0.036695164 -0.057441283 0.022532638 0.90404445 -0.38930935 -0.17647046 0
-0.022304872 -0.052583072 0.022516595 -0.87585706 -0.37161371 -0.3078599 0
0.038358223 -0.052424256 0.022482568 0.95631939 -0.22946581 -0.18110399 0
-0.023603231 -0.047502909 0.022616303 -0.94059259 -0.10878792 -0.32163742 0
0.039117303 -0.047377139 0.022310304 0.95244926 -0.081010647 -0.29373065 0
0.04016798 -0.045747533 0.02454954 0.84783155 -0.17048866 -0.50211084 0
-0.023621472 -0.04252857 0.022479894 -0.95300633 0.06942115 -0.29488909 0
0.039120436 -0.042369463 0.021898551 0.90098125 -0.0061039873 -0.43381506 0
0.040292874 -0.042402964 0.024385691 0.93264949 0.014150763 -0.36050621 0
-0.022891739 -0.03763013 0.022556648 -0.93557554 0.21665919 -0.27884972 0
0.03894389 -0.037292153 0.022304108 0.90558052 0.16115649 -0.39236781 0
0.040154152 -0.039223909 0.024596453 0.9606992 0.11134683 -0.25428104 0
-0.021322291 -0.032374632 0.022509463 -0.89305037 0.32923195 -0.30670395 0
-0.01981109 -0.03060092 0.020341298 -0.83656561 0.40514895 -0.36879855 0
0.037665892 -0.032453101 0.022668632 0.89207321 0.33991596 -0.29776251 0
-0.020472404 -0.029186169 0.023861932 -0.87059802 0.42524448 -0.2474391 0
-0.018521318 -0.02707327 0.02218491 -0.79368365 0.52249217 -0.31155771 0
0.034287669 -0.026111446 0.022282895 0.79889548 0.52302283 -0.29700676 0
0.035880908 -0.0283962 0.022775443 0.83461875 0.4697789 -0.28760955 0
-0.01624633 -0.023656109 0.022823913 -0.73664212 0.60909718 -0.29386872 0
-0.013637976 -0.021159668 0.02218117 -0.65358573 0.6990912 -0.28999498 0
0.029199662 -0.020763241 0.021811048 0.62775701 0.71279401 -0.3128033 0
0.031970702 -0.023157977 0.022580927 0.68850732 0.65753305 -0.30595392 0
-0.011361884 -0.018942436 0.022853024 -0.59131396 0.75595075 -0.28086695 0
-0.0076400391 -0.016727885 0.022428334 -0.46041355 0.82506305 -0.32755202 0
-0.0034011647 -0.015403157 0.02102552 -0.2759569 0.90894955 -0.3125034 0
0.019603889 -0.015179651 0.020475397 0.35783672 0.83487284 -0.41825846 0
0.022874277 -0.016137261 0.022139326 0.46854246 0.81061888 -0.35123336 0
0.026960308 -0.018497268 0.022883892 0.57065231 0.75631011 -0.31992319 0
-0.0055512208 -0.014789685 0.024396336 -0.35113069 0.90951061 -0.222481 0
-0.0021591233 -0.014453886 0.023088848 -0.17602092 0.94232094 -0.28468916 0
0.0025372105 -0.013389505 0.022266386 -0.29491657 0.89393693 -0.33749217 0
0.0074940939 -0.01242401 0.022444125 -0.042116709 0.95417821 -0.2962603 0
0.012481142 -0.012578888 0.022478895 0.11725599 0.94185472 -0.31489801 0
0.017509101 -0.013664858 0.022493081 0.2657271 0.90602922 -0.32939348 0
0.021097358 -0.014531718 0.023627283 0.43020499 0.8634764 -0.26331031 0
-0.0016956101 -0.075633548 0.027646022 -0.33443531 -0.93473375 -0.12010688 0
0.0025143819 -0.076795153 0.027572747 -0.1991124 -0.96777421 -0.15416668 0
0.0075984853 -0.077348068 0.027579306 -0.017629685 -0.9901787 -0.13869125 0
0.012438723 -0.077118672 0.027370762 0.10878068 -0.98339266 -0.14527759 0
0.017532894 -0.076090313 0.027484959 0.29788518 -0.94159687 -0.15703437 0
0.020488562 -0.075244352 0.028771492 0.33495575 -0.93650657 -0.10373125 0
-0.011313654 -0.070798993 0.027586751 -0.57712317 -0.80587846 -0.1322448 0
-0.0075785518 -0.073092707 0.027293084 -0.46269163 -0.87767619 -0.12490387 0
-0.0041703288 -0.074651711 0.027161241 -0.36140525 -0.92741716 -0.096352294 0
0.019875852 -0.074776314 0.025253104 0.42262921 -0.84764737 -0.32074681 0
0.022964101 -0.073668249 0.027064757 0.46332878 -0.83897758 -0.28538224 0
0.026849702 -0.071285538 0.027670981 0.59954375 -0.73654801 -0.31312007 0
-0.016360715 -0.066447683 0.027736342 -0.71193594 -0.68332481 -0.16190855 0
-0.013755296 -0.068820663 0.027193595 -0.64593548 -0.74253649 -0.17722018 0
0.028854741 -0.069122039 0.026805943 0.65532756 -0.68298274 -0.32261491 0
0.031644501 -0.066810787 0.027906226 0.6996603 -0.65408802 -0.28747934 0
-0.020396402 -0.060840465 0.027723495 -0.87099963 -0.47169942 -0.13732925 0
-0.018830745 -0.063248135 0.027388396 -0.81923831 -0.55052036 -0.16054913 0
0.033950303 -0.063647069 0.026948608 0.77564871 -0.58445346 -0.23829229 0
0.035884399 -0.061403345 0.027841967 0.81618214 -0.52346176 -0.24461082 0
-0.021770233 -0.057449829 0.027502727 -0.94559419 -0.30042455 -0.12488708 0
0.03771022 -0.057859879 0.027586302 0.86036968 -0.40635365 -0.30763724 0
-0.023349879 -0.052353144 0.027415225 -0.93363315 -0.35758662 -0.021469899 0
0.039276931 -0.053220823 0.026730858 0.88102734 -0.31345198 -0.3543146 0
0.040453579 -0.051560074 0.02852468 0.93808371 -0.29061434 -0.18852678 0
-0.025062414 -0.045801792 0.02957602 -0.99032885 -0.077886768 -0.11481461 0
-0.024554027 -0.047722783 0.027227702 -0.98643667 -0.1201926 -0.11178747 0
0.039853036 -0.049525861 0.025213376 0.79327494 -0.27500492 -0.54321939 0
0.041044392 -0.047534987 0.027638948 0.96362823 -0.110184 -0.24347492 0
-0.025059231 -0.043214045 0.029581999 -0.99509668 0.03084904 -0.093973048 0
-0.024679903 -0.042616922 0.027054327 -0.98364627 0.071479417 -0.16532056 0
0.04115748 -0.042422187 0.027567863 0.98087347 0.062606104 -0.1843029 0
-0.024006162 -0.037502196 0.027640199 -0.9642446 0.205679 -0.16711843 0
0.039809 -0.035953175 0.026147719 0.94794214 0.25417826 -0.19183107 0
0.040551625 -0.037798323 0.027780689 0.96426624 0.20746785 -0.16476552 0
-0.022590665 -0.032533988 0.02743827 -0.93079346 0.33100992 -0.15509985 0
0.038887713 -0.03244308 0.027320402 0.92539847 0.33647853 -0.17441249 0
0.040036757 -0.034734223 0.02928335 0.94493264 0.31051004 -0.10337266 0
-0.020860523 -0.028366629 0.027961195 -0.87516677 0.46774861 -0.12367038 0
-0.019425584 -0.026062751 0.027456895 -0.82593197 0.54379404 -0.14874321 0
0.034778334 -0.025295848 0.025309766 0.80014426 0.53810036 -0.26498532 0
0.03669459 -0.027484093 0.027592277 0.85319662 0.49548575 -0.16293985 0
-0.016919523 -0.022821484 0.027462911 -0.74194741 0.65426636 -0.14645614 0
-0.014574206 -0.020516785 0.026826493 -0.67408311 0.72221446 -0.15497828 0
0.03290065 -0.022324273 0.027418852 0.73579741 0.6465562 -0.20141293 0
0.03521828 -0.024744947 0.029050021 0.81102985 0.57539773 -0.10558426 0
-0.012077798 -0.018197127 0.027720479 -0.61775029 0.77228045 -0.14821447 0
-0.0085339844 -0.01569655 0.027593922 -0.49202764 0.86209917 -0.12121762 0
0.024190845 -0.015375805 0.026624709 0.46989113 0.8555693 -0.2172638 0
0.027498225 -0.017366046 0.027438141 0.5889318 0.78940314 -0.17321092 0
0.030432673 -0.019611349 0.028189899 0.65866703 0.73361206 -0.16724576 0
-0.0061681294 -0.014479762 0.02779562 -0.39478368 0.91098881 -0.1193532 0
-0.0026632785 -0.013610401 0.027440907 -0.20343468 0.96917701 -0.13896134 0
0.0024810492 -0.012024163 0.027370626 -0.30461839 0.93926674 -0.15806864 0
0.0075378451 -0.011280243 0.027470825 -0.015248075 0.98839498 -0.15113807 0
0.012529097 -0.011474709 0.027469013 0.10859489 0.98382866 -0.14243698 0
0.017575353 -0.012438941 0.027800607 0.27048942 0.95471001 -0.12395272 0
0.02199544 -0.014087432 0.027586732 0.40841088 0.90032083 -0.15040933 0
-0.0023171376 -0.075805768 0.032403287 -0.33591071 -0.94018155 -0.056767471 0
0.002451835 -0.077240258 0.03242128 -0.20556906 -0.97848719 -0.017438855 0
0.0074338629 -0.077707753 0.032513063 -0.010342834 -0.99986154 0.013035568 0
0.012552731 -0.077421501 0.032514889 0.11666326 -0.99298126 0.019441085 0
0.017644791 -0.076388836 0.032396048 0.28417745 -0.95865768 0.014790824 0
0.020846048 -0.075295627 0.032399554 0.35306999 -0.93553829 0.010472135 0
-0.011513731 -0.071124136 0.032508794 -0.5902164 -0.80721283 -0.0072191153 0
-0.007636799 -0.073531613 0.032615747 -0.46687558 -0.88386273 -0.02852851 0
-0.004619848 -0.074914902 0.031949874 -0.34358707 -0.93632782 -0.072374709 0
0.023257561 -0.074273542 0.032588862 0.44205144 -0.8967784 0.019466357 0
0.027301986 -0.071827628 0.032554585 0.58351338 -0.81201118 -0.012248093 0
-0.016517565 -0.066792414 0.032475341 -0.73745841 -0.67448056 0.035085242 0
-0.013962096 -0.06920854 0.032255027 -0.63985842 -0.76835954 -0.014313577 0
0.029772639 -0.069792479 0.031561952 0.70506305 -0.70585215 -0.068255618 0
0.032411233 -0.067302287 0.032539368 0.72795039 -0.68413025 -0.045321975 0
-0.020573232 -0.060969695 0.032552253 -0.87430096 -0.48400316 0.036590517 0
-0.019067032 -0.063433982 0.032384556 -0.83499271 -0.54821539 0.047402374 0
0.034697618 -0.064650029 0.032377042 0.80960858 -0.58627385 -0.028581278 0
0.036540043 -0.061856974 0.032498192 0.85567319 -0.51664448 -0.030032376 0
-0.021965818 -0.057778135 0.032698855 -0.95015126 -0.31176674 0.0037596154 0
0.038672302 -0.05768732 0.032318398 0.91706699 -0.39870048 -0.0050959485 0
-0.023502743 -0.052529052 0.032539099 -0.93441111 -0.35605335 -0.010094636 0
0.039897565 -0.05461771 0.032218132 0.93708384 -0.34908339 0.0038257218 0
0.040634692 -0.052224461 0.032641537 0.96352226 -0.26701447 -0.018113052 0
-0.02515574 -0.046586018 0.032589853 -0.99680072 -0.077556491 -0.019320214 0
-0.024788145 -0.04908162 0.032333799 -0.97668564 -0.21060996 -0.041575965 0
0.041531336 -0.047528408 0.032454621 0.99555331 -0.093222685 -0.013533409 0
-0.025171116 -0.042526629 0.032424849 -0.99879563 0.0446028 -0.020444231 0
-0.024976265 -0.040097348 0.030702367 -0.9935829 0.10684085 -0.03712143 0
0.041558564 -0.042508233 0.032561827 0.99816358 0.06051765 -0.0026666832 0
-0.025009921 -0.039756328 0.033078406 -0.99616879 0.086768225 0.010911888 0
-0.024490846 -0.037316173 0.03249177 -0.97557491 0.21772026 -0.029177589 0
0.040871482 -0.037426244 0.032707453 0.97793692 0.20890053 -2.6780524e-06 0
-0.023083609 -0.032618962 0.032557532 -0.93330783 0.35867298 -0.017036282 0
0.039235897 -0.031919442 0.03267549 0.93768144 0.34708878 -0.016822798 0
0.040163163 -0.034502313 0.032655541 0.95584309 0.29376751 0.0080394354 0
-0.021007814 -0.028062509 0.032524593 -0.88695759 0.46182925 -0.0044627278 0
-0.019579282 -0.025591781 0.032594003 -0.82176638 0.56970948 -0.011454658 0
0.037199628 -0.02742992 0.032438703 0.87177682 0.4888784 -0.031670429 0
-0.01724785 -0.022663461 0.032518201 -0.75471622 0.65596658 -0.010554621 0
-0.014869963 -0.020136427 0.032677904 -0.68692887 0.72672302 0.0015227465 0
0.03339643 -0.021998148 0.032367811 0.74457437 0.66706574 -0.025145717 0
0.035407078 -0.024498541 0.033021782 0.81409258 0.57937729 -0.039690249 0
-0.012399754 -0.017997477 0.032483667 -0.62335998 0.7818203 -0.013389995 0
-0.0090575973 -0.0156356 0.0326268 -0.51353133 0.85785115 -0.019414186 0
0.024701238 -0.015073976 0.032052074 0.49563128 0.86838806 -0.015867105 0
0.027589714 -0.01693598 0.032405566 0.56815773 0.82146925 -0.048837617 0
0.03070252 -0.019342793 0.03202251 0.66862118 0.74274904 -0.035633206 0
-0.0064787832 -0.014278212 0.032433487 -0.41398567 0.91025865 -0.0067191096 0
-0.0024589999 -0.013145219 0.032431297 -0.2339168 0.97206193 -0.019456556 0
0.002401768 -0.011586086 0.032465778 -0.2900832 0.95700139 -1.1036467e-05 0
0.0073441304 -0.010898846 0.03242629 -0.040021334 0.9991594 -0.0088841403 0
0.012391197 -0.011112245 0.032575052 0.13041076 0.99137777 0.012772944 0
0.017707834 -0.012184154 0.032565143 0.25577718 0.96666449 -0.011737567 0
0.022325061 -0.013866165 0.032351825 0.42709309 0.90403217 -0.0178123 0
-0.002087323 -0.075749926 0.0372416 -0.31441328 -0.93994588 0.13283826 0
0.0025919832 -0.076837994 0.037298154 -0.14457682 -0.97538638 0.16649033 0
0.0074552647 -0.077197433 0.037404142 -0.0052867364 -0.98538876 0.17023821 0
0.012614534 -0.076913223 0.037669174 0.11344541 -0.97752041 0.17771876 0
0.017396133 -0.075933695 0.037476502 0.28630766 -0.93935704 0.18877566 0
0.020638965 -0.075132646 0.036151912 0.31954697 -0.94240302 0.098824263 0
-0.011305221 -0.070962414 0.037375972 -0.6144383 -0.77721727 0.13564265 0
-0.0076660053 -0.073236212 0.037509616 -0.47457007 -0.87039489 0.13113344 0
-0.0042226757 -0.07473024 0.038635466 -0.36852509 -0.91464424 0.16617833 0
0.019480525 -0.074815243 0.039485898 0.25992426 -0.92601824 0.27373278 0
0.022790207 -0.073960967 0.03772464 0.41231889 -0.89441121 0.1732683 0
0.027122665 -0.071512789 0.03727087 0.56197703 -0.81108284 0.16225415 0
-0.01612932 -0.066327259 0.037378706 -0.74782568 -0.64883286 0.14061528 0
-0.01369394 -0.068795711 0.037783083 -0.67631358 -0.7114926 0.19073087 0
0.029617339 -0.069512226 0.037965808 0.651232 -0.73743844 0.17911291 0
0.032202277 -0.067032047 0.03743951 0.73226923 -0.66004527 0.16769597 0
-0.020358456 -0.060649905 0.036795165 -0.84254801 -0.52272153 0.12990412 0
-0.018710708 -0.062943481 0.0375458 -0.81176001 -0.5662775 0.14274257 0
0.034352757 -0.064365253 0.037949633 0.75738579 -0.63266039 0.16157858 0
0.036292903 -0.061835252 0.037422277 0.83791566 -0.53191411 0.12232995 0
-0.021585597 -0.057563633 0.037737139 -0.93371779 -0.31473067 0.170633 0
0.038466904 -0.057452917 0.037592616 0.91808891 -0.38191199 0.10609408 0
-0.023149302 -0.052541923 0.037436314 -0.92185497 -0.36159638 0.13939677 0
0.039660215 -0.054007951 0.038319994 0.94648129 -0.29398972 0.13320364 0
0.040508721 -0.051689591 0.037064362 0.95831198 -0.25280273 0.13315022 0
-0.02510744 -0.046363179 0.036023118 -0.99531305 -0.071014121 0.065642715 0
-0.024579294 -0.047675688 0.037965145 -0.96959347 -0.14530778 0.19691163 0
0.041192353 -0.047469921 0.037495982 0.98349142 -0.094271146 0.1544589 0
-0.025139233 -0.042938884 0.036082495 -0.99447834 0.054218773 0.089850418 0
-0.024712214 -0.042133097 0.038119119 -0.97991216 0.063547254 0.18903388 0
0.041213792 -0.042371094 0.037608851 0.98866582 0.049623966 0.14169452 0
-0.02415997 -0.037446234 0.037535213 -0.96894157 0.19444792 0.1527821 0
0.039908268 -0.035469133 0.039607454 0.9570781 0.23554298 0.16888218 0
0.040647697 -0.037632488 0.037469551 0.97221863 0.20438629 0.11409367 0
-0.022710156 -0.032533642 0.037509415 -0.92076373 0.36590999 0.13529192 0
0.039113123 -0.032293629 0.037836138 0.9374882 0.32910329 0.11316786 0
0.040040191 -0.03466158 0.036230888 0.95517582 0.28656939 0.074277617 0
-0.020933546 -0.028537447 0.037249118 -0.86777157 0.47507876 0.14585184 0
-0.019366592 -0.026107227 0.037835423 -0.83145237 0.52403563 0.18459053 0
0.03477101 -0.025060074 0.039925959 0.79420286 0.57372063 0.20021614 0
0.03680411 -0.027314523 0.037516233 0.84729505 0.50743961 0.15683155 0
-0.016972216 -0.022769362 0.037565585 -0.75332522 0.63871336 0.15667295 0
-0.01456693 -0.020300936 0.037996225 -0.69014102 0.71007067 0.13966064 0
0.033255409 -0.022374811 0.037273895 0.74902761 0.64394712 0.15585166 0
0.035262518 -0.024568202 0.03643252 0.78017247 0.60204184 0.16993086 0
-0.012308495 -0.018264966 0.037540555 -0.62194216 0.77061903 0.13904813 0
-0.0087355068 -0.015784319 0.037587039 -0.49640363 0.85556346 0.14695139 0
0.02450596 -0.015352069 0.038014825 0.48100832 0.86187971 0.16060649 0
0.027697388 -0.017152708 0.037379578 0.56092203 0.81739718 0.131257 0
0.030609868 -0.019438397 0.036985599 0.7055769 0.70037264 0.10788611 0
-0.0061346292 -0.014376792 0.037370075 -0.41819236 0.90061218 0.11837614 0
-0.0025133956 -0.013356261 0.037481859 -0.17362787 0.98018146 0.095381923 0
0.0023348697 -0.012136603 0.037602007 -0.29296362 0.94087315 0.17008829 0
0.007544951 -0.011235469 0.037472751 -0.012580202 0.98944283 0.1443768 0
0.012380471 -0.011557761 0.037604593 0.12624694 0.98000705 0.15377878 0
0.017549481 -0.012496573 0.037557669 0.24158345 0.95920581 0.14683914 0
0.022179503 -0.014057964 0.03723814 0.41355872 0.90077394 0.13257267 0
-0.00094361044 -0.075251453 0.041355327 -0.23341772 -0.94001824 0.24876073 0
0.0027123147 -0.075717323 0.042289317 -0.15071845 -0.94735754 0.28248468 0
0.0075874315 -0.076025695 0.042565424 -0.008217968 -0.96202171 0.27284941 0
0.012499806 -0.0757984 0.042367909 0.13201502 -0.95090419 0.2799165 0
0.015947383 -0.075418994 0.041270647 0.28881383 -0.91433644 0.28385812 0
-0.010559396 -0.070527688 0.041064993 -0.58191633 -0.76769412 0.26836398 0
-0.0076292986 -0.071926393 0.042398423 -0.48777241 -0.81286436 0.31832322 0
-0.0029430494 -0.074094988 0.042810842 -0.33884355 -0.8825587 0.32599881 0
0.0010734593 -0.074716732 0.044396263 -0.21209812 -0.89856565 0.38417992 0
0.014248846 -0.074806876 0.04476583 0.20974331 -0.92121667 0.32767013 0
0.018124683 -0.074271694 0.042972893 0.28201842 -0.92116702 0.26817328 0
0.022660855 -0.072562441 0.042664841 0.41055265 -0.84501719 0.34262574 0
0.026122803 -0.070840485 0.041974474 0.5450871 -0.78024685 0.30674896 0
-0.015695391 -0.065684378 0.04156765 -0.70574546 -0.65027928 0.28117636 0
-0.012775638 -0.068021908 0.04274312 -0.64073569 -0.71323627 0.28416878 0
-0.0097328462 -0.069734916 0.044587802 -0.51827383 -0.77126235 0.36952204 0
0.028408851 -0.068757862 0.042797972 0.59929156 -0.73553151 0.31597951 0
0.031327266 -0.066360593 0.042123005 0.69443727 -0.65755993 0.2921842 0
-0.017772684 -0.062586859 0.042265195 -0.78604293 -0.5520153 0.27823657 0
-0.014905865 -0.064807296 0.044865232 -0.6973868 -0.58989459 0.40703326 0
0.033694826 -0.06326849 0.042884603 0.74293768 -0.5936802 0.30917218 0
0.035684954 -0.061174817 0.041752692 0.8050037 -0.52125007 0.28331515 0
-0.020673051 -0.056850925 0.042259268 -0.91616136 -0.26001701 0.30502361 0
-0.01962975 -0.05835513 0.043842532 -0.87194943 -0.33633459 0.35578552 0
0.037386153 -0.057396542 0.042582512 0.86848128 -0.39303038 0.30210489 0
-0.021996716 -0.052407198 0.04276986 -0.88884085 -0.36733162 0.27391469 0
0.039039854 -0.05266517 0.042714085 0.92893112 -0.24191652 0.28029159 0
0.040102545 -0.050610233 0.040692791 0.96346742 -0.16443971 0.21140066 0
-0.023600347 -0.047544781 0.042411812 -0.96449828 -0.12852283 0.23070507 0
0.039622501 -0.047704194 0.043855418 0.93815136 -0.11045967 0.32813194 0
0.040391356 -0.0471492 0.04150828 0.96155494 -0.1015301 0.25515419 0
-0.023769751 -0.042396907 0.042561367 -0.96993566 0.05643902 0.2367264 0
0.039691795 -0.041883774 0.044113569 0.93636525 0.056157798 0.34650615 0
0.04043553 -0.042773366 0.041706286 0.97110504 0.038071048 0.23559636 0
-0.023100346 -0.037518498 0.042392462 -0.94003069 0.19647813 0.27881655 0
0.039426979 -0.037198581 0.042988252 0.92904848 0.20709808 0.30656031 0
0.04020562 -0.038480144 0.041190021 0.96574903 0.15434833 0.20857956 0
-0.021603886 -0.032702204 0.042544618 -0.88215756 0.36096179 0.30249718 0
-0.01982178 -0.030398468 0.044588674 -0.82767159 0.4231261 0.36867887 0
0.037946388 -0.032335538 0.042561427 0.88128138 0.37113973 0.29257208 0
-0.020412842 -0.029220423 0.041207742 -0.83878565 0.48284838 0.25158709 0
-0.018569583 -0.027168484 0.042759202 -0.79820859 0.52318144 0.29857039 0
0.034320574 -0.026127713 0.043440975 0.79179436 0.52362496 0.31444949 0
0.036086068 -0.028343035 0.042280965 0.83277106 0.47129062 0.29047805 0
-0.016252276 -0.023453072 0.041885611 -0.74535877 0.60248506 0.28539827 0
-0.013882619 -0.021218378 0.042937919 -0.69513398 0.65245402 0.30181524 0
0.029406045 -0.020439802 0.043769874 0.614048 0.71694869 0.33004478 0
0.031892486 -0.02243638 0.04247582 0.7224021 0.63656592 0.27003515 0
-0.011486595 -0.018821087 0.042189986 -0.58420575 0.7676844 0.26337105 0
-0.0076988637 -0.016502373 0.042676389 -0.47814089 0.83023131 0.28652614 0
-0.0044148657 -0.015282482 0.04415163 -0.37393653 0.87776273 0.29950631 0
0.019677065 -0.015036999 0.044842906 0.35804495 0.87421197 0.32795933 0
0.023090392 -0.015928192 0.042907607 0.44364226 0.85138696 0.27986023 0
0.027279019 -0.018253783 0.042412791 0.55195099 0.77810389 0.29984066 0
0.03004837 -0.019752413 0.040297367 0.64111078 0.72061282 0.26399648 0
-0.0054691541 -0.014725372 0.040803131 -0.38921174 0.886926 0.24874988 0
-0.0022805913 -0.014130308 0.042231005 -0.19730832 0.95375919 0.22674406 0
0.0026132001 -0.013317605 0.042493265 -0.21209629 0.92620242 0.3117117 0
0.007660476 -0.012510016 0.042652845 -0.039183307 0.94334543 0.32949075 0
0.012463882 -0.012679178 0.042538252 0.11053223 0.9541927 0.27802688 0
0.017351434 -0.013587979 0.042563174 0.24139677 0.92773682 0.28466114 0
0.021001112 -0.014484557 0.041582819 0.38235191 0.88480347 0.26632652 0
0.0044450494 -0.07506448 0.045142055 -0.12471587 -0.91366577 0.38686031 0
0.0073739332 -0.075157113 0.045374919 -0.014195096 -0.93325579 0.35893199 0
0.011376999 -0.075042896 0.045145486 0.060132194 -0.93629611 0.34602568 0
-0.006428658 -0.070837304 0.0464647 -0.44665995 -0.79221064 0.41580895 0
-0.0024952439 -0.072062582 0.047594484 -0.32083979 -0.83502984 0.44697526 0
0.002389865 -0.073547043 0.047434662 -0.17748213 -0.87286943 0.4545317 0
0.00725709 -0.073951431 0.047863681 -0.02707167 -0.88854402 0.45799193 0
0.012877827 -0.073584273 0.047711082 0.15613905 -0.87852079 0.45146635 0
0.017604677 -0.072562963 0.047514148 0.25230074 -0.85999048 0.44357714 0
0.02180038 -0.071033932 0.047108538 0.44662479 -0.80985993 0.38033301 0
-0.011710462 -0.066684701 0.047116935 -0.59530097 -0.67855579 0.43032399 0
-0.0080770291 -0.068876036 0.048103992 -0.50155467 -0.74671769 0.43687025 0
-0.0048143584 -0.069852725 0.049774185 -0.41753075 -0.78346467 0.460273 0
0.023693634 -0.069243908 0.048501503 0.44782597 -0.76517779 0.4625524 0
0.027333494 -0.067255363 0.047342625 0.58111191 -0.67683494 0.45188862 0
0.030471515 -0.065400913 0.045812942 0.68664891 -0.62268549 0.37520143 0
-0.016186001 -0.061695613 0.046993483 -0.7406947 -0.52313673 0.42154393 0
-0.013792602 -0.063717797 0.048378788 -0.67681545 -0.57354891 0.46147853 0
0.029360794 -0.064175107 0.048944537 0.66373235 -0.60372609 0.4415589 0
0.032088518 -0.062196072 0.047442816 0.69904619 -0.54948479 0.45760339 0
-0.018024825 -0.057512898 0.04756337 -0.82146555 -0.30087164 0.48442817 0
0.034144279 -0.058116004 0.048512772 0.77627724 -0.44612703 0.44538102 0
0.035993375 -0.056888673 0.046330672 0.81890136 -0.37208441 0.43698254 0
-0.020739485 -0.051965874 0.046649557 -0.84716278 -0.37724602 0.37416658 0
-0.019159442 -0.053500559 0.048396289 -0.81265825 -0.41084525 0.41327074 0
0.034963235 -0.054655004 0.049977072 0.80706257 -0.2802963 0.51969618 0
0.037066262 -0.052529529 0.047432072 0.84837341 -0.25530121 0.46377134 0
-0.021675088 -0.047570117 0.047538523 -0.88061899 -0.16008146 0.44596431 0
0.037949491 -0.047352202 0.047739401 0.89155722 -0.11725128 0.43746766 0
-0.021947406 -0.04253244 0.047437653 -0.88482189 0.094897829 0.4561629 0
0.038203366 -0.042407684 0.047397602 0.89960837 0.069059037 0.4312025 0
-0.021207009 -0.037680294 0.047340363 -0.88426965 0.19888109 0.42250845 0
-0.019764312 -0.036253244 0.049408305 -0.80798733 0.21912237 0.5469386 0
0.037481524 -0.03754928 0.047543835 0.87280554 0.17840293 0.454294 0
-0.020587852 -0.033726133 0.046091113 -0.84867573 0.34154156 0.40385497 0
-0.018929107 -0.032184649 0.048045844 -0.80866975 0.38495985 0.44481361 0
0.034413923 -0.031032298 0.04893323 0.78972453 0.39998829 0.46512839 0
0.036295019 -0.032815289 0.047044136 0.83142245 0.34228891 0.43769276 0
-0.016854154 -0.027644442 0.047232628 -0.76559919 0.49587908 0.40983137 0
-0.014441152 -0.025786204 0.049061082 -0.69036031 0.55821979 0.46021003 0
0.032906145 -0.027257599 0.047735326 0.74998713 0.497554 0.43584314 0
0.03538584 -0.029487049 0.045771673 0.77929282 0.4716889 0.41256791 0
-0.01538249 -0.024489421 0.045808986 -0.71206599 0.59189713 0.37765047 0
-0.012481976 -0.022517299 0.047588769 -0.64145684 0.63423264 0.43160397 0
-0.0090553556 -0.020433135 0.049084578 -0.49633372 0.72929692 0.47093385 0
0.02474647 -0.020192498 0.049595498 0.48180518 0.701792 0.52473968 0
0.02823399 -0.021957058 0.048072491 0.59903574 0.65155649 0.46543556 0
0.031113574 -0.023812907 0.046483759 0.69817352 0.56558549 0.43893829 0
-0.010464561 -0.019525208 0.045709316 -0.52904278 0.75140637 0.39433768 0
-0.0074485186 -0.018338487 0.047163077 -0.47756869 0.77385271 0.41602895 0
-0.0027318045 -0.01627218 0.047708437 -0.30570748 0.84107155 0.44625291 0
0.0024956826 -0.01557229 0.048636332 -0.065712422 0.92011476 0.38609686 0
0.0075534862 -0.015571707 0.048764821 -0.029618707 0.87391275 0.48517957 0
0.012533327 -0.015538557 0.049185984 0.018930249 0.81579119 0.57803661 0
0.017795943 -0.016010053 0.048252489 0.27603263 0.84169132 0.46407083 0
0.022376968 -0.017628018 0.047621027 0.40834644 0.79392076 0.45049202 0
0.026295165 -0.01923479 0.046305742 0.53689659 0.74805009 0.39008096 0
-0.0010273154 -0.0147817 0.045745321 -0.18094096 0.92493081 0.33431026 0
0.0023856331 -0.014646731 0.046190199 -0.049468677 0.94549388 0.32186028 0
0.007713269 -0.014149281 0.046392918 -0.10994779 0.85966069 0.49889395 0
0.012478439 -0.01423567 0.046798479 0.071394816 0.90730315 0.41437158 0
0.016637551 -0.014609622 0.046052676 0.20266356 0.9152171 0.34828874 0
-0.001604148 -0.070488259 0.050925657 -0.27606371 -0.82138395 0.49911645 0
0.0026494178 -0.071131729 0.051656619 -0.16919461 -0.82838815 0.53399098 0
0.0075335265 -0.07140246 0.052169971 -0.029366972 -0.82914197 0.5582661 0
0.012252983 -0.071348675 0.051825542 0.14332278 -0.83131206 0.53700918 0
0.017022565 -0.070670947 0.051109545 0.19925886 -0.83384818 0.5147748 0
0.020004191 -0.070268266 0.050298464 0.45857605 -0.67119718 0.58241087 0
-0.01059373 -0.065429851 0.050545834 -0.55943936 -0.66338587 0.49693727 0
-0.0070526805 -0.066912062 0.051958293 -0.48236915 -0.68046653 0.55162048 0
-0.0030052112 -0.068532549 0.052890033 -0.33448267 -0.74040949 0.58302248 0
0.002088726 -0.069245473 0.054168653 -0.17703941 -0.76075113 0.62443155 0
0.0079713911 -0.069630586 0.054610521 -0.017366868 -0.77534139 0.63130355 0
0.01277729 -0.069402926 0.054370496 0.16063394 -0.76591045 0.62255746 0
0.017859444 -0.068692379 0.053477995 0.2790063 -0.75185144 0.59739006 0
0.022382276 -0.067340434 0.052099999 0.43955511 -0.68857837 0.57675916 0
0.025742559 -0.065919876 0.050888956 0.59212416 -0.60356319 0.53394794 0
-0.015073219 -0.060331449 0.050266437 -0.7107448 -0.46446869 0.52830929 0
-0.012078676 -0.06212379 0.052188169 -0.62506032 -0.4952015 0.60338628 0
-0.0087563917 -0.063573338 0.054019101 -0.52461797 -0.55064505 0.64928114 0
0.024164941 -0.064254701 0.054174565 0.58950657 -0.60493499 0.5352903 0
0.027776033 -0.062586084 0.052455183 0.59133768 -0.55572265 0.58437318 0
0.030793354 -0.060873322 0.050743289 0.64257437 -0.49897373 0.58148378 0
-0.015947344 -0.05665021 0.051142409 -0.74545395 -0.35478979 0.56428951 0
-0.013439965 -0.058005236 0.053296369 -0.67197281 -0.34618255 0.65468329 0
0.029202946 -0.059000477 0.054141607 0.6319766 -0.46919817 0.6168133 0
0.031855099 -0.05735103 0.052249327 0.69489461 -0.42635885 0.57908505 0
-0.017274018 -0.052474208 0.052424196 -0.77237833 -0.35285521 0.52813345 0
-0.014797701 -0.054381594 0.054609362 -0.69528663 -0.4442637 0.56498343 0
0.033272721 -0.0529298 0.053046584 0.75246847 -0.23704848 0.61449099 0
0.035453651 -0.05163889 0.050723884 0.81801075 -0.22049437 0.53126317 0
-0.020261517 -0.046690211 0.050432906 -0.81874532 -0.13211995 0.55874896 0
-0.018371655 -0.047661602 0.052735329 -0.78715748 -0.11450958 0.6060285 0
0.034068376 -0.047576007 0.053765431 0.79284561 -0.11415917 0.59863478 0
0.035802834 -0.047278143 0.051435787 0.81523687 -0.10534108 0.56946653 0
-0.020290576 -0.042761561 0.050435971 -0.8347829 0.079698056 0.54478049 0
-0.01841432 -0.042348582 0.052866854 -0.77970779 0.062399015 0.62302655 0
0.034245335 -0.042397659 0.053925164 0.81243932 0.018052997 0.58276606 0
0.036016241 -0.04242219 0.051406067 0.83443058 0.011164511 0.55099988 0
-0.020136969 -0.03974 0.050184797 -0.85757244 0.13077398 0.49746126 0
-0.017863702 -0.037666023 0.052624017 -0.77603245 0.1914129 0.60094488 0
0.033809222 -0.03737 0.053465139 0.78033781 0.23271289 0.58044606 0
0.035617795 -0.038080208 0.051115632 0.83351856 0.19597977 0.51656431 0
-0.016652178 -0.032916233 0.052113142 -0.75031316 0.33389089 0.57056725 0
-0.014278408 -0.031498455 0.054094285 -0.62995863 0.37911069 0.67781067 0
0.029837092 -0.030488295 0.054608017 0.66246432 0.39813927 0.63452828 0
0.032356791 -0.032413963 0.052823905 0.72292435 0.35406131 0.59331352 0
0.035190232 -0.034505732 0.050322551 0.8251192 0.27935079 0.49106142 0
-0.015635068 -0.029151762 0.05096256 -0.70127016 0.48577344 0.52177036 0
-0.012706524 -0.027355524 0.052676626 -0.63495266 0.49516073 0.5930016 0
-0.0096179452 -0.025675703 0.054428868 -0.52555156 0.55516243 0.64466286 0
0.024685593 -0.025065064 0.054908801 0.49406406 0.58146155 0.64637697 0
0.028287362 -0.026909122 0.05345973 0.58171946 0.52368939 0.62237602 0
0.031114809 -0.028257636 0.051505052 0.70897514 0.45869067 0.53568381 0
-0.011026476 -0.023747664 0.051091496 -0.58552712 0.60230041 0.54257923 0
-0.0076495279 -0.022369999 0.052637622 -0.46065506 0.65516114 0.59879947 0
-0.0030574454 -0.020891761 0.053988565 -0.36117491 0.69872957 0.6175189 0
0.00028034899 -0.020133058 0.05489406 -0.2521176 0.699808 0.66836029 0
0.014397493 -0.020323094 0.054540645 0.26874489 0.75848496 0.59369749 0
0.017967694 -0.020800808 0.054180309 0.18309733 0.67040783 0.71904707 0
0.022817662 -0.021781828 0.053003702 0.40935272 0.6736728 0.61530107 0
0.026734458 -0.023579568 0.051791012 0.5511924 0.61120206 0.56799555 0
-0.0058277901 -0.019608203 0.05074054 -0.38437876 0.74141222 0.55005521 0
-0.0023080439 -0.018767882 0.051825091 -0.32757467 0.75729954 0.56497103 0
0.0025741635 -0.017784368 0.052617259 -0.15469286 0.81212652 0.56260157 0
0.0074474723 -0.017494144 0.052563887 0.070791207 0.87168241 0.48493138 0
0.01249438 -0.018012084 0.052341223 0.10679106 0.79144108 0.60184449 0
0.017542139 -0.018324822 0.051780976 0.21667024 0.73961222 0.63720316 0
0.021491634 -0.019262353 0.050897617 0.39260569 0.73270142 0.55588621 0
-0.0051664771 -0.06530571 0.05520368 -0.44325247 -0.60685551 0.65973753 0
-0.0018800172 -0.066058055 0.056064241 -0.30318356 -0.63771641 0.7080943 0
0.0026107968 -0.066851623 0.056901168 -0.1740938 -0.69636077 0.6962564 0
0.0073475912 -0.067214087 0.057142653 -0.022752991 -0.70055234 0.71323824 0
0.012287538 -0.067263991 0.056814928 0.10523573 -0.70299679 0.70336407 0
0.017295465 -0.066348217 0.056484707 0.28691316 -0.71168315 0.64123935 0
0.020592554 -0.065337121 0.055742748 0.41451395 -0.67171693 0.6139825 0
-0.010053474 -0.060206655 0.055154022 -0.55240411 -0.30548304 0.77558357 0
-0.0071418006 -0.061951727 0.056237832 -0.50416237 -0.39677128 0.76706767 0
-0.0024490652 -0.062713787 0.058305088 -0.36355233 -0.46906078 0.80486751 0
0.0019461461 -0.063792184 0.059338797 -0.19883996 -0.54510039 0.81444967 0
0.0070927385 -0.064552993 0.059586164 -0.032871969 -0.62229508 0.78209221 0
0.013020324 -0.06419035 0.059410326 0.11939748 -0.60752887 0.78527254 0
0.018079445 -0.063224383 0.058774423 0.33061573 -0.52143848 0.78663528 0
0.02227761 -0.062502384 0.0570224 0.43801183 -0.53834754 0.71994978 0
0.025840186 -0.061083797 0.055592559 0.61511558 -0.48739067 0.61974448 0
-0.011177927 -0.056846775 0.056244101 -0.57979292 -0.47579119 0.66140985 0
-0.0077741602 -0.057752851 0.058162276 -0.48455477 -0.48516327 0.72788966 0
-0.0037860933 -0.059131637 0.059473179 -0.35654676 -0.50228274 0.78777307 0
0.019717423 -0.059956133 0.059947897 0.41947266 -0.44781306 0.78962404 0
0.023369292 -0.058141809 0.059027262 0.43351093 -0.40882826 0.803074 0
0.027064409 -0.057394437 0.057057861 0.55839294 -0.41211146 0.71997327 0
0.03025499 -0.055315245 0.055482961 0.71065813 -0.41712859 0.56654102 0
-0.015406742 -0.051215526 0.055514999 -0.67692357 -0.24203886 0.69511992 0
-0.012536571 -0.052557305 0.057466593 -0.60623455 -0.2676129 0.7489078 0
-0.0093170265 -0.053780921 0.059426453 -0.53343576 -0.31000823 0.7869823 0
0.024807192 -0.054755509 0.059809931 0.4794654 -0.34439871 0.80715698 0
0.027789855 -0.052638788 0.058529098 0.54509658 -0.24805845 0.80083501 0
0.030988978 -0.052327026 0.055979554 0.72314417 -0.24761768 0.64478528 0
-0.015813962 -0.047408737 0.055859026 -0.71736282 -0.079121292 0.69219238 0
-0.012915348 -0.047608234 0.058402106 -0.62062097 -0.11980899 0.77490354 0
0.028771004 -0.047793135 0.058910005 0.60901928 -0.11397319 0.78492391 0
0.031503864 -0.047302965 0.056670215 0.68501353 -0.095038444 0.7223047 0
-0.015842702 -0.042693969 0.055958468 -0.73145247 0.043322366 0.68051481 0
-0.013093477 -0.042467337 0.058486011 -0.63263774 0.046716981 0.77303755 0
0.028839033 -0.04232204 0.059151601 0.60872096 0.038721617 0.79243892 0
0.031863909 -0.042800289 0.056550846 0.67989719 0.027835736 0.73277897 0
-0.015517296 -0.038182206 0.055584669 -0.71379107 0.19024998 0.67402321 0
-0.012784141 -0.037354544 0.057796545 -0.62142181 0.22138004 0.75154895 0
-0.009806809 -0.036135159 0.059760742 -0.54065835 0.27123138 0.79631782 0
0.028403651 -0.037212167 0.058638077 0.60466117 0.22116964 0.76515937 0
0.031265002 -0.037868634 0.056368411 0.65908259 0.20141307 0.72459847 0
-0.011937082 -0.032755665 0.056737062 -0.59062856 0.34712684 0.72846472 0
-0.0084756427 -0.032124322 0.059010334 -0.50627065 0.34632549 0.78977764 0
0.023866519 -0.031091085 0.059405144 0.43418768 0.34562159 0.83188146 0
0.027531581 -0.032504428 0.057544183 0.58518839 0.32838672 0.74142885 0
0.030799925 -0.033870336 0.05536405 0.66440862 0.30286279 0.68325347 0
-0.010818365 -0.028892284 0.055656765 -0.59558487 0.40862513 0.69159538 0
-0.0072909188 -0.027704336 0.057383653 -0.4468537 0.47939503 0.75531596 0
-0.0029026677 -0.026454169 0.058783244 -0.32871443 0.52957833 0.78198057 0
0.0011097848 -0.025515828 0.059645493 -0.2560876 0.53072774 0.80792767 0
0.014444127 -0.025044776 0.059696909 0.25266269 0.551247 0.7951656 0
0.018115729 -0.026593419 0.058945663 0.37294093 0.54428488 0.75144464 0
0.022531083 -0.027260141 0.057733346 0.31014234 0.53360784 0.78681284 0
0.026445268 -0.028484682 0.056351073 0.55927008 0.47494593 0.67944342 0
-0.0061599365 -0.024247626 0.055596404 -0.38365614 0.60584104 0.69696814 0
-0.0022591453 -0.023166344 0.05657208 -0.32353616 0.60237598 0.72970378 0
0.002564156 -0.022269124 0.057508059 -0.18823065 0.64026302 0.74473655 0
0.0074796081 -0.022122687 0.05809303 -0.033551175 0.65415144 0.75561911 0
0.012557441 -0.022365808 0.057767019 0.20864414 0.68192214 0.7010349 0
0.017150771 -0.023193203 0.05666225 0.30460724 0.6409418 0.70456225 0
0.021611195 -0.024025025 0.05580736 0.30669776 0.58372366 0.7518 0
0.0037967341 -0.019636977 0.055349283 -0.14988557 0.71007276 0.68799061 0
0.0077224006 -0.019477066 0.055515632 0.00035394003 0.76284766 0.64657813 0
0.010820107 -0.019616082 0.055428568 0.19242015 0.80295241 0.56412929 0
-0.0005371531 -0.060471494 0.060151279 -0.30266953 -0.31160668 0.90071774 0
0.0029395334 -0.061561488 0.060756925 -0.24768066 -0.37334234 0.89401889 0
0.0074454001 -0.061990071 0.061274193 -0.042303927 -0.48808989 0.87176758 0
0.012539989 -0.061571516 0.061238863 0.11613571 -0.51149678 0.85140097 0
0.016520515 -0.06109469 0.060717646 0.28414431 -0.47723287 0.83157122 0
-0.0059295013 -0.056118738 0.060457069 -0.41060016 -0.41882896 0.80993199 0
-0.0023861595 -0.057096772 0.061336964 -0.29330146 -0.47422013 0.83011407 0
0.0025051683 -0.057245966 0.062525474 -0.16448706 -0.43627462 0.88465154 0
0.0076198643 -0.057717208 0.062959097 -0.075383291 -0.30394107 0.94970369 0
0.012607936 -0.057526197 0.063232042 0.040930051 -0.33945349 0.9397319 0
0.017505988 -0.057568196 0.062117118 0.32095933 -0.3867206 0.86454171 0
0.021435129 -0.056529876 0.060882937 0.4262071 -0.37493411 0.82326901 0
-0.007178288 -0.052168477 0.061221663 -0.46540889 -0.24834681 0.84954017 0
-0.0028249365 -0.052403569 0.063096359 -0.32675427 -0.24500959 0.912799 0
0.0019902671 -0.052756488 0.064393364 -0.20346735 -0.27315581 0.94020581 0
0.0077367593 -0.053813715 0.064424358 0.083442666 -0.41113085 0.9077493 0
0.012765477 -0.052642815 0.064397149 0.05677975 -0.19319138 0.9795168 0
0.017339332 -0.05252837 0.063810803 0.23955409 -0.20021905 0.95001376 0
0.022633774 -0.052315559 0.061770529 0.44203079 -0.2554915 0.85984474 0
0.025555184 -0.051582046 0.060337469 0.53210807 -0.21798171 0.81813496 0
-0.010455769 -0.046748109 0.060356949 -0.5502305 -0.076870315 0.83146697 0
-0.00758594 -0.047508221 0.061984919 -0.48388931 -0.11946456 0.86693674 0
-0.0024889822 -0.047696639 0.064143047 -0.30726901 -0.13084848 0.94258398 0
0.00061974674 -0.048888419 0.064900458 -0.19816637 -0.12200146 0.97254598 0
0.014162819 -0.04900369 0.064824484 0.18435857 -0.14780432 0.97168189 0
0.017595362 -0.047667149 0.064447701 0.15774946 -0.072506763 0.98481357 0
0.022593427 -0.047518514 0.062823005 0.44826463 -0.10902901 0.88722694 0
0.026231874 -0.047258057 0.060779884 0.53100997 -0.11598133 0.83939064 0
-0.010497524 -0.042519156 0.060483586 -0.60089397 0.037434086 0.79845166 0
-0.007468211 -0.042505268 0.062285248 -0.46888745 0.057153709 0.88140684 0
-0.002671059 -0.042776827 0.064383537 -0.31241345 0.0316168 0.94941998 0
0.017846737 -0.042270832 0.064365 0.29223359 0.049566876 0.95506155 0
0.022325452 -0.042558707 0.063036434 0.38704601 0.058561407 0.92019886 0
0.026514139 -0.042502709 0.060767017 0.54050767 0.046732489 0.84004027 0
-0.010259232 -0.038641073 0.060111761 -0.55656546 0.17310774 0.81256914 0
-0.0074361488 -0.037595712 0.06154497 -0.46792763 0.21936242 0.85610974 0
-0.0024924318 -0.03748782 0.063719653 -0.33183149 0.21656053 0.91814458 0
0.0016553742 -0.036350861 0.064647943 -0.19248892 0.24135906 0.95115393 0
0.0053733964 -0.035049174 0.064987622 -0.10950474 0.24299665 0.96382648 0
0.013955282 -0.035622988 0.064749576 0.19789921 0.26712725 0.94312197 0
0.017469581 -0.037376516 0.063972838 0.37051186 0.18911843 0.90937078 0
0.022745261 -0.037571147 0.062125761 0.34249613 0.23199998 0.91042429 0
0.026029654 -0.038102318 0.060588095 0.53011793 0.16080897 0.83253556 0
