# .PCD v0.7 - Point Cloud Data file format
VERSION 0.7
FIELDS x y z normal_x normal_y normal_z curvature
SIZE 4 4 4 4 4 4 4
TYPE F F F F F F F
COUNT 1 1 1 1 1 1 1
WIDTH 334
HEIGHT 1
VIEWPOINT 0 0 0 1 0 0 0
POINTS 334
DATA ascii
-0.010157923 -0.031279001 -1.0689415e-05 -0.1084483 -0.018736767 -0.99392557 0
-0.0071119433 -0.031386331 -0.0001379134 -0.038898885 -0.060591992 -0.9974044 0
-0.0043566753 -0.031187484 -8.5465297e-05 0.13547164 -0.062190816 -0.98882741 0
-0.0072410894 -0.028682442 -9.9138488e-05 -0.021492947 0.073405847 -0.99707061 0
-0.003933494 -0.028837226 -6.7537534e-05 0.057589028 0.041689787 -0.99746948 0
-0.015647808 -0.040563229 0.004587057 -0.42368996 -0.55401611 -0.71662605 0
-0.012245349 -0.04159927 0.0038413105 -0.27599004 -0.53728938 -0.79696274 0
-0.0074886582 -0.04226372 0.003423203 -0.047087334 -0.55389631 -0.83125305 0
-0.0026029674 -0.041958448 0.0036420375 0.19583136 -0.55455226 -0.80877799 0
0.0013590034 -0.040962391 0.0043118219 0.37442529 -0.49526066 -0.78391486 0
-0.017034277 -0.037136562 0.0037653667 -0.4923211 -0.31228396 -0.81246459 0
-0.012499254 -0.037419919 0.0019106814 -0.28267804 -0.33175999 -0.90001583 0
-0.0074285031 -0.037533063 0.0010398355 -0.045432959 -0.33968297 -0.93944198 0
-0.0024109147 -0.037400033 0.0014484314 0.20865999 -0.31455177 -0.92602277 0
0.0024537449 -0.037484061 0.0031883752 0.41212213 -0.3298144 -0.8493396 0
0.0054968637 -0.03631372 0.0045153643 0.61876535 -0.23635486 -0.74917674 0
-0.020254418 -0.031933255 0.0047632172 -0.60140669 -0.081551589 -0.79477 0
-0.017502004 -0.032527104 0.0029841342 -0.51648712 -0.095058784 -0.85100228 0
-0.012496416 -0.032517925 0.00077935361 -0.27670121 -0.10025384 -0.95571208 0
-0.0079725189 -0.033705734 0.00012630192 -0.040469233 -0.097871676 -0.99437594 0
-0.0021526625 -0.032635484 0.00040296261 0.18606661 -0.11123269 -0.97622055 0
0.002508292 -0.032510955 0.0019347665 0.4199672 -0.1072099 -0.90118456 0
0.0061723311 -0.032422569 0.0040588737 0.60026962 -0.097088143 -0.79388314 0
-0.02028219 -0.029099412 0.0047204359 -0.66819537 0.098024175 -0.73749995 0
-0.017594781 -0.027490711 0.0031445506 -0.52416295 0.13947427 -0.84011906 0
-0.012581292 -0.027506834 0.00094022526 -0.27290517 0.14973108 -0.9503175 0
-0.0078189895 -0.026351005 0.00026402267 -0.058182262 0.19867684 -0.97833657 0
-0.0020958434 -0.027179899 0.00049560692 0.20188323 0.16942358 -0.96464443 0
0.0026099607 -0.027472613 0.0020778042 0.42874947 0.13520607 -0.89324868 0
0.0061281472 -0.027630348 0.0041661174 0.61422795 0.10927226 -0.78152645 0
-0.016711265 -0.023007441 0.0039405636 -0.47030243 0.35400057 -0.80839306 0
-0.01247704 -0.02238873 0.0023517737 -0.28080341 0.37300366 -0.88431764 0
-0.0074108806 -0.022521729 0.0013285705 -0.041334961 0.36293095 -0.93089885 0
-0.0023789699 -0.02234016 0.0018530323 0.19627386 0.36897859 -0.90847749 0
0.0023582226 -0.022695597 0.0033663367 0.41502416 0.37710232 -0.82797873 0
0.0053702537 -0.023962284 0.0045147426 0.57661641 0.31686205 -0.75306839 0
-0.015260292 -0.01977003 0.0048144525 -0.38528508 0.53463078 -0.7521472 0
-0.012087098 -0.01870293 0.004159329 -0.27471954 0.57191747 -0.77294219 0
-0.0073980074 -0.018178312 0.0036734068 -0.045818906 0.56666583 -0.82267278 0
-0.0027007547 -0.018456284 0.0038689058 0.19163525 0.56904244 -0.79966658 0
0.0010939615 -0.019436674 0.004470461 0.32022047 0.57123899 -0.75574118 0
-0.015965177 -0.045471758 0.0094122989 -0.37676284 -0.73709208 -0.56102145 0
-0.012263634 -0.04644417 0.0083132796 -0.27746698 -0.7400493 -0.6126492 0
-0.0075453892 -0.046829183 0.0075885118 -0.061081972 -0.78092229 -0.6216343 0
-0.002785584 -0.046658419 0.0078612706 0.17109384 -0.77081364 -0.61365557 0
0.0017133588 -0.045832742 0.0088520106 0.39215001 -0.73203063 -0.55709022 0
-0.020735143 -0.040926501 0.0090266271 -0.66606581 -0.47746128 -0.57305074 0
-0.017494846 -0.042459093 0.0074149719 -0.50593507 -0.57127368 -0.64627862 0
-0.0131115 -0.043827772 0.0059640296 -0.32528538 -0.64274114 -0.6935944 0
-0.0074845883 -0.044680875 0.0052260538 -0.082252048 -0.64059669 -0.7634595 0
-0.0018285783 -0.044295866 0.0055998825 0.20679061 -0.60541087 -0.76858008 0
0.0030293791 -0.042892542 0.0068226322 0.46463567 -0.57698065 -0.67171955 0
0.0063778702 -0.041641414 0.0084641911 0.60599625 -0.52098817 -0.60111552 0
-0.021792376 -0.037257422 0.0079343049 -0.71409136 -0.32264996 -0.62126523 0
-0.01907647 -0.038371526 0.0057944478 -0.6111958 -0.37943712 -0.69459856 0
0.0046205334 -0.039567564 0.0053415978 0.57272303 -0.47932807 -0.66500592 0
0.0078552114 -0.037661646 0.007226136 0.668832 -0.36108837 -0.64983004 0
0.010451102 -0.03625685 0.0094611058 0.78408307 -0.22749193 -0.57746094 0
-0.022548718 -0.03250495 0.0073129474 -0.76753926 -0.09436167 -0.63401836 0
0.0086862529 -0.032667246 0.0063135526 0.71218747 -0.11283437 -0.69286168 0
0.010776193 -0.032216538 0.0088181943 0.81497556 -0.1044791 -0.5699991 0
-0.022466341 -0.027534362 0.0073551671 -0.74922329 0.12551534 -0.65031558 0
-0.019841544 -0.025357775 0.0051060505 -0.66070402 0.21698907 -0.71859998 0
0.0085708415 -0.027284009 0.006371513 0.69601727 0.17491508 -0.69639397 0
0.010745157 -0.027736228 0.0089194216 0.82776946 0.1403546 -0.54322952 0
-0.021506723 -0.022808151 0.0080782128 -0.71402067 0.35983387 -0.60057819 0
-0.018802755 -0.021740828 0.0059885024 -0.5639745 0.43186358 -0.70386553 0
0.0042413925 -0.02064039 0.0054100556 0.4851537 0.39298865 -0.7811439 0
0.0076124105 -0.0224657 0.0073971003 0.6617645 0.38228881 -0.64492095 0
0.010274016 -0.024138076 0.0094983317 0.82036489 0.23212846 -0.52260685 0
-0.020532869 -0.019404339 0.0093410686 -0.63373369 0.55926752 -0.53441691 0
-0.01720869 -0.017820278 0.0077627511 -0.50651377 0.58978593 -0.62896448 0
-0.012855428 -0.01638598 0.0064057973 -0.30177191 0.65280294 -0.69482523 0
-0.0076506208 -0.0156866 0.0057101129 -0.079909608 0.72540963 -0.68366325 0
-0.0021243794 -0.016065091 0.0059881397 0.22185574 0.68695968 -0.6920017 0
0.0026238535 -0.017224107 0.0071924129 0.42133951 0.62353593 -0.65854084 0
0.0063587637 -0.018663757 0.008810767 0.61485177 0.50650752 -0.60448945 0
-0.015350866 -0.014681187 0.0095808152 -0.48306051 0.72492367 -0.4910582 0
-0.012024211 -0.014001706 0.0087509146 -0.26355687 0.76390976 -0.58904988 0
-0.0074632224 -0.013549196 0.0081851659 -0.036407698 0.78799921 -0.61459887 0
-0.0027263779 -0.013674817 0.0085169906 0.18395682 0.77304357 -0.60709441 0
0.0011952337 -0.014423353 0.0092382766 0.3622213 0.74310988 -0.56265748 0
-0.010909057 -0.05020798 0.014414372 -0.17883351 -0.93908393 -0.29349595 0
-0.0072732628 -0.050416421 0.013976531 -0.045337282 -0.93216538 -0.3591828 0
-0.003482654 -0.050260559 0.014161583 0.16083111 -0.94523615 -0.28401047 0
-0.020260008 -0.045286771 0.014323776 -0.64561379 -0.71720719 -0.26229101 0
-0.017265121 -0.046741653 0.012773287 -0.51095951 -0.77004308 -0.38203937 0
-0.012672937 -0.048676506 0.012166739 -0.28514525 -0.86546153 -0.41190848 0
-0.0077587119 -0.049341585 0.011462619 -0.046838436 -0.89295417 -0.44770414 0
-0.0022835396 -0.049179163 0.011944271 0.19828922 -0.88497567 -0.42130685 0
0.002549489 -0.047556642 0.01248701 0.44310215 -0.80355525 -0.39744115 0
0.0060112816 -0.045783229 0.01348525 0.56944716 -0.74755353 -0.34189713 0
-0.022007167 -0.042317048 0.01274916 -0.72771168 -0.56158197 -0.3937782 0
-0.019284451 -0.044156305 0.010932929 -0.6307323 -0.62478745 -0.46023616 0
0.0047374209 -0.044937789 0.010275364 0.55011821 -0.70095086 -0.4539139 0
0.0081399195 -0.042921238 0.012241432 0.68656278 -0.59443223 -0.41866672 0
0.010556137 -0.040882438 0.013725563 0.8092857 -0.48307961 -0.33420166 0
-0.025576631 -0.036486678 0.013673357 -0.87976146 -0.29493874 -0.37286845 0
-0.02409837 -0.03806917 0.01185715 -0.83791071 -0.34838867 -0.42015576 0
0.0096774381 -0.039491024 0.010610057 0.70942175 -0.50730616 -0.48924553 0
0.011717128 -0.037358444 0.012635766 0.86213911 -0.32575721 -0.38807002 0
-0.026016017 -0.032480925 0.012864285 -0.91937381 -0.10848092 -0.37813175 0
-0.024739172 -0.033032686 0.010530824 -0.86129701 -0.14261432 -0.48767662 0
0.012724625 -0.032679681 0.012411082 0.91186428 -0.090639874 -0.40035975 0
-0.025915787 -0.027755059 0.012867979 -0.91610712 0.1229882 -0.38160408 0
-0.02471498 -0.026990287 0.010515632 -0.85650909 0.17398453 -0.48592329 0
0.012661855 -0.027484871 0.012482276 0.90315211 0.12504907 -0.41070533 0
-0.025482893 -0.023946604 0.013757704 -0.88106942 0.33631894 -0.33257505 0
-0.023819048 -0.021986842 0.012037843 -0.82133198 0.3786312 -0.42667559 0
0.0095473062 -0.020867141 0.010805012 0.79771614 0.41803518 -0.43462121 0
0.011418359 -0.022708667 0.012751487 0.84647149 0.36420947 -0.38837808 0
-0.021734355 -0.018095298 0.012836502 -0.7064957 0.59659797 -0.38070294 0
-0.018824201 -0.015926117 0.011643692 -0.5719282 0.69744009 -0.43182808 0
0.0044864598 -0.015348257 0.01069894 0.56726152 0.68467659 -0.45763788 0
0.0077253007 -0.017331718 0.012431683 0.67778844 0.62900007 -0.38073841 0
0.010401334 -0.01950446 0.014139313 0.8020426 0.51752734 -0.29814941 0
-0.01681974 -0.013718582 0.012940219 -0.50688982 0.76946348 -0.38857254 0
-0.012428476 -0.011877834 0.012561216 -0.26288584 0.87521923 -0.40605694 0
-0.0075473897 -0.011012931 0.012509556 -0.064884171 0.91913652 -0.38855907 0
-0.0026168555 -0.011437258 0.012437888 0.19103874 0.89837748 -0.39550236 0
0.0023980117 -0.013148386 0.012543263 0.42660144 0.81265926 -0.39698374 0
0.0057173395 -0.014523847 0.013883364 0.58573759 0.73848557 -0.33399177 0
-0.0074627642 -0.0099655446 0.014924018 -0.0082644038 0.96724826 -0.2536976 0
-0.012071348 -0.050641298 0.017864669 -0.26188889 -0.95352143 -0.1490338 0
-0.0074209007 -0.0513056 0.017411187 -0.054026306 -0.98635352 -0.1555243 0
-0.0024870613 -0.050957326 0.017464582 0.19118905 -0.96290833 -0.19040562 0
0.00058904488 -0.050286394 0.018407486 0.39979383 -0.9055444 -0.14196584 0
-0.02092112 -0.045699034 0.017891256 -0.65439534 -0.74506778 -0.12899892 0
-0.017629523 -0.048073478 0.017420992 -0.53198677 -0.82824433 -0.17607249 0
-0.014196594 -0.049742594 0.016643832 -0.3486073 -0.92047697 -0.17662118 0
-0.00010598231 -0.049927697 0.015103669 0.29792383 -0.90079844 -0.31591713 0
0.0029141575 -0.048993815 0.017216103 0.44523552 -0.87826312 -0.17441142 0
0.0067850505 -0.046543982 0.017611889 0.6355325 -0.75479692 -0.16241968 0
-0.025173536 -0.040503159 0.019341264 -0.85879695 -0.4877432 -0.15676212 0
-0.02336378 -0.042686816 0.017221883 -0.80371153 -0.57155114 -0.16546057 0
0.0092494618 -0.044109628 0.017261352 0.72006094 -0.67401314 -0.16498034 0
0.011129061 -0.041712943 0.017842241 0.83012974 -0.5362938 -0.1525569 0
-0.026215421 -0.037402112 0.017430941 -0.92521775 -0.34387296 -0.16038533 0
-0.02482938 -0.039827455 0.015496888 -0.86737531 -0.45058006 -0.21127635 0
0.013161084 -0.037477139 0.017454395 0.93402243 -0.32290867 -0.15274835 0
-0.027324233 -0.032533608 0.017441722 -0.97761512 -0.10208271 -0.18397786 0
0.014271425 -0.032489579 0.017469784 0.98159903 -0.095364839 -0.16543558 0
-0.02721359 -0.027555831 0.01735031 -0.97609341 0.13109893 -0.17336328 0
0.01414601 -0.027382055 0.017424358 0.97512531 0.13726929 -0.17403367 0
-0.025999922 -0.022656873 0.017704647 -0.91990662 0.36662307 -0.13913774 0
-0.024731288 -0.020460328 0.016301231 -0.83926809 0.49173418 -0.23200555 0
0.012772296 -0.022422114 0.017541002 0.9132427 0.38014078 -0.14656311 0
-0.022738228 -0.017308583 0.017463414 -0.76625878 0.62448817 -0.1512022 0
0.0088699851 -0.016319528 0.017372837 0.71838981 0.66885996 -0.19116104 0
0.010909363 -0.018746881 0.017847391 0.81718057 0.55766982 -0.14567223 0
-0.020414453 -0.01457856 0.018373845 -0.64622027 0.75294667 -0.12438106 0
-0.017537227 -0.012702405 0.017414166 -0.52672023 0.8320663 -0.17387216 0
-0.013212983 -0.01061381 0.017302951 -0.31987095 0.93228006 -0.16892722 0
-0.0066470434 -0.010046667 0.015220473 -0.010414103 0.98125762 -0.19241872 0
-0.0014205356 -0.010270465 0.016639411 0.24296096 0.94884402 -0.20165561 0
0.0025946386 -0.011615762 0.017507708 0.42906889 0.88936865 -0.15787114 0
0.0063103782 -0.013816071 0.017773576 0.61544448 0.77454662 -0.14596432 0
-0.010906866 -0.0097451229 0.018429784 -0.19677325 0.97432882 -0.1093785 0
-0.0075231148 -0.0095138447 0.017711852 -0.030718863 0.98878771 -0.1461342 0
-0.003113695 -0.0096800001 0.018082436 0.14197986 0.98286206 -0.117575 0
-0.012317619 -0.050738849 0.022438323 -0.27618036 -0.95849508 0.070791855 0
-0.0074671092 -0.051515449 0.022506291 -0.047719885 -0.99585557 0.077424265 0
-0.0025184744 -0.051151752 0.022541685 0.19139986 -0.97851211 0.076682493 0
0.00081066706 -0.050320346 0.022081254 0.3728545 -0.92643291 0.051976204 0
-0.020975251 -0.045858428 0.022375897 -0.67104435 -0.73973519 0.049913991 0
-0.017575098 -0.048380967 0.022489192 -0.53028411 -0.84194857 0.099606052 0
-0.014656511 -0.04986031 0.023456614 -0.37230489 -0.91624773 0.14791584 0
0.0032630279 -0.049161572 0.022515677 0.46643859 -0.88261616 0.058512699 0
0.0070054061 -0.046585329 0.022423826 0.64188915 -0.76439494 0.060652412 0
-0.025251994 -0.04046227 0.022009244 -0.86254859 -0.50125402 0.068952009 0
-0.023511851 -0.042917129 0.022765417 -0.80000335 -0.59170526 0.099395998 0
0.009333468 -0.044372097 0.022734985 0.71214527 -0.69702923 0.083661318 0
0.01127331 -0.041965168 0.022402426 0.83745831 -0.54080981 0.078665324 0
-0.026464622 -0.037446134 0.022431569 -0.94440609 -0.32136801 0.069423497 0
0.013342256 -0.037576329 0.022577513 0.93961382 -0.33471134 0.071374036 0
-0.027554983 -0.032441009 0.022580812 -0.99318069 -0.090683095 0.073271886 0
0.014481688 -0.032568477 0.022521691 0.9915942 -0.099242084 0.083017103 0
-0.027519904 -0.027548749 0.022350023 -0.99039871 0.12144911 0.066033699 0
0.014401082 -0.027493004 0.022356691 0.98782051 0.13469033 0.077904791 0
-0.026164176 -0.022528855 0.022407347 -0.92155725 0.38500643 0.050023746 0
-0.024898788 -0.020252105 0.023874005 -0.82495892 0.54580295 0.14677151 0
0.013017136 -0.02245234 0.022476627 0.9239735 0.37751055 0.061309759 0
-0.025088271 -0.01995511 0.0212915 -0.87268871 0.48789999 -0.01918745 0
-0.023037534 -0.01732984 0.022559382 -0.78503639 0.61643255 0.061063416 0
0.0090647368 -0.016099112 0.022640379 0.7366116 0.67310077 0.065868236 0
0.01101829 -0.018634647 0.022506749 0.82531238 0.56064409 0.067362703 0
-0.020458672 -0.014488313 0.02238255 -0.66198999 0.74683762 0.063267455 0
-0.017678011 -0.012491125 0.022394834 -0.52316403 0.8482753 0.082027495 0
-0.013523615 -0.01047558 0.022630993 -0.33667961 0.93684101 0.09474089 0
-0.00069292961 -0.010144621 0.023125574 0.25840703 0.9586283 0.1194052 0
0.002557114 -0.011372168 0.022457909 0.44398245 0.89374673 0.064002469 0
0.0065212548 -0.013796849 0.022494495 0.60736102 0.79230618 0.05799479 0
-0.011100288 -0.0097160721 0.02217106 -0.23871076 0.96885842 0.065806605 0
-0.007513972 -0.0093143303 0.022496156 -0.050243251 0.99601471 0.073690966 0
-0.0029115812 -0.009575746 0.022222575 0.18579619 0.98087376 0.058022194 0
-0.011342825 -0.050345115 0.026189804 -0.22162043 -0.93091112 0.29032543 0
-0.0074164332 -0.050697945 0.026920598 -0.05690797 -0.95577681 0.28853446 0
-0.00280385 -0.050542254 0.026592668 0.17041944 -0.94272429 0.28675431 0
0.00026053129 -0.050138116 0.025444414 0.32172766 -0.91449958 0.24531983 0
-0.020576255 -0.045490347 0.026376544 -0.62703717 -0.73463476 0.25910664 0
-0.017547052 -0.047228329 0.027551899 -0.52367276 -0.79912263 0.29524535 0
-0.01287553 -0.04934343 0.028048621 -0.28381979 -0.90143186 0.32690507 0
-0.0076303585 -0.049770925 0.029439513 -0.039290175 -0.93467617 0.3533223 0
-0.0017925936 -0.049534317 0.028842688 0.21301334 -0.89795959 0.38508946 0
0.002574506 -0.04828763 0.027697401 0.44003263 -0.83773112 0.323385 0
0.006265061 -0.046162535 0.027037056 0.60570759 -0.73966932 0.29327056 0
-0.022600198 -0.042473771 0.027533578 -0.77157462 -0.55866539 0.30424598 0
-0.019761797 -0.044708215 0.029627485 -0.56952184 -0.71360409 0.40793881 0
0.0086364858 -0.0433762 0.028029902 0.70350385 -0.61579323 0.3547971 0
0.010696388 -0.041144911 0.027146254 0.81645793 -0.49824372 0.29180419 0
-0.025760755 -0.037002295 0.027050776 -0.90608484 -0.30453369 0.29371697 0
-0.024453817 -0.038884558 0.02860686 -0.83474636 -0.42069292 0.3552689 0
0.012285604 -0.037554309 0.02756371 0.88828427 -0.33304802 0.31627527 0
-0.026511503 -0.032623902 0.027584031 -0.93821651 -0.094488792 0.33289886 0
0.013448119 -0.032660678 0.027614146 0.94479603 -0.11015238 0.30858859 0
-0.026471745 -0.027543204 0.027443197 -0.9409765 0.13896002 0.30863151 0
0.0133575 -0.027536642 0.027584922 0.93608862 0.13983738 0.32277483 0
-0.025605885 -0.023342978 0.026939223 -0.91322893 0.29597598 0.28001976 0
-0.024297809 -0.021378202 0.028295714 -0.83410245 0.44118091 0.33110794 0
0.0099126352 -0.02019657 0.029707864 0.74859422 0.48455018 0.45256808 0
0.011936557 -0.022396527 0.027522584 0.87324333 0.37684712 0.30892113 0
-0.022135222 -0.017713463 0.027416594 -0.7315852 0.61081004 0.3028104 0
-0.019285437 -0.015489189 0.028967673 -0.60341984 0.70177388 0.37867931 0
0.0082257465 -0.016919073 0.02782551 0.70469588 0.62771112 0.33073026 0
0.010631398 -0.019193482 0.026516648 0.78352225 0.55662173 0.27616137 0
-0.020178249 -0.014775215 0.025427427 -0.60611606 0.76079386 0.23198272 0
-0.017342351 -0.013338666 0.02726027 -0.52554125 0.79855293 0.29346147 0
-0.012539926 -0.011240171 0.027667845 -0.28057683 0.90701741 0.31400028 0
-0.00768376 -0.010528556 0.028229045 -0.033009324 0.938595 0.34343818 0
-0.0024522678 -0.010810656 0.027793515 0.17742664 0.93070132 0.31986687 0
0.0026815273 -0.012513215 0.027502466 0.435395 0.84400904 0.31317741 0
0.0060463538 -0.014236959 0.026604041 0.59166861 0.75735778 0.27629244 0
-0.010272623 -0.0099092927 0.025245866 -0.22021921 0.95166266 0.21410677 0
-0.0072318055 -0.0098287072 0.02583955 -0.041235443 0.97588766 0.21434315 0
-0.0042257514 -0.0098422039 0.025734074 0.17787033 0.96486002 0.19340958 0
-0.016457992 -0.046000507 0.03136057 -0.48068491 -0.72409743 0.49459583 0
-0.012432928 -0.047065306 0.032512821 -0.27561909 -0.78506863 0.5547083 0
-0.0075921263 -0.048071314 0.032517225 -0.053377599 -0.84134507 0.53785628 0
-0.00243824 -0.047628656 0.032459959 0.21256734 -0.81335294 0.54154605 0
0.0021603033 -0.046408694 0.031726308 0.40389314 -0.74853587 0.52589393 0
0.0053242687 -0.045279868 0.030411035 0.55378723 -0.71613669 0.42481527 0
-0.02113796 -0.041563746 0.031493783 -0.69512576 -0.51473647 0.50184309 0
-0.018080164 -0.043194775 0.033222187 -0.5368703 -0.60043353 0.59266341 0
-0.014354191 -0.044666 0.034663208 -0.31665969 -0.68170816 0.65954578 0
0.0034804894 -0.043844361 0.033872884 0.46581548 -0.63099331 0.62037361 0
0.0070770453 -0.042059951 0.032137565 0.64213818 -0.56002992 0.52347398 0
0.010079538 -0.040010471 0.030094456 0.81616634 -0.43071258 0.3851743 0
-0.022625962 -0.03761765 0.032584291 -0.75920451 -0.34187275 0.55383343 0
-0.019764958 -0.039678011 0.034789886 -0.64104176 -0.40845263 0.64979368 0
0.0086950418 -0.038015671 0.033521339 0.72644067 -0.35850525 0.58630872 0
0.010849385 -0.036942158 0.031251714 0.82138318 -0.31251431 0.47714189 0
-0.025330199 -0.031888131 0.030670388 -0.88893026 -0.095365994 0.44800493 0
-0.023731289 -0.032569632 0.033095282 -0.81570601 -0.082537115 0.57254815 0
0.0095925136 -0.032678254 0.034456782 0.75219309 -0.090662651 0.65267593 0
0.011474184 -0.03232836 0.031983815 0.84276396 -0.096812852 0.52950561 0
-0.025290338 -0.027992899 0.030698013 -0.87851804 0.11392787 0.46392491 0
-0.023605468 -0.027348971 0.033104759 -0.80477726 0.12856588 0.57948631 0
0.0094918134 -0.026976537 0.034313075 0.76882792 0.15261665 0.62097657 0
0.011363939 -0.027572596 0.031936336 0.83905339 0.1462824 0.52401417 0
-0.022469021 -0.022502385 0.032406755 -0.74859846 0.36947468 0.55053502 0
-0.019530009 -0.020559996 0.034584161 -0.57656986 0.52362221 0.62720567 0
0.0084829107 -0.021972455 0.03318914 0.71073163 0.4022539 0.57710695 0
0.010762524 -0.023460321 0.031157741 0.80918139 0.33333737 0.48385087 0
-0.020961935 -0.018784756 0.031337749 -0.66515183 0.55054384 0.50445461 0
-0.017829133 -0.017098535 0.032802466 -0.53232419 0.62220234 0.57401663 0
-0.013513981 -0.015602211 0.034436043 -0.33491156 0.67881894 0.65348226 0
-0.00074227643 -0.015258552 0.034705169 0.2517927 0.69895422 0.66937542 0
0.0032208925 -0.016408548 0.033478212 0.46623537 0.64367294 0.60688537 0
0.0067919227 -0.018116994 0.031865779 0.62324566 0.58356339 0.52059448 0
-0.015993023 -0.014435125 0.031262174 -0.43772101 0.76670891 0.46963573 0
-0.012459951 -0.013474113 0.032179303 -0.29078776 0.79863763 0.52689695 0
-0.0075199646 -0.012835588 0.03264029 -0.044953942 0.83533353 0.54790229 0
-0.0024634381 -0.01322211 0.032567047 0.20663787 0.81579477 0.54016632 0
0.0018342177 -0.014060457 0.031487323 0.3758586 0.78145254 0.49805856 0
-0.010935167 -0.045336537 0.035296686 -0.27277008 -0.71272248 0.64623761 0
-0.0075459261 -0.045702811 0.03561775 -0.046344619 -0.69156992 0.7208212 0
-0.0028154156 -0.045464989 0.035463918 0.16883741 -0.6933887 0.70050412 0
-0.016566541 -0.041312546 0.036095023 -0.48214579 -0.53513014 0.69366497 0
-0.012480198 -0.04247668 0.037235204 -0.26416293 -0.58436042 0.76729441 0
-0.0074836472 -0.042648878 0.038137317 -0.052150924 -0.57985085 0.81305176 0
-0.0025173137 -0.042595014 0.037727565 0.1927343 -0.57726562 0.79348463 0
0.0021816036 -0.041833118 0.036404498 0.42452416 -0.52909714 0.73473501 0
0.0053481278 -0.040507376 0.035284653 0.53642607 -0.43567124 0.72279847 0
-0.02070676 -0.036330611 0.03557846 -0.62915826 -0.28020942 0.72501212 0
-0.017531479 -0.03740871 0.037541196 -0.51974231 -0.33111987 0.7875452 0
-0.013361628 -0.038420863 0.03931205 -0.34504941 -0.34961903 0.87103814 0
-0.0076990766 -0.039846599 0.039870515 -0.058562692 -0.46755394 0.88202256 0
-0.0014456491 -0.039065752 0.039592709 0.26012704 -0.39277157 0.88207954 0
0.0026682422 -0.037640993 0.0384834 0.43285733 -0.34332067 0.8335259 0
0.0065196683 -0.03710115 0.036200125 0.59225619 -0.3206521 0.73919874 0
-0.02113767 -0.032253988 0.036139302 -0.69648665 -0.099474981 0.71064132 0
-0.017817274 -0.032718603 0.038687717 -0.53346825 -0.10581195 0.83917552 0
-0.01488265 -0.034883268 0.039947826 -0.39800298 -0.30615065 0.86479211 0
0.0036278607 -0.032823142 0.039354779 0.48979357 -0.13353524 0.86155123 0
0.0070743249 -0.032500807 0.036997471 0.64116251 -0.10491724 0.76019937 0
-0.021175276 -0.027828876 0.03605289 -0.67645007 0.12790756 0.72529644 0
-0.01784867 -0.027361311 0.038523883 -0.54175878 0.15606001 0.82591927 0
-0.014543504 -0.025231356 0.039897617 -0.3137334 0.25322548 0.91512203 0
0.0035681683 -0.027213117 0.039271351 0.46681643 0.14965847 0.8715989 0
0.0071773818 -0.027518474 0.036774471 0.64721531 0.14953654 0.74749655 0
-0.020527497 -0.023742508 0.035492752 -0.64870512 0.3052474 0.69714099 0
-0.017384738 -0.02250383 0.037204273 -0.49771336 0.37550876 0.78184044 0
-0.012992777 -0.021935917 0.039124038 -0.30158126 0.39739686 0.86667436 0
-0.0075320643 -0.020628195 0.039682504 -0.086972825 0.47492152 0.87571979 0
-0.0019950299 -0.021262778 0.03951396 0.20685889 0.40534693 0.89045107 0
0.0025696652 -0.022435483 0.038233954 0.42469114 0.38019595 0.82163763 0
0.0063573429 -0.023084268 0.036081471 0.6102075 0.32002938 0.7247262 0
-0.016285744 -0.018963989 0.035805002 -0.44803482 0.55333143 0.70220309 0
-0.012321356 -0.017796258 0.036839861 -0.27810407 0.59672379 0.75271434 0
-0.0075031975 -0.017462142 0.037587583 -0.055467408 0.60593987 0.79357439 0
-0.0025837943 -0.017526099 0.037205461 0.18393472 0.61193693 0.76922125 0
0.0020515446 -0.018624052 0.036238544 0.40997931 0.57330012 0.70939684 0
0.0052452795 -0.019898465 0.035103854 0.57292181 0.57352072 0.5855208 0
-0.010369737 -0.014998809 0.035114378 -0.20708795 0.73495489 0.64572126 0
-0.0075049321 -0.01474136 0.035271972 -0.049158551 0.72109026 0.69109493 0
-0.0038611479 -0.014800912 0.03518869 0.15243262 0.72308505 0.67373013 0
-0.01167559 -0.036623351 0.040535875 -0.22171637 -0.29508546 0.92939031 0
-0.0074556796 -0.037366048 0.040855058 -0.038914997 -0.32626939 0.94447541 0
-0.0028712638 -0.036918607 0.040650126 0.17525081 -0.29428521 0.93951231 0
0.00046409981 -0.035643917 0.04017872 0.33973524 -0.23211554 0.91142875 0
-0.015441483 -0.03173469 0.040176749 -0.43947914 -0.045178737 0.89711595 0
-0.012465931 -0.032447718 0.041125584 -0.27022192 -0.085499085 0.95899421 0
-0.0075059514 -0.032422662 0.041903786 -0.039547432 -0.083865911 0.99569196 0
-0.0025430268 -0.032467682 0.041545756 0.18058193 -0.097198568 0.9787454 0
0.0012503776 -0.032277763 0.040554922 0.35526797 -0.10052567 0.92934346 0
-0.015348643 -0.028481925 0.040185921 -0.39750886 0.075059287 0.9145233 0
-0.012467762 -0.027615353 0.040993523 -0.26613683 0.14270762 0.95331299 0
-0.0074697691 -0.027469795 0.041787829 -0.051107693 0.12681274 0.99060917 0
-0.0025481728 -0.027629601 0.041502584 0.20001976 0.11449687 0.97307897 0
0.0012622001 -0.027883634 0.040435597 0.32860571 0.12261958 0.93647355 0
-0.011457079 -0.023790261 0.040407911 -0.23997007 0.31935397 0.91674823 0
-0.0073494529 -0.023008173 0.040734429 -0.042381234 0.34338313 0.93823868 0
-0.0027485022 -0.023537057 0.04060965 0.18207012 0.33761647 0.92350721 0
0.00029171276 -0.024530821 0.040105108 0.44218737 0.27790132 0.8527844 0
