# .PCD v0.7 - Point Cloud Data file format
VERSION 0.7
FIELDS x y z normal_x normal_y normal_z curvature
SIZE 4 4 4 4 4 4 4
TYPE F F F F F F F
COUNT 1 1 1 1 1 1 1
WIDTH 657
HEIGHT 1
VIEWPOINT 0 0 0 1 0 0 0
POINTS 657
DATA ascii
0.11550572 -0.023349008 0.014282234 0.7701894 0.10875633 -0.62847471 0
-0.17111193 -0.017710937 0.014045826 -0.63810486 -0.12530275 -0.7596851 0
-0.16689792 -0.017381327 0.012969691 0.27714053 0.029991511 -0.96036112 0
-0.16493176 -0.019197341 0.013523504 0.9765324 0.16952503 0.13283756 0
-0.13026053 -0.019893412 0.012777513 -0.59784549 0.80102247 -0.030721266 0
-0.12751192 -0.018885149 0.01239877 -0.39355978 0.91927928 0.0060259555 0
-0.12246317 -0.018055057 0.01266142 0.017642783 0.9767499 0.21365499 0
-0.11798055 -0.018678734 0.012296666 0.3714909 0.85458231 0.36288226 0
-0.11473893 -0.019732207 0.010646496 0.68687421 0.69646335 0.2077083 0
-0.0517837 -0.019320104 0.011849879 -0.29962766 0.94712651 0.1147806 0
-0.047467213 -0.018206209 0.012154648 -0.29030055 0.9505406 0.11044516 0
-0.042657502 -0.01725547 0.012762677 -0.27958396 0.88482136 0.37272495 0
-0.038296986 -0.016084198 0.013026436 -0.28266415 0.86041528 0.42401239 0
-0.031870928 -0.017291971 0.014487423 0.13757023 -0.1393211 0.9806447 0
-0.027327044 -0.017358486 0.014028468 0.1889905 -0.032246355 0.98144931 0
-0.022901164 -0.017559202 0.012145469 0.60230976 0.44631195 0.66183722 0
0.043298814 -0.016693555 0.013328652 -0.53568822 -0.61593753 -0.57763231 0
0.047048081 -0.017235691 0.012591664 -0.098501496 -0.36663556 -0.92513561 0
0.052444946 -0.017193705 0.012087189 -0.1261259 -0.48203042 -0.86702883 0
0.057058588 -0.017141048 0.012671253 0.39961791 0.5960111 -0.69647413 0
0.062383138 -0.018475624 0.012821077 0.24452835 0.88059568 -0.40590289 0
0.0665543 -0.019512942 0.01345071 0.3268463 0.9013043 0.28429204 0
0.084305376 -0.019263085 0.010279013 -0.25495124 0.60818511 0.75173849 0
0.087427109 -0.018936671 0.011014514 -0.26175147 0.54994798 0.79312259 0
0.092749782 -0.017963076 0.011710041 -0.2569001 0.68799973 0.67871839 0
0.097596288 -0.017238436 0.012423316 -0.24940656 0.7828384 0.57005286 0
0.10256526 -0.016318182 0.012704464 -0.15230539 0.97085041 0.18507455 0
0.10744564 -0.016738651 0.012071813 0.31736121 0.78010666 -0.5391804 0
0.11230366 -0.01848626 0.013465244 0.64887178 0.60339624 -0.46354982 0
-0.17750871 -0.011520812 0.010295616 -0.13678397 0.028709961 0.99018484 0
-0.17182365 -0.01222615 0.012813437 -0.80178851 -0.32329166 -0.50261086 0
-0.16723783 -0.012671463 0.012499963 0.86890614 -0.48979598 -0.071429491 0
-0.16261192 -0.011747332 0.011417137 0.0039967811 -0.64679343 0.76265472 0
-0.15753478 -0.011199934 0.012053825 0.015442856 -0.75954616 0.65027004 0
-0.15204275 -0.011067115 0.011729059 0.075619198 -0.94797862 0.30922201 0
-0.14760335 -0.010595693 0.011848266 0.12174192 -0.9902432 0.067803435 0
-0.14399436 -0.010267227 0.012293847 0.10844246 -0.99334264 0.038865399 0
-0.036665339 -0.014563969 0.011908963 -0.31869885 0.9478516 0.0028927235 0
-0.032240137 -0.013869715 0.012491181 -0.13395442 0.99091607 0.011900561 0
-0.028050367 -0.01384884 0.011663783 0.24384461 0.96489978 0.097510137 0
0.041726165 -0.012819085 0.012018626 -0.7459079 -0.42110386 -0.5160358 0
0.047520362 -0.012666954 0.012124756 0.92658389 0.28401294 -0.24653392 0
0.05213882 -0.012937965 0.012377675 -0.24935424 0.66052908 0.70818341 0
0.05792379 -0.01216777 0.012108076 0.65353352 -0.53719378 0.53321368 0
-0.17200641 -0.0080659892 0.01230309 -0.94621134 0.16544649 -0.27804944 0
-0.16733311 -0.0069633713 0.012445774 0.91870445 0.09755747 0.382707 0
-0.16247171 -0.0075143576 0.011723938 -0.17481583 0.3968167 0.90109706 0
-0.15742804 -0.0072714672 0.012593401 -0.18053214 0.32242793 0.92921931 0
-0.15271038 -0.0073527275 0.013480141 -0.17177613 0.19194759 0.96625519 0
-0.14765731 -0.0079173576 0.014369383 -0.1236688 -0.14779769 0.98125523 0
-0.14241068 -0.0088698119 0.012960377 0.09848132 -0.93000478 0.35410807 0
-0.13761757 -0.0075471457 0.011908202 0.45688137 -0.76190364 -0.45908856 0
-0.13411175 -0.0056907255 0.01255454 0.6549238 -0.72076559 -0.22709443 0
0.041736539 -0.0075614341 0.012936585 -0.69578415 0.41833967 0.58384615 0
0.047054213 -0.0078216046 0.012093763 0.76722801 0.071498647 0.63737667 0
0.053768318 -0.0076961438 0.011873555 -0.83818483 0.041116286 0.54383415 0
0.057744596 -0.0078421598 0.014143389 0.076955631 -0.23998939 0.96772045 0
0.060440995 -0.0073878029 0.011762287 0.9855386 -0.1667742 0.030001849 0
-0.17138119 -0.0023493504 0.012296266 -0.82079184 0.12072627 -0.55832422 0
-0.16701044 -0.0028781143 0.01237168 0.80973476 -0.51403892 0.28300804 0
-0.16339532 -0.0021815775 0.011096551 0.52570009 -0.40822503 0.74631876 0
-0.15822065 -0.00434021 0.01051864 -0.17961743 0.78476292 0.59319866 0
-0.15263191 -0.0027550145 0.011183163 -0.35188016 0.42269856 0.83516836 0
-0.14747797 -0.002490405 0.011578087 -0.066523857 0.66643399 0.74259025 0
-0.14227572 -0.0027112579 0.011767723 -0.10872309 0.9904635 -0.084624156 0
-0.13831359 -0.0021099595 0.011794938 -0.40085107 0.67899156 -0.61505198 0
-0.13249783 -0.0025356691 0.011611247 0.70361674 -0.42216241 -0.57157892 0
0.04341004 -0.0033820972 0.011173993 -0.46715346 0.68248284 0.56212527 0
0.047062043 -0.0026209052 0.010908091 0.24400717 0.4117012 0.87804478 0
0.053439409 -0.0021142785 0.012519616 -0.79682815 -0.21843661 0.56333858 0
0.058310423 -0.0023741331 0.012823773 0.86035973 0.24743088 0.44559973 0
0.060384147 -0.0029840723 0.012366412 0.98254341 0.18587175 -0.0077448594 0
-0.1704763 0.00060276187 0.013570779 -0.62889254 0.76749986 0.12425043 0
-0.16756347 0.0017357969 0.012636503 -0.1315202 0.88393509 0.44873282 0
-0.16313797 0.0015874868 0.011210626 0.54385793 0.46043083 0.70158529 0
-0.15623093 0.0029737565 0.012121794 -0.84055585 -0.52142757 0.14689867 0
-0.15284976 0.0023457115 0.013226974 0.19266003 -0.49961939 0.84454876 0
-0.14905837 0.0026033691 0.010829865 0.63493365 0.21721119 0.74140304 0
-0.1365657 0.0022571979 0.01257812 -0.97303319 0.20630667 0.10317007 0
-0.13099621 0.001992373 0.012121532 0.96558112 -0.12544233 -0.22785382 0
-0.12983182 0.0030195105 0.01252784 0.9961136 0.058997426 0.065399058 0
0.05232067 0.0027514549 0.012769011 -0.80799943 -0.23828062 0.53884995 0
0.058472894 0.0024954458 0.0122863 0.94891113 0.27670172 -0.15167017 0
-0.15720609 0.0074034347 0.012180816 -0.99369776 0.012487995 -0.1113955 0
-0.15119439 0.007106497 0.012702933 0.85894096 -0.047356702 0.50988019 0
-0.14756259 0.0082527511 0.010727361 0.028183427 -0.37125096 0.92810476 0
-0.14201461 0.0085668704 0.011259141 -0.15903775 -0.64309478 0.74909019 0
-0.13728705 0.0073551391 0.012863651 -0.65597427 -0.32145289 0.68290985 0
-0.13217692 0.0076194601 0.013320591 0.66682565 0.39902675 0.62938154 0
-0.12997782 0.0051105199 0.011821421 0.97852683 0.18621224 -0.088376157 0
0.049539391 0.0084842527 0.011009538 -0.95999599 -0.26194349 -0.098961614 0
0.051444523 0.0077473326 0.013412266 -0.71604484 -0.21411346 0.66440594 0
0.057119619 0.0075017335 0.012069469 0.90104592 0.25040922 -0.35413492 0
-0.15659754 0.011858448 0.012194142 -0.93010616 0.36121047 -0.066555463 0
-0.15242937 0.013182612 0.011694094 -0.16240451 0.89883012 -0.40709847 0
-0.14748442 0.012592508 0.011873441 0.17089128 -0.067459673 0.98297781 0
-0.14232756 0.012956649 0.012199699 -0.17693895 0.17862524 0.96787685 0
-0.13767049 0.012888825 0.01254842 0.17659892 0.62278229 0.76220405 0
-0.13354099 0.011150286 0.012134984 0.6442495 0.67768627 0.35451928 0
0.04881594 0.012974221 0.012026747 -0.91373235 -0.27051729 0.30317247 0
0.05269888 0.01259359 0.012092999 -0.34960824 -0.049926843 -0.9355647 0
0.056070771 0.012483407 0.012965288 0.96069747 0.27759182 0.00173146 0
-0.15544899 0.016367715 0.014010733 -0.77069193 0.42559749 -0.47423708 0
-0.15258418 0.017608607 0.012383573 -0.45774844 0.26125583 -0.84983039 0
-0.14781331 0.017336484 0.012041193 0.76710474 -0.18692531 -0.61368501 0
-0.142278 0.015409051 0.010410577 -0.0038714935 0.90948415 0.41572058 0
-0.13928495 0.015086335 0.010828447 0.2028001 0.93837547 0.27986351 0
-0.020847542 0.019070158 0.010612243 -0.51837444 -0.79717636 0.30951202 0
-0.017204456 0.018888192 0.012842087 -0.25235736 -0.82725435 0.50196213 0
-0.013125214 0.018931359 0.01247518 0.3726792 -0.92774916 0.019793989 0
0.047815274 0.017348967 0.012178151 -0.94535685 -0.27133009 0.18077731 0
0.053445056 0.017978514 0.011838539 0.80362141 0.24282077 -0.54335129 0
0.055207204 0.016050054 0.013609442 0.93721133 0.26222694 0.22993921 0
-0.1518797 0.022270923 0.013538602 -0.70774972 0.37258089 -0.60022807 0
-0.14715062 0.021998301 0.012100327 0.1104717 -0.042947583 -0.99295092 0
-0.14411233 0.023424506 0.01301672 0.88768178 -0.44243097 0.12757665 0
-0.021621799 0.022146428 0.011264117 -0.44584104 0.20274916 0.87184781 0
-0.017489709 0.023347301 0.012785901 -0.5737282 0.55465311 0.60265726 0
-0.01211579 0.022363791 0.012480625 0.64755797 -0.62630886 -0.43405738 0
-0.0087929433 0.022712644 0.012542008 0.76902151 -0.4549965 -0.4489812 0
0.044907764 0.02413943 0.011698296 -0.87597519 -0.26163304 0.40523541 0
0.047112025 0.022506172 0.011403563 -0.68573225 -0.19357048 -0.70164216 0
0.052333459 0.022426186 0.01182753 0.76114935 0.23505622 -0.60448337 0
-0.15035462 0.02630789 0.014052627 -0.75280833 0.38849053 -0.53137064 0
-0.14746766 0.027426168 0.012472196 -0.41949764 0.22312556 -0.87990731 0
-0.14230007 0.027746972 0.012515998 0.84931827 -0.43854362 -0.29383308 0
-0.020340158 0.028019914 0.014725775 -0.73665243 0.07052651 -0.672584 0
-0.017971449 0.027223924 0.012801621 -0.74369758 -0.42617041 -0.51506579 0
-0.012119037 0.02745387 0.013059701 0.3221226 -0.19580063 0.92622846 0
-0.0069288397 0.027984038 0.0130883 0.74492443 -0.092192881 -0.660748 0
0.037931256 0.029375309 0.012578275 -0.10119354 -0.99416369 0.037395727 0
0.043047946 0.028644854 0.011661898 -0.63333172 -0.76981348 0.079234987 0
0.047089886 0.02739411 0.011295824 -0.23319446 -0.031404078 -0.97192293 0
0.051346198 0.027746212 0.0124712 0.87537479 0.26792061 -0.40241468 0
-0.14677398 0.032061525 0.013457808 -0.66230738 0.34329644 -0.66595536 0
-0.14178096 0.032117497 0.012545547 0.29965258 -0.15315001 -0.94167578 0
-0.1390489 0.033318598 0.012325091 0.85552442 -0.42747211 -0.29213956 0
-0.017081855 0.031299271 0.012434741 -0.54441595 0.79973227 -0.25306055 0
-0.012372146 0.032323807 0.012632354 -0.364553 0.8547675 -0.36942324 0
-0.0067640189 0.032762185 0.013119598 0.67290366 -0.0021410405 -0.73972702 0
0.0342746 0.032952819 0.013618072 -0.89294451 0.091892406 -0.44068789 0
0.036720816 0.032515861 0.01207123 -0.86173081 0.21973526 -0.45731446 0
0.04251327 0.032176405 0.012429683 0.14958178 -0.57351416 0.80542332 0
0.047828529 0.03259398 0.01110669 0.3362346 0.12353562 -0.93364084 0
0.050607633 0.031956125 0.013182787 0.93408352 0.29062194 -0.20742911 0
-0.1457285 0.035833303 0.014482023 -0.80581564 0.41452882 -0.4228794 0
-0.14260571 0.037426133 0.012638331 -0.47570986 0.23831506 -0.84670305 0
-0.13777401 0.037350774 0.012479808 0.78831184 -0.37851831 -0.48506525 0
-0.12660351 0.039511561 0.011619723 -0.16959827 -0.98476899 0.038296711 0
-0.12264493 0.039638218 0.012657124 0.15326458 -0.98552084 -0.072516829 0
-0.011637968 0.03746964 0.012984192 -0.89034134 -0.049830381 -0.45255852 0
-0.0073125684 0.037401535 0.01272157 0.55366051 -0.0038110865 -0.83273375 0
0.033700757 0.038849607 0.010429748 -0.23729905 -0.52764803 0.81564498 0
0.03780584 0.037205316 0.012770955 -0.74384832 0.20398279 0.63645953 0
0.041885521 0.037165891 0.012472443 -0.65030211 -0.56848931 0.50391173 0
0.047558393 0.037403516 0.011728585 0.69524825 0.31947604 -0.64386725 0
-0.14155924 0.041880086 0.013324373 -0.60963887 0.29566872 -0.73547292 0
-0.13739665 0.042277932 0.012109727 -0.078353532 0.019015104 -0.99674428 0
-0.13267143 0.043177135 0.012275078 0.0024062276 -0.682971 0.73044151 0
-0.12782873 0.042053174 0.013318618 -0.47977206 -0.27812478 0.83214509 0
-0.1219098 0.040938724 0.012432606 0.23674487 -0.95567852 -0.17501579 0
-0.11767782 0.042000219 0.012590848 0.47597495 -0.81291556 -0.33558312 0
-0.11386227 0.044008967 0.013341501 0.57782269 -0.81211144 -0.081215397 0
-0.011664351 0.042356081 0.013003848 -0.96432459 -0.019130215 -0.26403084 0
-0.0069930456 0.04260055 0.012923107 0.63280511 -0.023714639 -0.77394778 0
0.033706639 0.042070363 0.011047912 -0.5559442 0.31939512 0.76740652 0
0.037581924 0.043165378 0.012387878 -0.30069491 0.61777323 0.72659391 0
0.04227775 0.042659674 0.012836083 0.26677701 0.87477762 0.40446785 0
0.045980643 0.041033372 0.012965603 0.67063838 0.73830712 0.071740665 0
-0.14018223 0.046052992 0.013869907 -0.74201602 0.36432797 -0.56274098 0
-0.13739616 0.047656327 0.012481831 -0.518062 0.22443065 -0.82537431 0
-0.13232279 0.04749877 0.012430253 0.72829139 -0.51520121 0.45184004 0
-0.12742275 0.046918608 0.011577789 0.1955187 0.72144139 0.6643002 0
-0.12222219 0.046861425 0.012458308 -0.43857521 0.82479405 0.3568846 0
-0.1177593 0.047846254 0.011783463 -0.34594095 0.6479736 -0.67856842 0
-0.11190981 0.047010139 0.011740163 0.3827101 -0.54641378 -0.74495965 0
-0.1076622 0.048465528 0.0131637 0.5766412 -0.80809283 -0.12029478 0
-0.011465302 0.047660604 0.012582869 -0.88521409 -0.032498635 -0.46404716 0
-0.0075063049 0.047608037 0.012458785 0.54230458 -0.024543816 -0.83982342 0
-0.13641526 0.052209035 0.013561876 -0.71948707 0.55690169 -0.41496855 0
-0.13290948 0.053134482 0.011775973 -0.60192686 0.36791807 -0.70874566 0
-0.12728481 0.052002259 0.0129759 0.456893 -0.52764732 0.71612644 0
-0.12332079 0.052322581 0.011113338 0.47023225 -0.26395634 0.84214526 0
-0.11624768 0.051057871 0.011744112 -0.5397433 0.84106338 -0.035910744 0
-0.11245516 0.052741539 0.011617592 -0.48048976 0.66842383 -0.56774914 0
-0.10756942 0.052626148 0.011074335 0.11925263 -0.1662661 -0.97884339 0
-0.10265069 0.052803162 0.012317024 0.49671376 -0.68723989 -0.53007245 0
-0.099047422 0.054617848 0.012916199 0.5686146 -0.7802422 -0.26057523 0
-0.01177106 0.052457277 0.013096835 -0.99137723 0.0026068382 0.13101347 0
-0.0068137567 0.052950446 0.012642362 0.65988201 -0.050947756 -0.74963993 0
-0.13146922 0.055866774 0.012841213 -0.33873534 0.94084871 0.007874296 0
-0.12727481 0.056199912 0.012245703 0.21814714 0.89766324 0.38290045 0
-0.12375935 0.055764675 0.010697874 0.51589155 0.72984517 0.44853309 0
-0.11056055 0.055433746 0.011814268 -0.5724656 0.81986797 -0.009984836 0
-0.10706037 0.056969225 0.011692691 -0.53782678 0.72915655 -0.42317033 0
-0.10279085 0.057807826 0.011406132 -0.15031679 0.22576274 -0.96251547 0
-0.097123705 0.056930035 0.012456594 0.51622081 -0.69378364 -0.50217557 0
-0.09361773 0.058746353 0.012856323 0.56842762 -0.76548481 -0.30153438 0
-0.011547423 0.057773214 0.012684572 -0.99632573 -0.0053832731 -0.085475653 0
-0.0073369145 0.057774346 0.011954016 0.54155272 -0.070130184 -0.83773643 0
-0.0049665384 0.057325404 0.014041472 0.99543744 0.0099893128 0.094891943 0
-0.10202274 0.061066777 0.011845971 -0.55368239 0.79138917 -0.25911197 0
-0.097647719 0.063229494 0.01205403 -0.53650713 0.74822181 -0.39028728 0
-0.092373028 0.061837196 0.011484501 0.28393239 -0.38701627 -0.87726897 0
-0.087817445 0.063298918 0.012670622 0.54771549 -0.73395818 -0.40163797 0
-0.084729701 0.064947218 0.014132863 0.59047455 -0.79668647 0.12895934 0
-0.01152859 0.062473036 0.012549569 -0.9956187 0.0080947615 -0.093155429 0
-0.0065475143 0.062747829 0.012168233 0.70065606 -0.064264283 -0.71059912 0
-0.0049917214 0.060678445 0.013581273 0.99101686 -0.0037981647 -0.13368317 0
-0.095973082 0.06616883 0.012017812 -0.63409889 0.75500989 0.16696942 0
-0.092988916 0.067258447 0.012400167 -0.61778623 0.7234031 0.30826616 0
-0.088010907 0.066838056 0.011388848 0.1255444 -0.30325922 -0.94460177 0
-0.083070852 0.067537546 0.012561679 0.74096096 -0.62648219 -0.24186161 0
-0.025679585 0.06952253 0.012024506 -0.70229691 -0.71056223 0.043362517 0
-0.022504726 0.06797085 0.012573844 -0.31954977 -0.82261235 0.47031561 0
-0.017613517 0.066877469 0.011785961 0.16089924 -0.74407369 0.64843339 0
-0.012422281 0.067373298 0.012322328 -0.776416 -0.18890697 0.60124236 0
-0.0067208866 0.06766782 0.011682189 0.68410736 -0.082287863 -0.72472465 0
-0.0049269903 0.068201274 0.01321668 0.99624199 -0.023835164 -0.083269373 0
-0.097106889 0.072516344 0.011279522 -0.40294859 -0.41002408 0.81823754 0
-0.093053922 0.071836106 0.011016713 0.33060771 0.086015955 0.93984026 0
-0.087148659 0.072546467 0.012630301 -0.69421279 0.6350438 0.33880377 0
-0.08107809 0.07205984 0.012546487 0.96760798 -0.21617624 0.13039419 0
-0.079954542 0.0740242 0.011375033 0.9996773 0.022226419 -0.012295071 0
-0.02752099 0.072292343 0.012488871 -0.82957292 -0.55014193 0.095669195 0
-0.02213924 0.072816476 0.013823341 0.47482088 0.28231511 0.83357269 0
-0.017848419 0.072069719 0.011533126 0.40329063 0.72470403 0.55871361 0
-0.012449476 0.072610177 0.012589348 -0.82832688 -0.22935478 0.51114666 0
-0.0062068026 0.072353996 0.012534847 0.96803534 0.21152268 -0.13478029 0
-0.004968578 0.070028 0.013474616 0.91587514 0.15157357 0.37175035 0
-0.10025053 0.077987164 0.011012524 -0.83565831 -0.054801654 0.54650891 0
-0.097264163 0.077231787 0.012224059 0.03781499 -0.053122845 0.99787176 0
-0.0939904 0.076676182 0.010855074 0.66065669 0.060381819 0.74825591 0
-0.086262889 0.07773082 0.011453199 -0.79069632 0.13121657 0.59798121 0
-0.08168675 0.077283524 0.012183708 0.66065621 0.43597969 0.61110973 0
-0.030908445 0.078168191 0.012269251 -0.87389827 -0.47483784 -0.10407101 0
-0.027665006 0.076690458 0.013424499 -0.3536016 -0.18224785 0.91747016 0
-0.023029221 0.077267408 0.012358945 0.73453647 0.42074034 0.53238493 0
-0.016928038 0.077641293 0.011165468 -0.51636946 -0.2579315 0.81659901 0
-0.012533975 0.077656858 0.012984858 -0.22365607 0.43582019 0.87180203 0
-0.0079152249 0.076646537 0.012321947 0.75556934 0.63398147 0.16487138 0
0.037447914 0.078790024 0.012602328 -0.39372656 -0.90891004 -0.13733895 0
0.042314958 0.07813669 0.012513281 0.061605923 -0.95244837 0.29840714 0
0.047440756 0.078951478 0.011709206 0.47952658 -0.79754877 0.3660194 0
-0.10021004 0.081692584 0.010663401 -0.98563355 0.079500981 0.14901736 0
-0.097898632 0.082647033 0.012330806 -0.25403214 0.012693285 0.96711248 0
-0.093845487 0.08297503 0.010952308 0.65640146 -0.06029376 0.75199854 0
-0.08606524 0.081019923 0.01081909 -0.45598382 0.23199685 0.85921842 0
-0.083740965 0.081195161 0.010973291 0.24742633 0.68105429 0.68916267 0
-0.035147611 0.08479736 0.012269907 -0.85696 -0.47560039 0.19855444 0
-0.033128679 0.082557119 0.012794046 -0.86039799 -0.47827825 0.17596909 0
-0.026797067 0.083044 0.013042015 0.68305254 0.367677 0.63107276 0
-0.024396548 0.081445284 0.010959946 0.87546569 0.46159083 0.14315656 0
-0.016542742 0.080281831 0.010686367 -0.31680745 0.68586558 0.65515 0
-0.013689832 0.08054471 0.010891864 0.025436804 0.90608877 0.4223223 0
0.033178058 0.082710795 0.012477739 -0.66541898 -0.4945316 -0.55915654 0
0.037539687 0.082743175 0.010637871 -0.15195955 0.11645218 -0.98150253 0
0.042955086 0.083073989 0.013529967 0.23349936 0.53226304 0.81374067 0
0.04751147 0.082615174 0.012799514 0.27511856 0.25304902 0.92751062 0
0.051214546 0.08320874 0.011183761 0.672885 -0.22239405 0.70552582 0
-0.097869225 0.087562658 0.01202849 -0.38000485 0.030820016 0.9244709 0
-0.09388493 0.088102408 0.011350721 0.64971131 -0.050310966 0.7585144 0
-0.036321312 0.087683253 0.012635464 -0.87080157 -0.48270926 0.093254969 0
-0.032116845 0.086981639 0.013791277 0.19742689 0.10884893 0.97425592 0
-0.028068472 0.086855076 0.012126855 0.77032048 0.42126414 0.47868869 0
0.029647248 0.088063881 0.013377779 -0.94291949 -0.31991991 -0.092488386 0
0.032329526 0.087157637 0.011576103 -0.30109388 -0.16351941 -0.93946999 0
0.037578013 0.087517299 0.011476279 -0.090860397 -0.046414379 -0.99478149 0
0.04263569 0.086668916 0.012582859 0.64853287 -0.6287539 0.42903796 0
0.047045954 0.087236151 0.010948627 -0.011084812 0.41138393 0.91139477 0
0.05170064 0.087299064 0.010736442 0.30743521 0.17519355 0.93530256 0
-0.097636566 0.092283048 0.012005315 -0.44146788 0.033609889 0.89664733 0
-0.093237273 0.092688866 0.011076656 0.66882312 -0.051157869 0.74165934 0
-0.040416777 0.094445907 0.012526647 -0.86038095 -0.46622893 0.2058524 0
-0.038589731 0.092478558 0.012633631 -0.86846864 -0.47651374 0.13673598 0
-0.032086771 0.092832625 0.013004966 0.65570903 0.35911512 0.66414005 0
-0.02946624 0.09106227 0.010859656 0.8752414 0.46310943 0.1395786 0
0.028703596 0.092407115 0.012816118 -0.93116957 -0.24734461 -0.26785046 0
0.032766275 0.092342824 0.011197049 0.012300651 -0.074820466 -0.99712121 0
0.037306115 0.09216328 0.012568159 0.32812551 0.92519331 -0.19065928 0
0.042909771 0.091953158 0.012341848 0.51762909 0.83608305 0.18172856 0
0.047473855 0.0912873 0.010458793 0.33045551 0.20849828 0.92050403 0
0.051351584 0.091070071 0.01022473 0.098156638 0.12881723 0.98679852 0
-0.097693592 0.097537026 0.011853132 -0.59743798 0.048173696 0.80046678 0
-0.092943691 0.097508639 0.011129906 0.65471286 -0.053094026 0.75401062 0
-0.041631117 0.098049797 0.01264227 -0.87683445 -0.47043225 0.099271201 0
-0.036912818 0.097821631 0.014068927 0.45807266 0.2581417 0.85060704 0
-0.033309165 0.09704522 0.011780959 0.768893 0.420573 0.48158279 0
0.027910506 0.097680651 0.012250767 -0.91116226 -0.24861373 -0.32859486 0
0.033297528 0.097707868 0.011864092 0.80066508 0.13590857 -0.58349323 0
0.035424281 0.097143039 0.011452517 0.84511083 0.15572141 -0.51140833 0
-0.097400323 0.10257638 0.011883265 -0.61880791 0.043813802 0.78431952 0
-0.093137942 0.10234163 0.011529754 0.55484694 -0.039757159 0.83100206 0
-0.045442425 0.1040595 0.01250085 -0.8828274 -0.46792698 -0.040745109 0
-0.043496229 0.1020371 0.012706334 -0.8707509 -0.48365322 0.088726617 0
-0.037185453 0.10277911 0.012565513 0.7009573 0.3907277 0.59664959 0
-0.034695219 0.1006254 0.011075972 0.81754172 0.45002225 0.35931244 0
0.026581028 0.10256802 0.012387021 -0.96401876 -0.24256597 -0.10876365 0
0.033302017 0.10231639 0.012359754 0.93311083 0.24670838 0.26160878 0
-0.097104356 0.10780221 0.011849412 -0.61813867 0.056531422 0.78403372 0
-0.093035631 0.10740181 0.011672707 0.52979499 -0.035073534 0.84740019 0
-0.046815716 0.10772878 0.012543128 -0.93721998 -0.34272364 0.064491414 0
-0.041635063 0.10785861 0.01401019 0.56755304 0.26769477 0.77860332 0
-0.038635012 0.10747137 0.011375688 0.78343523 0.40984589 0.46717831 0
0.024664605 0.10862865 0.011844891 -0.97053069 -0.23437193 -0.056035545 0
0.026348993 0.10755549 0.013307197 -0.73552048 -0.1090343 0.66867125 0
0.032014474 0.10721268 0.012525255 0.82315731 0.24400175 0.51271349 0
-0.096784279 0.11272036 0.011788218 -0.67611837 0.053139769 0.73487419 0
-0.092255972 0.11263438 0.011416771 0.57760978 -0.048285656 0.81488371 0
-0.047413129 0.1125411 0.012968452 -0.85547215 0.11184257 0.50562698 0
-0.042409506 0.11227941 0.013047188 0.63997495 0.26569521 0.72099799 0
-0.037104912 0.11212202 0.010620883 -0.23511004 -0.20041202 0.95108271 0
-0.032199938 0.11305084 0.011141854 0.41993323 -0.65792239 0.6251353 0
-0.029668225 0.11457514 0.010668036 0.74951273 -0.52044797 0.40910226 0
0.024086019 0.1123078 0.012166634 -0.96221751 -0.20680948 0.17710778 0
0.02785128 0.11275463 0.014119557 0.29992914 0.16940556 0.93879938 0
0.031387296 0.11246452 0.011512569 0.82307833 0.24789216 0.51097119 0
-0.096610986 0.1173412 0.011596899 -0.71202433 0.090668283 0.69627625 0
-0.092276491 0.11745126 0.011675159 0.49079928 -0.0323373 0.8706724 0
-0.046727836 0.11694566 0.012033924 -0.74752742 0.43408185 0.50276798 0
-0.042228851 0.11764865 0.012040045 0.50924385 0.076293699 0.85723394 0
-0.036174253 0.11671277 0.010815598 -0.55381423 0.24661914 0.79527903 0
-0.032373499 0.11745193 0.012651813 -0.32829002 -0.093422994 0.93994564 0
-0.028741188 0.11771694 0.011918814 0.7668066 -0.34292331 0.5425967 0
0.023182845 0.11741135 0.012487546 -0.86226541 -0.16349953 0.47933945 0
0.027707558 0.11755721 0.013108019 0.4595502 0.20069793 0.86517853 0
0.030666584 0.11674735 0.010683096 0.87713939 0.26153353 0.40277371 0
-0.096048787 0.12142459 0.011088409 -0.83558387 0.35807496 0.41663143 0
-0.092668191 0.12210535 0.011943526 0.18109894 0.024934981 0.98314869 0
-0.088979527 0.12309977 0.010617574 0.50147367 -0.30420047 0.80992979 0
-0.045151345 0.12082768 0.010313637 -0.71681732 0.64964497 0.25324753 0
-0.042026926 0.12157359 0.010929055 -0.017290026 0.5767507 0.81673723 0
-0.037205689 0.12235983 0.010494648 -0.3121556 0.0065275249 0.95000857 0
-0.032714736 0.12213299 0.01272423 -0.54880619 -0.064742975 0.83343875 0
-0.028297942 0.12241705 0.012454891 0.80322659 0.0061417613 0.59564191 0
0.022450816 0.12232433 0.012377447 -0.72734165 -0.09673924 0.67942303 0
0.027579788 0.12275175 0.011866104 0.64590126 0.22057649 0.73086083 0
0.033487909 0.12365391 0.010440014 -0.34945774 -0.24862513 0.90336305 0
0.036349881 0.12357099 0.010772614 0.28865024 -0.58358967 0.75901514 0
-0.092011116 0.12603271 0.010988838 -0.28738821 0.6092062 0.73910469 0
-0.088078536 0.12617786 0.010816035 0.26017556 0.10401139 0.95994288 0
-0.035827637 0.1273502 0.010760032 -0.83781493 -0.15819883 0.52253157 0
-0.032527357 0.12729964 0.013208793 -0.35758397 -0.061206352 0.93187302 0
-0.028698679 0.12750193 0.012049356 0.87366515 0.16374531 0.45814493 0
0.022332087 0.12762043 0.012070122 -0.49835083 0.15632033 0.85276634 0
0.026453817 0.12806292 0.011399985 0.67686462 0.12723224 0.7250284 0
0.033712242 0.12696488 0.01103725 -0.67042762 -0.086773954 0.73688334 0
0.037827119 0.12744495 0.012003482 0.42760026 -0.43964946 0.7898522 0
0.040087845 0.12944496 0.010464149 0.99565685 -0.085697308 0.036378954 0
-0.036404271 0.13299631 0.011264734 -0.75443077 -0.14535877 0.640082 0
-0.032600116 0.13235964 0.013360668 -0.091327287 -0.018373193 0.99565136 0
-0.029162819 0.13184531 0.011490775 0.92725843 0.17690955 0.32999209 0
0.022846034 0.13197306 0.011544939 -0.40395114 0.36435404 0.83908862 0
0.026590357 0.13237225 0.011034647 0.51549691 0.022237271 0.85660279 0
0.032598019 0.13307834 0.012325247 -0.64412433 -0.44147408 0.62466353 0
0.038142655 0.13254482 0.013162931 0.67618442 0.013426871 0.73661005 0
-0.036715072 0.13740051 0.011758638 -0.68132025 -0.12936065 0.72046405 0
-0.032392234 0.13768452 0.012870935 0.34895119 0.059366617 0.93525863 0
-0.029676365 0.13593057 0.010672749 0.97254395 0.18814641 0.13696417 0
0.024250528 0.13540794 0.010498622 -0.43446827 0.55627233 0.70837724 0
0.028383611 0.13756682 0.011652305 -0.67017198 -0.33399537 0.66280967 0
0.031754591 0.13644706 0.013705336 -0.50418007 -0.41567439 0.75697905 0
0.037025981 0.13709404 0.012587813 0.8670997 0.44854972 0.21665947 0
-0.037456483 0.14242263 0.011936765 -0.68204743 -0.13330951 0.71905488 0
-0.032802377 0.14253291 0.013018806 0.49395373 0.10290322 0.86337751 0
0.024494544 0.14412397 0.012031338 -0.82241559 -0.54935521 0.14778864 0
0.027120998 0.14262174 0.012144027 -0.84024674 -0.51035494 -0.18309335 0
0.033387534 0.1428587 0.012296509 0.80770344 0.53429753 -0.24928173 0
0.035551056 0.14060487 0.012315319 0.82957888 0.53850716 -0.14767881 0
-0.047149222 0.14919649 0.013750673 -0.27958512 -0.89753211 -0.34098133 0
-0.042521343 0.1490071 0.013697392 0.089331761 -0.67845064 -0.72919446 0
-0.037599951 0.14767763 0.012836686 -0.6502406 -0.32198724 0.68812168 0
-0.033024341 0.14753346 0.012430063 0.78955889 0.099434912 0.60556549 0
0.006061424 0.1498231 0.010017864 0.026789794 -0.13296944 0.990758 0
0.02305025 0.1474251 0.012470098 -0.83951205 -0.52457428 -0.14156719 0
0.02748323 0.1478104 0.011083392 0.12520142 0.22054532 -0.96730781 0
0.031363238 0.14708017 0.012877169 0.80890691 0.52871174 -0.25716448 0
-0.050793923 0.15306392 0.012815906 -0.95135164 -0.22568226 0.20975593 0
-0.047379442 0.15118271 0.011589142 -0.035917588 -0.83226103 -0.55321932 0
-0.042048305 0.15298949 0.012478678 0.27670637 0.65311402 -0.70489407 0
-0.038677521 0.15323704 0.013385436 -0.77014947 0.34278101 0.53793204 0
-0.032945093 0.15278251 0.01302589 0.9121778 0.27249709 -0.30606687 0
-0.027331581 0.15356009 0.014347099 0.066156402 -0.2853272 -0.95614415 0
-0.022812003 0.15399541 0.014438642 0.052371442 -0.34083506 -0.93866318 0
-0.017315537 0.15434378 0.014659527 0.07298734 -0.43917564 -0.89543152 0
-0.012598631 0.15469176 0.014837584 0.065797433 -0.47810164 -0.87583649 0
-0.00065445434 0.15479824 0.010223983 -0.45236212 -0.45352161 0.7679106 0
0.00288773 0.15283205 0.010395798 -0.089216247 -0.2226921 0.97079796 0
0.0060840612 0.15239102 0.010306068 0.17703307 -0.057597615 0.98251808 0
0.019140445 0.1530498 0.012773011 -0.7486763 -0.39547545 -0.53205538 0
0.022013301 0.15231769 0.011978762 -0.18043739 0.039131928 -0.9828077 0
0.027437376 0.15224645 0.012887107 0.62507486 0.49229512 -0.60574502 0
-0.051106635 0.15645121 0.011704082 -0.89273202 0.30614671 0.33061117 0
-0.047476731 0.15736946 0.012429731 0.13751996 0.72782087 0.67183703 0
-0.042433482 0.15707229 0.011235797 -0.32130995 0.12278907 0.93897963 0
-0.037516527 0.15758698 0.01330932 -0.056319248 -0.016335052 0.99827921 0
-0.03397692 0.15759023 0.011580982 0.93176758 0.26017937 0.25321099 0
-0.027044488 0.15563676 0.014333376 -0.10362643 0.616395 -0.78058875 0
-0.022671774 0.1561694 0.014335397 -0.097665131 0.54330838 -0.83383304 0
-0.017326485 0.15642367 0.014372729 -0.0472298 0.28557909 -0.95719057 0
-0.011839318 0.1566675 0.014312373 0.016463287 -0.11388803 -0.99335718 0
-0.0076415176 0.15735424 0.014318226 -0.00025323205 -0.097308502 -0.99525428 0
-0.0022163831 0.15787396 0.012411111 -0.52716422 -0.84300256 0.10697915 0
0.0028487251 0.15810192 0.012294283 0.33980787 -0.61795807 0.70898402 0
0.0067430362 0.1580254 0.01297594 0.1396006 -0.77627915 -0.61473763 0
0.013338565 0.15973246 0.014240278 -0.59872222 -0.80081934 0.014835973 0
0.01723101 0.15726034 0.012985004 -0.49912089 -0.1907914 -0.84526742 0
0.022982441 0.15767868 0.013045228 0.36870265 0.37046963 -0.85253185 0
0.025633484 0.15602523 0.013671326 0.7177617 0.53660327 -0.44370613 0
-0.04854352 0.16007942 0.010058776 -0.31001776 0.73997796 0.59692693 0
-0.041709509 0.16272779 0.011890589 -0.66068178 -0.23946133 0.71144766 0
-0.037289836 0.16285636 0.012667984 0.510203 0.24595161 0.82413632 0
-0.034820382 0.16105424 0.011114045 0.94058865 0.27931476 0.19307071 0
-0.0028989175 0.16222063 0.012398444 -0.5160175 -0.22253491 0.82716632 0
0.002821007 0.16233069 0.012190453 -0.27072927 0.78484803 0.55742198 0
0.0072927224 0.16161741 0.011441493 -0.3331736 -0.62890941 -0.70247304 0
0.012194366 0.16252343 0.013071394 0.73182958 -0.4862701 -0.47745883 0
0.017184369 0.16271499 0.013322552 0.044835091 0.1863582 -0.98145837 0
0.021282399 0.16140729 0.013731577 0.46222073 0.42205167 -0.77988744 0
-0.050159462 0.16914043 0.01000034 -0.359734 0.17724842 0.91606468 0
-0.046714783 0.16799393 0.010897899 -0.40026984 -0.21983577 0.8896383 0
-0.042284001 0.16796127 0.012065548 -0.073543675 0.30843437 0.94839847 0
-0.037991803 0.16651353 0.011747941 0.66347855 0.57065654 0.48388776 0
-0.0031880974 0.16716011 0.013055987 -0.80019021 0.01417693 0.59957868 0
0.0030047114 0.16692176 0.012640533 0.32642269 -0.60268313 0.72816294 0
0.0077172196 0.1679254 0.01326794 0.043482102 0.75803936 0.65075779 0
0.012349735 0.16732523 0.013218175 0.46347874 0.32347336 -0.824956 0
0.016786501 0.16689259 0.014160044 0.27709883 0.31585398 -0.90744287 0
-0.046243567 0.17076045 0.010728937 -0.2292231 0.6149475 0.75451726 0
-0.043282624 0.17065118 0.010891805 0.18217094 0.77153057 0.6095525 0
-0.0014671575 0.17160322 0.012620451 -0.65805608 0.72761607 -0.19374481 0
0.0023194149 0.17293207 0.01256299 -0.0092560863 0.77028173 -0.63763654 0
0.0076742233 0.17205949 0.01318583 0.25615305 0.27282739 -0.92733538 0
0.012199072 0.17147461 0.014259428 0.30409873 0.30421644 -0.90276039 0
-0.037163273 -0.11773755 0.015435495 -0.18488173 0.038440045 0.98200864 0
-0.03286048 -0.11688814 0.015652379 0.18567926 -0.34835181 0.91878957 0
-0.029235443 -0.11528172 0.015438693 0.36136016 -0.54151571 0.75906485 0
-0.035745855 -0.11483524 0.015137598 -0.41136953 0.52794218 0.74300212 0
-0.03221732 -0.11293181 0.015531566 -0.33360833 0.39608401 0.85546649 0
-0.027419565 -0.11187536 0.015986122 0.028469123 -0.10246745 0.99432886 0
-0.023530388 -0.11086422 0.015847011 0.29357064 -0.47865957 0.82746685 0
-0.026768262 -0.10880723 0.015700493 -0.34574461 0.40475151 0.84654409 0
-0.022317562 -0.10766909 0.0161639 -0.029591255 -0.016930716 0.99941868 0
-0.018220514 -0.10659396 0.016196195 0.26685277 -0.42732704 0.86381781 0
-0.014477014 -0.10552262 0.015232677 0.5915907 -0.79454434 0.13682054 0
-0.021819269 -0.10427213 0.015428197 -0.42982116 0.55569398 0.7116586 0
-0.017567873 -0.10269036 0.016231027 -0.26496342 0.31791905 0.91034162 0
-0.012776573 -0.10233593 0.016426912 0.23187518 -0.36169186 0.9030022 0
-0.0092146536 -0.10113229 0.0159311 0.44313774 -0.63259357 0.63518059 0
-0.015388162 -0.099455416 0.015530395 -0.44428539 0.58632928 0.6773687 0
-0.012032011 -0.097812161 0.01603985 -0.36490583 0.46382016 0.80728835 0
-0.0072782147 -0.097397685 0.016710084 0.061362777 -0.11569767 0.99138725 0
-0.0032718764 -0.096909016 0.015834782 0.50658166 -0.67480224 0.53667206 0
-0.010123428 -0.09485694 0.015065991 -0.44499165 0.57878315 0.68336856 0
-0.007338814 -0.093770556 0.015853269 -0.4062838 0.53598869 0.74003345 0
-0.0027030371 -0.092219859 0.016813524 -0.13844664 0.21203552 0.9674055 0
0.00083160948 -0.092505746 0.015807813 0.66891754 -0.32716149 0.66746897 0
-0.010824668 -0.086195953 0.016652854 -0.77615881 -0.43509263 0.45636806 0
-0.0077334791 -0.086910054 0.017454127 0.075862363 -0.87533939 0.47752064 0
-0.0020823602 -0.087509178 0.015966933 -0.15026017 0.23223633 0.96098286 0
0.0011712575 -0.087459445 0.015700551 0.24360326 0.26031089 0.93428886 0
-0.010759533 -0.083064906 0.01690579 -0.90036201 0.41117072 0.14243226 0
-0.0081107803 -0.081254877 0.0172181 -0.39021051 0.88233304 -0.26310486 0
-0.0025644782 -0.082687914 0.017361181 0.53740323 -0.45787808 -0.70819873 0
0.0022451142 -0.081366174 0.017837051 0.26657125 -0.76066101 -0.59189075 0
0.0062168455 -0.080458343 0.018335013 0.1794201 -0.91008788 -0.37356183 0
-0.0063331127 -0.079417095 0.018298807 -0.15556663 0.87740457 -0.45382831 0
-0.0026221301 -0.078574814 0.018584507 -0.17835748 0.71910971 -0.67161733 0
0.0026972063 -0.077581182 0.018319828 -0.17980672 0.63107753 -0.75459301 0
0.0078975987 -0.077970847 0.017567111 -0.0062004025 0.025699547 -0.99965042 0
0.012397398 -0.077305108 0.017420262 0.086768404 -0.31739309 -0.94431609 0
0.017338319 -0.076624699 0.01781687 0.23844682 -0.76715219 -0.59550035 0
0.021704614 -0.075674199 0.018294102 0.27789518 -0.90024662 -0.33515707 0
0.036311645 -0.075193726 0.015061229 -0.05143987 -0.34239715 0.93814605 0
0.0085386569 -0.074457832 0.019679986 -0.21659231 0.72726303 -0.65128815 0
0.013015461 -0.073632106 0.01910287 -0.21837611 0.71426851 -0.6649304 0
0.017515659 -0.073091343 0.018316468 -0.20096752 0.66265047 -0.72146124 0
0.022498131 -0.072333828 0.017965399 -0.14761417 0.47607478 -0.86692727 0
0.027458085 -0.072707735 0.017710838 0.10057503 -0.34656963 -0.93261689 0
0.033270724 -0.071787499 0.01736496 -0.037093792 -0.85102677 -0.52381057 0
0.037250936 -0.071915865 0.01675649 0.25568512 -0.82803112 0.4989886 0
0.042390034 -0.07053227 0.01739328 -0.051215649 -0.99787509 0.04027703 0
0.046673223 -0.070849404 0.016530452 0.30992541 -0.8065573 0.50339997 0
0.024563642 -0.069700874 0.019579476 -0.21768452 0.74094653 -0.63530439 0
0.027978176 -0.069074526 0.019142698 -0.2152631 0.72855145 -0.65028811 0
0.033051044 -0.068308957 0.018194102 -0.32110894 0.72464496 -0.60973662 0
0.036942415 -0.066652052 0.017491424 -0.62013757 0.78395867 -0.028953221 0
0.040693391 -0.065198198 0.017231766 -0.27893832 0.94794106 -0.15362678 0
0.047239143 -0.067310527 0.017607961 0.83652633 0.32147637 0.44370791 0
0.039223511 -0.062899143 0.01649387 -0.5850476 0.52426958 0.61875743 0
0.042652994 -0.063688695 0.017170509 0.19762959 0.76598501 0.61172658 0
0.045357432 -0.061498344 0.015698431 0.60942173 -0.12603995 0.78276378 0
-0.16245775 -0.056300879 0.016204551 -0.43504474 -0.71123898 0.55215502 0
-0.15851057 -0.056546334 0.015955234 0.4138757 -0.30698144 0.85701185 0
0.042939372 -0.058040183 0.015925322 -0.3218351 0.21267812 0.92259967 0
0.047365546 -0.056417298 0.015663967 0.44544196 -0.27245852 0.85284698 0
-0.16581386 -0.051662628 0.016647257 -0.91899687 -0.37075275 0.13411622 0
-0.1625514 -0.052370984 0.017884813 0.13874625 -0.17583603 0.9745928 0
-0.15900359 -0.052729324 0.016012473 0.77004749 0.31934494 0.55230939 0
0.044405047 -0.053818062 0.015410013 -0.54404169 0.35870382 0.75851846 0
0.047650203 -0.05243266 0.015942693 -0.023045383 0.02085642 0.99951684 0
0.051283579 -0.050941449 0.015457409 0.53225178 -0.3301391 0.77956158 0
-0.16656367 -0.047702957 0.017141391 -0.94847274 -0.18174228 0.25955579 0
-0.16220464 -0.047345981 0.017670449 0.65566772 0.13151722 0.74350733 0
-0.15991816 -0.049364783 0.015288372 0.82980323 0.29590249 0.47314733 0
-0.086659364 -0.045327067 0.01526491 -0.1076434 -0.48099926 0.87008774 0
-0.082528599 -0.0460217 0.01535481 -0.085879937 -0.39702386 0.91378152 0
-0.077234767 -0.046536345 0.015488531 0.00011729349 -0.27711055 0.96083808 0
-0.073841915 -0.045963433 0.015363327 0.17059284 -0.16342448 0.97169465 0
0.048854567 -0.048238464 0.015783411 -0.39556548 0.26663032 0.87888354 0
0.052178714 -0.047490619 0.01580143 0.25009611 -0.12928295 0.95955086 0
-0.16735181 -0.042267039 0.017688498 -0.82248569 -0.14520115 0.54993999 0
-0.16247199 -0.042860162 0.017271524 0.76307815 0.14218789 0.63047141 0
-0.11110064 -0.040272929 0.015211391 -0.11813111 -0.57639307 0.80858892 0
-0.10707048 -0.040952519 0.015267525 -0.11159416 -0.5409618 0.83361089 0
-0.10201675 -0.041459847 0.015469034 -0.052403234 -0.26790857 0.96201813 0
-0.097328901 -0.041417934 0.015497986 0.014608439 0.034102198 0.99931157 0
-0.092286132 -0.042665835 0.015445421 -0.0086651081 -0.023236733 0.99969244 0
-0.087965347 -0.043287244 0.015526781 0.028084168 0.14516303 0.98900902 0
-0.082421727 -0.043747835 0.015452713 0.047079977 0.31302837 0.94857621 0
-0.078001544 -0.044405069 0.015480692 0.05339919 0.35994801 0.93144292 0
-0.073986113 -0.044333421 0.015172255 0.075077757 0.4357892 0.89691198 0
0.053193748 -0.042710628 0.015844336 -0.19640303 0.15666185 0.96792716 0
0.056058574 -0.042321894 0.015601875 0.41975436 -0.24304052 0.87449276 0
0.083392076 -0.041475177 0.01549849 -0.20350868 -0.10040345 0.9739114 0
0.087679155 -0.042031553 0.015922301 -0.10979766 -0.54864424 0.8288148 0
0.09241201 -0.041641954 0.016775645 -0.079209581 -0.65541726 0.75110191 0
0.097561948 -0.041464947 0.017069219 0.041733511 -0.91347283 0.40475374 0
0.10201491 -0.040955428 0.016833156 0.15182152 -0.98815793 -0.022226872 0
0.1064254 -0.040327363 0.018488985 0.1523581 -0.93190384 0.32915395 0
-0.16776736 -0.037652481 0.017843267 -0.7355997 -0.13591798 0.66364098 0
-0.16334277 -0.037374787 0.017174389 0.7684164 0.14094318 0.62423658 0
-0.12067562 -0.035788674 0.015097067 -0.30231842 -0.081496924 0.94971669 0
-0.11751604 -0.037062872 0.015474283 -0.13130428 -0.084875464 0.98770207 0
-0.11261407 -0.037931785 0.015537684 0.019980559 0.081885204 0.99644142 0
-0.10776911 -0.038519524 0.015500814 0.071017511 0.27657059 0.95836592 0
-0.10294725 -0.039036728 0.015348523 0.09117122 0.42454422 0.90080518 0
-0.099816658 -0.039442193 0.015257882 0.12301482 0.49733475 0.85879314 0
0.054200865 -0.039007559 0.015335214 -0.5184651 0.34691074 0.78156698 0
0.057368618 -0.037182473 0.015684018 -0.06057376 0.070160054 0.99569494 0
0.060890853 -0.035845865 0.015199435 0.46957532 -0.29255417 0.8330133 0
0.083918668 -0.039494697 0.015420699 -0.24834493 0.40945989 0.87787664 0
0.088031091 -0.038199697 0.015875962 -0.24972965 0.49078199 0.83472633 0
0.092540033 -0.03749793 0.016728112 -0.25469807 0.43992114 0.86116099 0
0.097517461 -0.037702668 0.018268818 -0.2552222 0.29498726 0.92078453 0
0.10223059 -0.0374199 0.019382583 -0.25393358 0.21623956 0.94273973 0
0.10797148 -0.03803109 0.016300337 0.32450163 -0.56280684 -0.7602284 0
0.1119516 -0.037064519 0.017568946 0.62900567 -0.69637686 -0.34555906 0
-0.17016394 -0.030838316 0.016246174 -0.98077512 -0.16670237 -0.10144211 0
-0.16822341 -0.032501481 0.017775878 -0.63821757 -0.10863798 0.76215237 0
-0.16369975 -0.032178245 0.016431447 0.85394466 0.15781736 0.49585518 0
0.058789738 -0.033430535 0.015465233 -0.21539862 0.30311996 0.92828965 0
0.06183232 -0.032720033 0.015288446 0.19212458 0.063643359 0.97930473 0
0.077041268 -0.030412372 0.015495382 -0.22466466 -0.82596797 0.51701319 0
0.082483009 -0.031456266 0.01573595 -0.13558055 -0.59838837 0.78965139 0
0.087955765 -0.031786632 0.015733918 0.069512099 -0.2105559 0.97510731 0
0.091241948 -0.032182213 0.015355228 0.19339114 0.0015074505 0.98112059 0
0.097979434 -0.034230053 0.016044693 -0.24362423 0.82559443 0.50896078 0
0.10276889 -0.033564508 0.016863901 -0.22723255 0.90451324 0.36086178 0
0.1077003 -0.032701343 0.017146539 -0.47576258 0.83844018 -0.26583442 0
0.1125835 -0.032653302 0.0158097 0.17811948 -0.20104066 -0.96325284 0
0.1159348 -0.031584833 0.017953096 0.94160497 -0.3323417 -0.054121312 0
-0.17058527 -0.0272831 0.016645221 -0.983226 -0.17233689 0.059721895 0
-0.16725589 -0.027306946 0.018488863 0.28695488 0.054091055 0.95641577 0
-0.16430598 -0.0280091 0.016166292 0.86865288 0.16215642 0.46813205 0
-0.13198359 -0.025776302 0.015106838 0.028483821 -0.19007233 0.9813568 0
-0.12970184 -0.025159467 0.015064372 0.15681982 -0.33673403 0.92844915 0
-0.036071695 -0.026185086 0.017057154 -0.43578759 -0.75891995 0.4838694 0
-0.033610698 -0.026675474 0.016474657 0.24318416 -0.71820283 0.6519556 0
0.062853277 -0.025801569 0.016187724 -0.25030416 -0.85050774 0.46258447 0
0.068186462 -0.026688853 0.01661852 -0.1318872 -0.57295191 0.80890781 0
0.0729912 -0.027516164 0.016438462 -0.058943067 -0.38011074 0.92306089 0
0.077012934 -0.027942413 0.016447576 0.058334239 -0.04319533 0.9973622 0
0.082248166 -0.028239211 0.015974233 0.18334645 0.34014508 0.92232609 0
0.086739339 -0.029137868 0.015524332 0.21479103 0.50112897 0.83829272 0
0.10965561 -0.027557923 0.016741758 -0.95956051 0.099473841 0.2633411 0
0.11102153 -0.027519429 0.01772823 -0.91148388 0.20080128 0.35899308 0
0.11665891 -0.027031936 0.017224357 0.99860907 0.01657371 -0.050053429 0
-0.17122842 -0.022106236 0.017380405 -0.90920967 -0.16781041 0.38102162 0
-0.16695999 -0.022226034 0.017723953 0.58366168 0.11291947 0.80410707 0
-0.16472742 -0.023939934 0.015565246 0.88045478 0.16307902 0.44520178 0
-0.13069582 -0.023730842 0.015274862 -0.21183391 0.14309971 0.96677244 0
-0.12785393 -0.022344397 0.015423458 -0.056599297 0.024377773 0.99809933 0
-0.1230445 -0.0209068 0.015267039 0.14953572 0.0052948715 0.98874211 0
-0.03772616 -0.022648636 0.017695636 -0.94411606 -0.29286847 0.15123807 0
-0.032729808 -0.02278173 0.017732661 0.87074256 -0.14442645 0.47005147 0
0.048496503 -0.020994239 0.016553475 -0.36925942 -0.85640395 0.36085963 0
0.052833389 -0.022011986 0.016936328 -0.22727653 -0.75692576 0.61270601 0
0.057631489 -0.023028309 0.0171551 -0.13530169 -0.5640732 0.81456423 0
0.062519625 -0.022520266 0.017290857 0.10022142 0.099484451 0.98997909 0
0.067268714 -0.022913776 0.016801424 0.19764803 0.42267039 0.88446873 0
0.072629452 -0.023945097 0.016085031 0.25312018 0.60671735 0.75354111 0
0.076448046 -0.024468338 0.015160556 0.27483907 0.7074219 0.65116656 0
0.10387995 -0.020928718 0.0152552 -0.24919187 -0.20261098 0.94702274 0
0.1079886 -0.022185395 0.016298799 -0.49429914 -0.2355081 0.83678204 0
0.11292009 -0.022296073 0.018245993 -0.05848166 0.33643261 0.93988985 0
0.11576109 -0.022858243 0.01707506 0.85873294 0.45119661 0.24289779 0
-0.17180216 -0.017018003 0.017504446 -0.84331775 -0.16019595 0.51298392 0
-0.16740586 -0.017588383 0.017595684 0.68016237 0.11576951 0.72386229 0
-0.12654066 -0.019901762 0.015166436 -0.13862671 0.55624568 0.81937385 0
-0.12261325 -0.019566478 0.015155268 0.094786875 0.35923725 0.92842019 0
-0.037528668 -0.01755934 0.016997743 -0.89329308 0.42465132 -0.14730532 0
-0.032059599 -0.017168058 0.017938761 0.96029359 -0.22715275 0.16198124 0
0.043829199 -0.016721463 0.01682419 -0.61441159 -0.32578552 0.71858346 0
0.04746354 -0.017728912 0.01762086 -0.16350393 -0.055697028 0.98496914 0
0.052330364 -0.017559117 0.01729266 0.20679089 0.48716757 0.84847236 0
0.057302333 -0.018591935 0.016787458 0.24700283 0.63595545 0.73112941 0
0.061787192 -0.019138439 0.015691621 0.27896315 0.71566558 0.64031428 0
0.10346599 -0.018541653 0.015389422 -0.23510824 0.12939645 0.96331751 0
0.10725866 -0.01798762 0.016200464 -0.19291683 0.32760417 0.92491007 0
0.11209688 -0.018538749 0.01627627 0.38105187 0.71657348 0.5842275 0
-0.17269871 -0.012359115 0.017530104 -0.85072786 -0.12981558 0.50932318 0
-0.1678424 -0.012429858 0.017113853 0.78863448 0.13565651 0.5997107 0
-0.036435284 -0.01286263 0.018348061 -0.78598601 0.26033965 -0.56075788 0
-0.031842943 -0.012591468 0.016987847 0.61273921 -0.17504638 -0.77065521 0
-0.02982158 -0.010530804 0.01761118 0.94557154 -0.32058933 0.055830028 0
0.042766869 -0.012443268 0.016249482 -0.4218739 0.22933021 0.8771717 0
0.046970017 -0.013062818 0.016124938 0.43252358 0.61853027 0.65600586 0
0.050630365 -0.01489515 0.015614424 0.38941914 0.69868302 0.60016227 0
-0.17270772 -0.0073018074 0.017448917 -0.75228542 0.17655897 0.63473904 0
-0.16844869 -0.0074177943 0.017050814 0.75717908 0.083583392 0.64783764 0
-0.14502871 -0.0076506594 0.01501435 -0.13517162 0.026030956 0.99048024 0
-0.14226311 -0.0068633505 0.015391583 -0.15143473 -0.019376013 0.98827732 0
-0.13775277 -0.0062969234 0.015718509 0.10600388 -0.30853793 0.94528699 0
-0.13447578 -0.005461866 0.015157841 0.56603324 -0.65677917 0.49824449 0
-0.035558466 -0.0084184306 0.019067178 -0.88121635 0.30159986 -0.36399904 0
-0.032418128 -0.0072828056 0.016686484 -0.49735394 0.16222411 -0.85224551 0
-0.029057255 -0.0071701356 0.01779139 0.94976032 -0.31038287 -0.040222362 0
0.043135304 -0.0097175408 0.0153292 -0.12938073 0.46717933 0.87464517 0
0.058171421 -0.0054979534 0.015043251 0.13864073 -0.095099576 0.98576617 0
-0.17193829 -0.0031041726 0.016533965 -0.60472453 0.50726116 0.61399859 0
-0.1682523 -0.002349891 0.016115608 0.51397103 0.22727141 0.82715267 0
-0.1370206 -0.0030600964 0.015748443 -0.25609264 0.27217051 0.92754501 0
-0.13321717 -0.001937785 0.015707845 0.384599 -0.16234995 0.90869468 0
-0.032403529 -0.0030047721 0.017668141 -0.66381723 0.21976818 -0.71487677 0
-0.027837047 -0.0024499795 0.017218262 0.86423606 -0.28237492 -0.41636574 0
0.057719901 -0.0027274487 0.015247066 0.082852066 -0.039908834 0.99576247 0
-0.16868477 0.000221594 0.015233773 -0.065582529 0.75278205 0.65499473 0
-0.15423235 0.0047720675 0.015148553 0.11170104 -0.43812317 0.89194787 0
-0.13543667 0.00088211644 0.015358531 -0.55815405 0.18907325 0.807908 0
-0.13305447 0.0023601288 0.015578236 0.13718265 0.11543155 0.98379689 0
-0.031527732 0.0023495953 0.018477416 -0.75460422 0.25125283 -0.60617197 0
-0.026847741 0.002668225 0.016986376 0.59638649 -0.18979473 -0.77993667 0
-0.024850309 0.0047154636 0.017767733 0.94474012 -0.3140223 0.094106928 0
0.054545723 0.0044592936 0.015344102 -0.54193223 -0.16796896 0.82346588 0
0.056327563 0.0026191501 0.015343358 0.087168984 -0.00018944679 0.99619353 0
-0.15674557 0.0081312489 0.015906515 -0.58676898 -0.26645383 0.76465976 0
-0.15343446 0.0074414317 0.015759185 0.51975346 -0.29619521 0.80132687 0
-0.13365525 0.0060978839 0.015152344 -0.039194234 0.17626263 0.98356253 0
-0.030364325 0.0072645117 0.018994104 -0.87109548 0.28352368 -0.40100747 0
-0.027743533 0.0076188804 0.016824611 -0.51852614 0.17224333 -0.83753383 0
-0.023957353 0.0080202809 0.017494112 0.9475382 -0.31244653 -0.067442641 0
0.053811878 0.0080094859 0.015416892 -0.28167558 -0.098455302 0.954445 0
0.055930842 0.0074377526 0.015371335 0.33677235 0.07890182 0.93827438 0
-0.15633076 0.012382898 0.016653495 -0.64227825 0.12220624 0.75666654 0
-0.15245956 0.012836874 0.016690535 0.46149394 -0.24552019 0.85249233 0
-0.149793 0.014373955 0.015135527 0.73035914 -0.37794262 0.56897718 0
