# .PCD v0.7 - Point Cloud Data file format
VERSION 0.7
FIELDS x y z normal_x normal_y normal_z curvature
SIZE 4 4 4 4 4 4 4
TYPE F F F F F F F
COUNT 1 1 1 1 1 1 1
WIDTH 631
HEIGHT 1
VIEWPOINT 0 0 0 1 0 0 0
POINTS 631
DATA ascii
0.0059741507 -0.017537948 0.012600468 0.99940044 0.0097611584 -0.033219498 0
-0.044328123 -0.012221333 0.012590613 -0.99846202 0.055141635 -0.0057469239 0
0.006097781 -0.012328412 0.012371976 0.99906808 -0.034108631 -0.026449831 0
-0.044097114 -0.0073907366 0.012530887 -0.99906123 0.040143237 -0.016281961 0
0.0062257382 -0.0074187359 0.012429272 0.99956757 -0.022740031 -0.018640153 0
-0.043953601 -0.0025511002 0.012298927 -0.99964404 0.023022953 -0.013482516 0
0.0063235355 -0.0025923054 0.012443684 0.99933881 -0.025179708 -0.026230689 0
-0.043838695 0.0026257278 0.012623412 -0.99977833 0.018976619 -0.0091276187 0
0.0064693131 0.0025281047 0.012688144 0.99929142 -0.02395644 -0.029029306 0
-0.043712799 0.0075858356 0.012347949 -0.9993251 0.03377977 -0.014430008 0
0.0065717851 0.0076049427 0.012640986 0.99908507 -0.0150925 -0.040014856 0
-0.043595977 0.012545106 0.012709077 -0.99975157 0.022289203 -0.00039869163 0
0.006635956 0.012555353 0.01217182 0.99848062 -0.01844449 -0.051925089 0
-0.043508772 0.017487373 0.012429966 -0.99974746 0.017147906 -0.014524602 0
0.0067425184 0.017581578 0.012459978 0.99896216 -0.013581186 -0.043476295 0
-0.043439157 0.022466622 0.012513846 -0.99993235 0.00538295 -0.01031074 0
0.0068528769 0.022242352 0.012671542 0.99876279 -0.020932278 -0.045107093 0
-0.043392774 0.027598523 0.012449614 -0.99994999 0.0067019663 -0.0074237809 0
0.006948682 0.027411198 0.012505864 0.99918705 -0.025477068 -0.031244062 0
-0.04335383 0.032742817 0.01239922 -0.99992526 0.0086505311 -0.0086387144 0
0.0070484052 0.032546278 0.012360868 0.99949455 -0.023534762 -0.021369364 0
-0.043377347 0.037616868 0.012650084 -0.99981815 -0.015403557 -0.011241025 0
0.0071237898 0.03728335 0.01234399 0.99930042 -0.016920099 -0.033351816 0
-0.043474451 0.042341791 0.012529491 -0.99931735 -0.036442772 -0.0060661533 0
0.0072074612 0.042597361 0.012490944 0.99952191 -0.011645007 -0.028641744 0
-0.043776814 0.047541339 0.012697067 -0.99730337 -0.073081955 0.0067179357 0
0.0072314162 0.047761694 0.012556301 0.9995296 -0.0029929068 -0.030523188 0
-0.043936741 0.052385259 0.012474649 -0.99967438 0.024806904 0.0059793703 0
-0.021361161 0.054945108 0.01345777 0.036814231 0.99897933 0.026170451 0
-0.017666267 0.054825399 0.012522724 0.039965175 0.99864405 0.033358101 0
-0.012408617 0.054644383 0.012599523 0.028489901 0.99933219 0.02287953 0
-0.0072720195 0.054489102 0.012511253 0.032303296 0.99945676 0.0065337722 0
-0.0023066222 0.054315094 0.012445359 0.039598998 0.99918211 0.0081876721 0
0.0023069042 0.05412282 0.012224237 0.042840406 0.9988687 0.020638224 0
0.0069499696 0.05265037 0.01264711 0.90191913 0.43170777 -0.013046619 0
-0.041988086 0.055785079 0.012443275 -0.23468535 0.97151881 0.03276974 0
-0.037633691 0.055803027 0.012538515 0.045018755 0.99837416 0.034961995 0
-0.032730583 0.055520155 0.012540223 0.064819448 0.99747729 0.028938053 0
-0.027769424 0.055255201 0.012325693 0.040021919 0.9986614 0.032765731 0
-0.02313289 0.055085212 0.011710201 0.046306204 0.99821258 0.037781965 0
-0.042003099 -0.020747878 0.017389223 -0.16352502 -0.98648578 -0.01026588 0
-0.037625499 -0.020791594 0.017475439 0.021827457 -0.99954641 -0.02074942 0
-0.032473739 -0.020666089 0.01754464 0.027697466 -0.99947596 -0.016751913 0
-0.027414009 -0.020506937 0.01742851 0.031329814 -0.99939674 -0.014990176 0
-0.022523912 -0.02038344 0.017472193 0.012982745 -0.99968034 -0.021697899 0
-0.017613752 -0.020368887 0.01722013 -0.0036845447 -0.99991941 -0.012146058 0
-0.012461282 -0.020409489 0.017429732 -0.014168907 -0.99987173 -0.0074593388 0
-0.0076980214 -0.020445896 0.017202362 0.001649342 -0.9999063 -0.013588079 0
-0.0025119174 -0.020412965 0.017650463 0.012612977 -0.99988389 -0.0085515929 0
0.0025947143 -0.020350624 0.017703526 -0.0093221935 -0.99995649 -0.00037834284 0
0.0054827053 -0.020421617 0.017047094 0.17780368 -0.98406577 0.00053912995 0
-0.044429488 -0.017641623 0.017420894 -0.99875551 -0.049814224 0.0024381748 0
0.0060767792 -0.017558655 0.017269129 0.99987775 -0.00068583706 -0.015621765 0
-0.044399817 -0.012636754 0.017558061 -0.99876875 0.049304586 -0.0054852292 0
0.0062325709 -0.012656327 0.017519535 0.99911088 -0.039248906 -0.015392236 0
-0.044144731 -0.0075143147 0.017239442 -0.99923992 0.038956068 -0.0013972287 0
0.0063734613 -0.0078083957 0.017449381 0.99952567 -0.019326588 -0.023976685 0
-0.043977242 -0.0025399392 0.017612727 -0.99958038 0.028730158 0.003688829 0
0.0064837676 -0.0026077339 0.017341366 0.99908584 -0.020940419 -0.03726989 0
-0.043855075 0.0024333254 0.017611997 -0.99975634 0.021615347 0.0044768211 0
0.0066136508 0.0024117392 0.017660676 0.99901402 -0.015670151 -0.041537948 0
-0.043748021 0.0075581535 0.017475037 -0.99978149 0.020826958 -0.0017996121 0
0.0067183175 0.0076081334 0.017561877 0.99932462 -0.0241421 -0.027703598 0
-0.043639731 0.012307919 0.017437782 -0.99974763 0.020360328 -0.0094955862 0
0.0068050516 0.012229549 0.017553022 0.99952972 -0.010638641 -0.028759863 0
-0.043540101 0.01745378 0.017500013 -0.99974447 0.021715609 -0.0062811095 0
0.0069245114 0.017668668 0.01756165 0.9995684 -0.021485904 -0.020031512 0
-0.043469097 0.022140523 0.017479483 -0.99989212 0.014299221 -0.0033635334 0
0.0070212907 0.022567512 0.017416228 0.99959546 -0.02318104 -0.016480077 0
-0.043398678 0.027278561 0.017649626 -0.99996281 0.0077904351 0.0037003912 0
0.0071080532 0.027455429 0.017358227 0.99960572 -0.011711504 -0.025518697 0
-0.043363106 0.032512523 0.017524295 -0.99983221 0.0055229431 0.017463265 0
0.0071973992 0.032660794 0.017644826 0.99939084 -0.021559548 -0.027443482 0
-0.04335941 0.037418772 0.017515779 -0.99988478 -0.013228335 0.0074462751 0
0.007271253 0.03747249 0.017347533 0.99947286 -0.015920784 -0.028295774 0
-0.043458119 0.042563081 0.017254453 -0.99930876 -0.036543775 0.0068201744 0
0.0073469095 0.042500772 0.017752994 0.99962175 0.00044032573 -0.027498826 0
-0.043757845 0.047648985 0.017695237 -0.99714071 -0.075536571 0.0021617801 0
0.0073629501 0.0476983 0.017623262 0.99980932 0.0016215302 -0.01946008 0
-0.043905977 0.052498475 0.01757307 -0.99800682 0.063106142 5.6637753e-05 0
-0.025680516 0.05495863 0.01856925 0.048744377 0.99801606 0.039848868 0
-0.022473253 0.054848641 0.017646469 0.042265464 0.99819058 0.042768423 0
-0.017578583 0.054680213 0.017615894 0.029431242 0.99920982 0.026711227 0
-0.012415485 0.054558672 0.017440809 0.024083477 0.9994083 0.024555907 0
-0.0073325937 0.054410972 0.017621223 0.036427196 0.99897403 0.026902283 0
-0.0024266581 0.05421333 0.017763723 0.040041253 0.99866599 0.03260402 0
0.0026837366 0.05401497 0.017172297 0.040438954 0.99902052 0.017962625 0
0.0069691218 0.052739099 0.017462434 0.86962152 0.49350685 -0.014475171 0
-0.041941606 0.055625562 0.017279696 -0.18302675 0.98241574 0.036886003 0
-0.037399005 0.055637535 0.017267607 0.043704856 0.99848682 0.033375684 0
-0.032677583 0.055370573 0.017496957 0.060281634 0.997724 0.030213719 0
-0.0276592 0.055097658 0.017318886 0.049989466 0.99820495 0.032982875 0
-0.024667993 0.055021767 0.015902031 0.061228324 0.99518847 0.076491848 0
-0.04235338 -0.020742416 0.022898016 -0.26345465 -0.96467173 9.0963629e-05 0
-0.037651684 -0.020874359 0.022792198 0.028910127 -0.99953222 -0.0099753505 0
-0.032570254 -0.020788433 0.022799598 0.029403245 -0.9995054 -0.011152681 0
-0.027526278 -0.02061766 0.0226012 0.035930511 -0.99904794 -0.024743672 0
-0.022696931 -0.020493224 0.022513991 0.013432029 -0.99976492 -0.017019548 0
-0.017622015 -0.020460697 0.022493832 0.00079040229 -0.99991274 -0.013188277 0
-0.012553763 -0.02049032 0.022476278 -0.011156793 -0.99967247 -0.023033692 0
-0.0075945561 -0.020490291 0.022606537 0.011811399 -0.99992859 -0.0018095423 0
-0.002273994 -0.020435164 0.022584852 0.011095847 -0.99993843 -0.00025918032 0
0.0028055848 -0.020382585 0.022401212 -0.023174237 -0.99971795 -0.0051971865 0
0.0057592462 -0.02033012 0.022782 0.43213707 -0.90180552 -0.0020736353 0
-0.044395037 -0.017440764 0.022243056 -0.99781388 -0.063853651 0.017035913 0
0.0061962474 -0.017635977 0.02267112 0.99930048 -0.033811077 -0.015979296 0
-0.044392578 -0.012351914 0.022376431 -0.99827898 0.058624234 0.001517249 0
0.0063478127 -0.012611939 0.022315396 0.99906075 -0.030832866 -0.03044527 0
-0.044110909 -0.007533405 0.022322195 -0.99905819 0.042443339 0.0090253903 0
0.0064677959 -0.0074684424 0.022544479 0.99933076 -0.012817622 -0.034260895 0
-0.043937981 -0.0025785875 0.022611881 -0.99977088 0.020845147 0.0048669055 0
0.0066197077 -0.0025194718 0.022472881 0.99843997 -0.040046249 -0.038908195 0
-0.043841593 0.0024454233 0.022712603 -0.99980789 0.019581512 -0.00092813262 0
0.006725776 0.0023795955 0.022481067 0.99949557 -0.014551987 -0.028226919 0
-0.043730527 0.0074848076 0.022531658 -0.99962568 0.027183665 -0.0030931979 0
0.0068487218 0.0077237259 0.022323323 0.99949032 -0.02835447 -0.014668465 0
-0.043609589 0.012534408 0.022665404 -0.99963492 0.026177255 0.0066960687 0
0.0069458368 0.012520765 0.022413542 0.99944973 -0.028309366 -0.017286401 0
-0.043518268 0.017602209 0.022476502 -0.99990231 0.013961606 -0.00067235337 0
0.0070364783 0.017644718 0.022378912 0.99937803 -0.0010000907 -0.035248641 0
-0.043459676 0.022451425 0.022520278 -0.99982274 0.018498749 0.0035146181 0
0.0071320813 0.022771427 0.022379449 0.99923897 -0.022384418 -0.031944573 0
-0.043388985 0.027619421 0.022347938 -0.99990869 0.01253833 -0.005042403 0
0.0072088977 0.027459979 0.02275186 0.99948597 -0.008833779 -0.030816697 0
-0.043341529 0.032353647 0.022309814 -0.99997598 0.0045569134 -0.0052298233 0
0.0072936169 0.032464486 0.022686489 0.99969482 -0.017304923 -0.017632207 0
-0.043341562 0.037574068 0.022361757 -0.99998456 -0.0055149901 0.00068001938 0
0.0073763202 0.037476335 0.022558853 0.9997623 -0.013333526 -0.017247217 0
-0.043437898 0.042583186 0.022566641 -0.99931985 -0.036824245 0.0019217806 0
0.0074384967 0.042478696 0.022562433 0.99990362 -0.0080872504 -0.011283495 0
-0.043730188 0.047368694 0.022348057 -0.99670774 -0.080889627 -0.0055338237 0
0.0074254023 0.047609672 0.022557205 0.99994344 -0.00027355904 -0.010638821 0
-0.043903776 0.052235581 0.022384724 -0.99879318 0.049055021 0.0024145343 0
-0.026966749 0.054872058 0.022553204 0.067915305 0.99694246 0.038643103 0
-0.022355434 0.054651972 0.022481533 0.029548621 0.99874371 0.040469199 0
-0.017392093 0.05451319 0.022660924 0.026102472 0.99897337 0.037025165 0
-0.012614332 0.054403968 0.022445463 0.028398296 0.99903095 0.033626217 0
-0.0075723175 0.054264758 0.022405803 0.026302017 0.99919599 0.030259972 0
-0.0026156574 0.05411626 0.02245339 0.031352215 0.99939358 0.015149246 0
0.0024791462 0.053958867 0.022490017 0.023034099 0.99972618 0.0041186702 0
0.006883787 0.052938707 0.022392135 0.74652988 0.66526145 -0.010976718 0
-0.041759886 0.05544978 0.02226563 -0.13511969 0.99011213 0.037690844 0
-0.0375285 0.055433046 0.022483345 0.03296398 0.99827176 0.048650343 0
-0.032603089 0.055211034 0.022550264 0.050467785 0.99822342 0.03167272 0
-0.029015621 0.055041064 0.021420913 0.059806406 0.99751222 0.037317544 0
-0.042100944 -0.020836817 0.027610822 -0.24241439 -0.97012269 -0.0098620849 0
-0.037860658 -0.020933062 0.027407603 0.011873265 -0.99989283 -0.0085618533 0
-0.0327277 -0.020864846 0.027496958 0.026358591 -0.99963349 -0.0061732293 0
-0.027398035 -0.020697061 0.027305115 0.03895231 -0.99908918 -0.017422777 0
-0.022605281 -0.020577984 0.027669352 0.0095606083 -0.99979526 -0.017832324 0
-0.017595537 -0.02054932 0.027395068 0.0031753464 -0.99981332 -0.019058622 0
-0.01254792 -0.020558808 0.027707821 -0.0016271931 -0.99993491 -0.011291631 0
-0.0075547649 -0.020545395 0.027621321 0.0085631879 -0.99991417 -0.0099125998 0
-0.0026281346 -0.020501211 0.02740589 0.010224851 -0.99979764 -0.017321782 0
0.002576547 -0.020436144 0.027572736 -0.01114748 -0.99959695 -0.026107816 0
0.0058087944 -0.020379473 0.027774915 0.46807376 -0.88357884 -0.013980477 0
-0.044332679 -0.017244229 0.027545622 -0.99642295 -0.083807603 -0.010838981 0
0.0063021327 -0.017496098 0.027681941 0.99972278 0.0041482043 -0.023176132 0
-0.044408746 -0.012355085 0.027248839 -0.9984144 0.055358734 -0.010195947 0
0.0064650765 -0.012542097 0.027350431 0.99905336 -0.036846742 -0.023124998 0
-0.044112056 -0.0074451715 0.02739742 -0.99845207 0.051604375 -0.020745471 0
0.0065986123 -0.0075164288 0.02752893 0.99945813 -0.028631689 -0.016241912 0
-0.043937162 -0.0024224736 0.02738302 -0.99967563 0.024279004 -0.0076861265 0
0.0068010478 -0.0023566892 0.027526855 0.99961519 -0.026893048 0.0068056844 0
-0.043842424 0.0027832892 0.027394813 -0.99984008 0.017860383 -0.00093846617 0
0.006873515 0.0023978385 0.027498443 0.99970686 -0.020175228 -0.013384884 0
-0.043741155 0.0073320968 0.027501354 -0.9997859 0.020386362 -0.0035601836 0
0.0069762222 0.0075586541 0.027447496 0.99947536 -0.01973504 -0.025681816 0
-0.043639481 0.012366441 0.027374862 -0.9997499 0.021460241 -0.0062911767 0
0.0070441505 0.012417492 0.027248489 0.99941128 -0.012838021 -0.031816863 0
-0.043567412 0.01762671 0.027472934 -0.99987739 0.013289167 -0.0082799615 0
0.0071149138 0.017537251 0.027553035 0.99946284 -0.0019351057 -0.032714058 0
-0.043511443 0.022341663 0.027545933 -0.9998228 0.0090001142 -0.016535373 0
0.0071806065 0.022226691 0.027631355 0.99983108 -0.018362656 -0.00078417128 0
-0.043441504 0.027540354 0.027405936 -0.99978572 0.00792214 -0.019126471 0
0.0072918292 0.027574891 0.027540857 0.99979663 -0.017710982 -0.0096470239 0
-0.043426991 0.032812584 0.027753606 -0.99980199 0.0020997589 -0.019784844 0
0.0073735509 0.032628495 0.027585618 0.99977905 -0.017591679 -0.011503401 0
-0.043399934 0.037700243 0.02759894 -0.99995309 0.00077051501 -0.009659186 0
0.0074558035 0.037523754 0.027726341 0.9999308 -0.0054033301 -0.010447266 0
-0.043470509 0.042708755 0.02740594 -0.99930465 -0.037267104 -0.0012024167 0
0.0074763531 0.042647563 0.027476767 0.99993914 -0.0038927128 -0.010315388 0
-0.043746345 0.047645308 0.027513498 -0.99757141 -0.069385633 -0.0060772919 0
0.0074654352 0.047445852 0.027426016 0.99975562 0.012653016 -0.018126708 0
-0.043790836 0.052510433 0.02758405 -0.98660493 0.16185747 0.020316241 0
-0.035109535 0.054991141 0.029768156 0.051799022 0.99756777 -0.046641313 0
-0.031719238 0.05489964 0.028170349 0.064677596 0.99552423 0.06890896 0
-0.027265858 0.054623306 0.027729074 0.058359914 0.99715286 0.047752127 0
-0.022543862 0.054449022 0.027457144 0.019659406 0.99919522 0.034962315 0
-0.0174476 0.054324958 0.027493166 0.020564729 0.99914151 0.035962816 0
-0.012554191 0.054234028 0.027464414 0.018494733 0.99927658 0.033230305 0
-0.0075701447 0.054151315 0.02753083 0.015683701 0.99966794 0.020443382 0
-0.0023528934 0.054052815 0.027584402 0.019178873 0.99973208 0.012962969 0
0.0026043819 0.053927902 0.027787102 0.018024117 0.99980509 0.0080611091 0
0.0069613559 0.052801508 0.027675426 0.78480947 0.6196804 -0.0083840024 0
-0.041752536 0.055260967 0.027336996 -0.1029981 0.99298739 0.058028359 0
-0.037632823 0.05520599 0.027389696 0.024128506 0.9988932 0.040376276 0
-0.033102497 0.055078588 0.026499789 0.051779568 0.99734348 0.051233776 0
-0.042105671 -0.020861849 0.032202378 -0.24883285 -0.96849668 0.0098185148 0
-0.037647739 -0.020955902 0.032640651 0.023410425 -0.99972397 0.0019966669 0
-0.032462105 -0.020844085 0.032505974 0.026901999 -0.99963182 -0.0035265847 0
-0.027551349 -0.020716401 0.032379534 0.02363147 -0.99972028 -0.00094214018 0
-0.02232692 -0.020625759 0.032368951 0.0087143183 -0.99995655 0.0033021234 0
-0.017595492 -0.020598611 0.032563493 0.0021048193 -0.99996197 -0.0084659914 0
-0.012350745 -0.020600202 0.032373276 -0.0003754909 -0.99994272 -0.010694765 0
-0.0075148856 -0.020597152 0.032462452 0.0054085418 -0.99986392 -0.01558686 0
-0.0024643412 -0.02056241 0.032450508 0.010950672 -0.99975687 -0.019139661 0
0.002467494 -0.020512268 0.03253708 -0.0090209609 -0.99984372 -0.015205192 0
0.0056429259 -0.020511668 0.032688234 0.29376006 -0.95587105 -0.0039501553 0
-0.044365048 -0.017366555 0.032464914 -0.99621451 -0.08659292 0.0076367287 0
0.0063202931 -0.017562311 0.032337859 0.99960059 -0.026935844 0.0085507948 0
-0.044408459 -0.012224972 0.032580778 -0.99899429 0.044674195 0.0038498242 0
0.0065050484 -0.012482937 0.032381121 0.99911386 -0.041420024 0.0074832118 0
-0.04416284 -0.0074595143 0.032667127 -0.99875039 0.048603151 -0.011636523 0
0.0066869655 -0.0073973332 0.032500837 0.99952257 -0.029987618 -0.0074370992 0
-0.043964971 -0.0022677253 0.03247866 -0.99954903 0.027809665 -0.011329278 0
0.0068320464 -0.0023419261 0.032760724 0.99970847 -0.022501344 -0.0087551856 0
-0.043835007 0.0024133679 0.032594856 -0.99957049 0.027642598 -0.0097344909 0
0.0069179703 0.0025479353 0.032431368 0.99965256 -0.016631959 -0.020448091 0
-0.043708447 0.0074620056 0.032485038 -0.99972755 0.022199146 0.0072153606 0
0.0070020328 0.0072178217 0.032406706 0.99966061 -0.025602479 -0.0048185177 0
-0.043654334 0.012288668 0.032512531 -0.99998397 0.0052376143 -0.0021756443 0
0.0070868488 0.012318541 0.032336392 0.99985266 -0.017088607 0.0016479898 0
-0.043638214 0.017544815 0.032645714 -0.99993747 0.0017817256 -0.01103859 0
0.0071663139 0.017655814 0.032545466 0.99955076 -0.029663004 0.0042753518 0
-0.043600544 0.022620114 0.032314431 -0.99971575 0.0099956524 -0.021644035 0
0.00726027 0.022550058 0.032382909 0.99979109 -0.014349942 -0.014555252 0
-0.043554585 0.02747939 0.032541547 -0.99953884 0.014527333 -0.026663791 0
0.0073564909 0.027154841 0.032612089 0.99973977 -0.01744746 -0.014696022 0
-0.043500368 0.032794449 0.032394674 -0.99976051 0.0067345495 -0.020822009 0
0.0074358662 0.032585267 0.032581992 0.99980736 -0.018005252 -0.0078097824 0
-0.043463062 0.037563935 0.032546896 -0.99987048 0.0080976337 -0.013911552 0
0.0074941269 0.037531976 0.032238726 0.99998736 -0.0047566271 -0.0016311558 0
-0.043496359 0.042727519 0.032276426 -0.99966854 -0.02525459 -0.0050069257 0
0.0075097759 0.042692538 0.032496013 0.99994713 0.0048548053 -0.0090630092 0
-0.04372159 0.04759546 0.032533169 -0.99824131 -0.057618335 0.013943665 0
0.0074974112 0.047504589 0.032760445 0.99999791 -0.00044352561 0.002010735 0
-0.043311194 0.053049088 0.032776486 -0.91210848 0.40896222 0.028425494 0
-0.037388988 0.054846391 0.033049822 0.031716466 0.99677473 0.07371714 0
-0.032588743 0.054671109 0.032264329 0.069857664 0.99452835 0.077674031 0
-0.027473461 0.054379992 0.032476474 0.047987226 0.99734885 0.05470461 0
-0.022706477 0.054234687 0.032456033 0.018311372 0.99900258 0.040725436 0
-0.017488549 0.054150689 0.032349579 0.013705012 0.99931985 0.034236517 0
-0.012591824 0.054093167 0.03269903 0.0061604693 0.99944156 0.032841582 0
-0.0074608969 0.054063711 0.03238903 0.01088241 0.99986327 0.01245491 0
-0.0026585383 0.054001614 0.032654651 0.01700411 0.99983209 0.0068344874 0
0.0022853843 0.053881377 0.032634631 0.017924696 0.99974322 0.01386582 0
0.0070538805 0.052764952 0.032342799 0.84345251 0.53690594 0.017885311 0
-0.041365311 0.055063996 0.031117199 -0.035205662 0.99695855 0.069528066 0
-0.037734427 0.055058736 0.030408457 0.019524688 0.9972775 0.071108289 0
-0.034309961 0.055004105 0.030448586 -0.0022762078 0.99993956 -0.01075583 0
-0.04224034 -0.020872843 0.037609797 -0.28638768 -0.95780718 -0.024238007 0
-0.037433717 -0.020921918 0.037433457 0.028570779 -0.99939412 0.019878473 0
-0.032290261 -0.020813081 0.037496038 0.020187724 -0.99979514 0.0014356369 0
-0.027524419 -0.020716155 0.037467755 0.019616919 -0.99978691 -0.0064317686 0
-0.022384489 -0.020670075 0.037484676 0.0054962225 -0.99975139 -0.021607284 0
-0.017543066 -0.02067994 0.037676323 -0.0032061657 -0.99983037 -0.018136967 0
-0.012377796 -0.020682804 0.037495609 0.00012228695 -0.99978691 -0.020639282 0
-0.0073267203 -0.020670908 0.037383456 0.0045241173 -0.99986166 -0.016007748 0
-0.0025563797 -0.02064825 0.037553336 0.0028033501 -0.99986184 -0.016386773 0
0.0027796549 -0.020651342 0.037606608 -0.029509161 -0.99890614 -0.036274139 0
0.0057498468 -0.020573035 0.037485506 0.46482319 -0.88526475 -0.015674528 0
-0.044286236 -0.01760724 0.037660044 -0.99479759 -0.10182819 -0.0029491803 0
0.006350887 -0.017498946 0.037418034 0.99973607 -0.022971109 0.00027842284 0
-0.044423405 -0.012378136 0.037599593 -0.99914181 0.039902549 0.011116674 0
0.0065689022 -0.012438323 0.037429646 0.99912554 -0.038728081 -0.015753426 0
-0.044223923 -0.0077150781 0.037375633 -0.99931151 0.037089545 -0.00089703564 0
-0.022070553 -0.0068533109 0.038798269 0.35332355 0.43341169 0.82904565 0
-0.017222086 -0.0074034045 0.038416985 0.00015937738 0.44991091 0.89307344 0
-0.013685695 -0.0066363881 0.038874734 -0.66138399 0.50716746 0.55258709 0
0.0067223483 -0.0077063907 0.037379336 0.99933499 -0.030252934 -0.020355253 0
-0.044061087 -0.0027161983 0.03762849 -0.99935764 0.030863175 -0.018213091 0
-0.022626726 -0.0025661991 0.03853875 0.37107202 -0.10382586 0.92278153 0
-0.017446633 -0.0025704915 0.037935659 0.083953068 0.0069613345 0.99644536 0
-0.013395292 -0.0023787047 0.038579665 -0.71591318 -0.29946557 0.63070494 0
0.0068598576 -0.0025501736 0.037843399 0.99956346 -0.027200777 -0.01152981 0
-0.043906264 0.0025849952 0.037394952 -0.99924886 0.030014724 -0.024514375 0
-0.021498265 0.00082694943 0.038987055 0.45918289 -0.77754319 0.42962497 0
-0.017502077 0.0013030632 0.03878624 -0.14149015 -0.78613853 0.60163671 0
-0.014655208 0.00034886572 0.039144292 -0.67068118 -0.68633235 0.28130874 0
0.0069692172 0.0025843657 0.037460536 0.99975604 -0.020445837 -0.0083595552 0
-0.043782823 0.0074265385 0.037501968 -0.99933189 0.016506864 -0.032609332 0
0.0070649264 0.007498886 0.037401803 0.99989492 -0.014477614 -0.00071062817 0
-0.043733865 0.012660143 0.037514083 -0.99964774 0.0044658063 -0.026160177 0
-0.02203029 0.013717733 0.038720246 0.44643682 0.57669711 0.68418902 0
-0.017492007 0.013189584 0.038344033 -0.019072428 0.68920332 0.72431695 0
-0.014005865 0.013904993 0.038915683 -0.71045119 0.59290028 0.37911522 0
0.007146534 0.012430345 0.03727163 0.99962574 -0.027085735 -0.0038333538 0
-0.043706961 0.017604098 0.037423484 -0.99982691 0.0078117293 -0.016886424 0
-0.025162257 0.017922077 0.039730478 0.99321419 -0.1132283 -0.026550258 0
-0.022723464 0.017545512 0.038293689 0.35823467 0.035030663 0.9329741 0
-0.017439885 0.017351136 0.037686262 0.049085524 -0.0085498542 0.99875796 0
-0.013193008 0.017513964 0.038285118 -0.66368729 0.048010331 0.74646789 0
0.007236402 0.017555179 0.037370529 0.99983382 -0.015648689 -0.009355749 0
-0.043689743 0.022418717 0.037381597 -0.99988961 0.0079878289 -0.012528952 0
-0.021897249 0.021623638 0.038642116 0.48046368 -0.57432705 0.66279948 0
-0.017546121 0.022207862 0.038294569 -0.10097634 -0.61396784 0.78284562 0
-0.014001965 0.021146312 0.038698386 -0.69553715 -0.67288059 0.25191236 0
0.0073210187 0.022505475 0.037686355 0.999861 -0.016289281 -0.0035359922 0
-0.043643057 0.027872777 0.037752036 -0.99991113 0.0130335 -0.0028008749 0
0.0073898728 0.027549874 0.037700269 0.99981034 -0.016926274 -0.0096347854 0
-0.043561812 0.032744236 0.037444264 -0.99984109 0.017718334 -0.0019548254 0
-0.020880327 0.034792036 0.039234817 0.17975786 0.94574958 0.27063799 0
-0.017478973 0.034561459 0.039070018 0.030354328 0.92662799 0.37475222 0
-0.014330863 0.034782603 0.039369345 -0.41878545 0.90223533 0.10290867 0
0.0074527995 0.032298535 0.03772901 0.99987245 -0.015924128 -0.0012656215 0
-0.043496996 0.03754155 0.037561588 -0.99995685 0.0077091483 0.0051892358 0
-0.022294464 0.037645467 0.038395207 0.38378099 0.21804659 0.89731145 0
-0.017303525 0.037381824 0.037727382 -0.0011927361 0.096852466 0.99529803 0
-0.0132804 0.037782844 0.038366359 -0.56522089 0.26246315 0.78207314 0
0.0075240326 0.037431244 0.037482508 0.99994361 -0.0027169767 -0.01027166 0
-0.043501146 0.042616867 0.037654504 -0.99966455 -0.018728405 0.017893467 0
-0.021998558 0.042259157 0.038604815 0.51769376 -0.4635433 0.71911108 0
-0.017535845 0.043033332 0.038132768 -0.019904898 -0.36948305 0.92902428 0
-0.013659583 0.042025369 0.038486451 -0.6258539 -0.52974206 0.57243359 0
0.0075262175 0.042640362 0.037131656 0.99998903 -0.0028482904 -0.0037237732 0
-0.043663029 0.047532037 0.037462231 -0.99867219 -0.050838824 0.0083247041 0
-0.018103462 0.045184877 0.039225452 -0.048630193 -0.9916622 0.11933624 0
0.0075085224 0.047450501 0.037519399 0.99994349 0.0091647841 -0.0053866073 0
-0.042669225 0.053348593 0.037552103 -0.71739322 0.69092822 0.089247227 0
-0.037688341 0.05447023 0.037493054 0.038353562 0.99494976 0.092757627 0
-0.032268494 0.054212566 0.03769166 0.037812889 0.99617904 0.078724444 0
-0.027542697 0.054103043 0.037373692 0.021287933 0.99851525 0.050141461 0
-0.022667048 0.054025002 0.037431061 0.011291938 0.99967217 0.022981068 0
-0.01744679 0.053984415 0.037613332 0.0015119077 0.99952602 0.030747781 0
-0.012667145 0.053974263 0.037781876 0.00049738953 0.9999432 0.010649375 0
-0.0074366373 0.053971756 0.037319224 0.0026185475 0.99967533 0.025346611 0
-0.0025347215 0.05392012 0.037363146 0.020646393 0.99963158 0.017620275 0
0.0023936727 0.053822994 0.037344839 0.017722268 0.99984115 0.0018776625 0
0.0069954237 0.052691877 0.037787668 0.83308136 0.55308783 -0.008325547 0
-0.042177524 -0.020863079 0.042238001 -0.19680525 -0.98017019 0.023112588 0
-0.037352581 -0.02085438 0.042649813 0.0082498612 -0.9999637 -0.0021550884 0
-0.032535341 -0.020835971 0.042487908 0.0082227709 -0.99995071 -0.0055696703 0
-0.027503973 -0.020790558 0.042362232 0.0070231101 -0.99946803 -0.031848285 0
-0.022375762 -0.020780008 0.04233579 -0.00050295965 -0.99961621 -0.027698923 0
-0.017633049 -0.020803422 0.042496953 0.00087619689 -0.99950778 -0.031359393 0
-0.012486753 -0.020810997 0.042601906 -0.0072531272 -0.99939084 -0.034136578 0
-0.0075549656 -0.020788986 0.042619854 0.011269889 -0.99950749 -0.029287914 0
-0.0025244982 -0.020773927 0.042370148 -0.0024422514 -0.99953032 -0.030547317 0
0.0025009452 -0.020845003 0.042380899 -0.036149558 -0.99840707 -0.043318383 0
0.005949656 -0.020630594 0.042532701 0.6317814 -0.77422291 -0.037831027 0
-0.044217434 -0.017427387 0.042221479 -0.9964937 -0.068606012 0.047890674 0
0.0064186617 -0.017453797 0.042587753 0.99911016 -0.029659141 -0.029989382 0
-0.044354293 -0.012438858 0.042507213 -0.99964905 0.014819788 0.021958746 0
-0.018124724 -0.010189893 0.04414073 0.0010812944 0.99515581 0.098304331 0
0.0066411654 -0.012478056 0.042516127 0.99917579 -0.036811844 -0.017106025 0
-0.044199228 -0.0076339846 0.042593926 -0.99948335 0.031707272 0.0052647777 0
-0.022685928 -0.0078076697 0.04252395 0.68305999 0.72554553 0.083742194 0
-0.017390959 -0.0093984446 0.041923605 -0.10133246 0.96623027 0.23691952 0
-0.013430939 -0.0073237517 0.042653039 -0.806077 0.58773571 0.069328651 0
0.0067735133 -0.0072736549 0.04272256 0.99979132 -0.019468723 0.0061791521 0
-0.044082738 -0.0024919391 0.042470355 -0.99990422 0.012997965 0.0047485461 0
-0.02425112 -0.0023831874 0.042221315 0.94372439 -0.3285948 -0.037546813 0
-0.012701693 -0.0027167676 0.042301591 -0.95680398 -0.28995439 -0.021272339 0
0.0068863672 -0.0025356177 0.042527322 0.99979264 -0.017386723 0.010601686 0
-0.04400355 0.002243316 0.042642709 -0.99974471 0.021088794 -0.0081076166 0
-0.02163866 0.00095041952 0.042575896 0.54024482 -0.84121245 -0.022298574 0
-0.017285034 0.0015990946 0.042587403 -0.22690894 -0.97205132 -0.060237363 0
-0.01444951 0.0003419377 0.042540327 -0.59477472 -0.80339336 -0.028321285 0
0.0069822413 0.0023767101 0.042533174 0.99969846 -0.018275965 0.016403785 0
-0.043928962 0.0075656064 0.042293739 -0.99966002 0.0083681885 -0.024693191 0
0.0070490977 0.0076644546 0.042615391 0.99991566 -0.012896698 0.0015637524 0
-0.043893375 0.012195094 0.042612061 -0.9996233 0.0090139033 -0.025924005 0
-0.022342449 0.013047861 0.0423944 0.61768883 0.78468084 0.052311216 0
-0.017572567 0.011756988 0.042321265 -0.089657359 0.98953372 0.11306874 0
-0.013688525 0.013636117 0.042682055 -0.77758014 0.62484449 0.07027407 0
0.0071042855 0.012305818 0.042428691 0.99989414 -0.013950762 -0.00414884 0
-0.043815568 0.017581793 0.042567365 -0.99921274 0.018631196 -0.035025269 0
-0.025081843 0.01772869 0.040621817 0.99375618 -0.043296471 -0.1028301 0
-0.024505911 0.017461715 0.042608302 0.99640822 0.014152871 -0.083488077 0
-0.012386281 0.017448254 0.042726234 -0.99902356 -0.019203372 0.039789189 0
0.0071562161 0.017643107 0.042510077 0.99976867 0.0019125465 0.021422902 0
-0.043709844 0.022438431 0.042748574 -0.99960303 0.027403986 -0.0065381099 0
-0.02206848 0.022075536 0.042298861 0.58488148 -0.80798376 -0.071245871 0
-0.017541245 0.023125431 0.042238176 -0.18815903 -0.98161846 -0.031957995 0
-0.013818312 0.021139573 0.042439878 -0.74005866 -0.67171699 0.033306316 0
0.0072149956 0.022497585 0.04229584 0.99899161 -0.029402966 0.033930931 0
-0.043606538 0.027663762 0.042636406 -0.99971128 0.022744562 0.0077467957 0
0.0073406585 0.027613495 0.042531881 0.99969077 -0.019089129 0.015940115 0
-0.043526642 0.032503944 0.042478684 -0.99976629 0.013984606 0.01648826 0
-0.021242663 0.034253024 0.042772546 0.45504758 0.883515 0.11105359 0
-0.017542992 0.033656966 0.042501796 -0.04496685 0.98480773 0.16772528 0
-0.014432406 0.034487613 0.042511322 -0.54383755 0.83462065 0.0874594 0
0.0074059726 0.03249428 0.042622965 0.99962592 -0.022244753 0.015910342 0
-0.043460399 0.037605468 0.042510424 -0.99990606 0.0077309022 0.011319053 0
-0.023732413 0.037382528 0.042485163 0.94672281 0.3190974 -0.043506116 0
-0.012480024 0.037136387 0.042826056 -0.92721599 0.37377942 0.023652177 0
0.0074881609 0.037541483 0.042563509 0.99978036 -0.010580063 0.018093979 0
-0.043465171 0.042477809 0.042341974 -0.99981201 -0.016924653 0.0094592655 0
-0.022295754 0.042792473 0.042516634 0.72952485 -0.6829313 -0.037391994 0
-0.017330268 0.044711862 0.042852562 -0.14299646 -0.98969281 -0.0077556069 0
-0.013234232 0.042290729 0.042586364 -0.80330467 -0.59530878 0.017578412 0
0.0075100991 0.042266928 0.042553511 0.99997038 -0.0072129364 0.0026920647 0
-0.043573882 0.047547627 0.042550351 -0.99915922 -0.02266252 0.03416571 0
-0.017934026 0.045086488 0.041145671 -0.017286304 -0.99702621 -0.075099289 0
0.0075336555 0.047786552 0.042521566 0.99992132 -0.0022869806 -0.012333088 0
-0.042684611 0.05284654 0.042397056 -0.75587583 0.64461052 0.11458205 0
-0.037716944 0.054020021 0.042360924 0.0058011715 0.99694037 0.077949814 0
-0.032575682 0.053881858 0.04243128 0.02084747 0.9966628 0.078921646 0
-0.027615193 0.053826246 0.042606741 0.0026741629 0.9992668 0.038194172 0
-0.022988394 0.05385093 0.042525049 -0.0032545263 0.99917328 0.040525224 0
-0.017606935 0.053845238 0.042589638 -0.0016494113 0.99972403 0.023433182 0
-0.012695752 0.053879619 0.042306095 -0.0049583977 0.99948746 0.031626277 0
-0.0074902237 0.053883422 0.042449567 0.0017648498 0.99997985 0.0060987752 0
-0.0023681996 0.053857777 0.042315554 0.010295521 0.99992448 0.0067098527 0
0.0026624377 0.053757016 0.042667411 0.02221494 0.99969733 0.010571714 0
0.007227798 0.05248611 0.042472098 0.88188887 0.47138423 0.0083039729 0
-0.042117655 -0.02086282 0.047654513 -0.23965384 -0.96845049 -0.068335004 0
-0.037668567 -0.020993538 0.047541033 -0.013154718 -0.9960584 -0.087718606 0
-0.032727305 -0.021059617 0.047626246 -0.0088156946 -0.9985429 -0.053238869 0
-0.027448269 -0.021085519 0.047619715 -0.0078830132 -0.99581844 -0.091013342 0
-0.022335805 -0.021054588 0.047701523 -0.002923535 -0.99857521 -0.053280365 0
-0.017687412 -0.021054123 0.047674745 -0.0035693771 -0.99837363 -0.056897812 0
-0.012527073 -0.021043837 0.047346659 0.0081731984 -0.99551672 -0.094231911 0
-0.007570806 -0.021093113 0.047620654 0.012196724 -0.9878034 -0.15522797 0
-0.0024200398 -0.020994607 0.047912277 0.020319961 -0.99915254 0.035793815 0
0.0025346652 -0.021062605 0.047995917 -0.045529276 -0.97249991 0.22840953 0
0.0059388187 -0.020779727 0.047327045 0.75103426 -0.64196748 0.15435418 0
-0.043034974 -0.017511275 0.048341248 -0.82993299 -0.0243179 0.55733281 0
-0.037311632 -0.017188556 0.049905393 -0.022798179 0.0082391584 0.99970615 0
-0.032670923 -0.017038275 0.049941458 0.0068387915 -0.0025440271 0.99997336 0
-0.027525127 -0.017234543 0.049869366 0.015564658 -0.0047884276 0.9998675 0
-0.022417324 -0.017483365 0.049804565 0.0077646803 0.0051894677 0.99995643 0
-0.017438395 -0.017393103 0.049783081 -0.0018999781 -0.0038431759 0.99999082 0
-0.012214785 -0.017491804 0.04979974 -0.0035007531 0.027369536 0.99961925 0
-0.0075156004 -0.017359871 0.049806442 0.0013353229 0.021035463 0.99977785 0
-0.0023350613 -0.017315185 0.049784988 0.011925298 0.0082285246 0.99989504 0
0.0023131559 -0.017421698 0.049672145 0.029438343 -0.015388104 0.99944812 0
0.0062389001 -0.017494785 0.047748864 0.95245159 -0.031504504 0.30305666 0
-0.043155782 -0.012325029 0.048257153 -0.8633281 -0.014716858 0.50442833 0
-0.038362972 -0.013305804 0.04995589 -0.038934615 -0.025132287 0.99892563 0
-0.031482112 -0.014571097 0.049986791 0.011724905 -0.027008392 0.99956644 0
-0.027117476 -0.01314324 0.049963664 0.0094221001 -0.017885277 0.99979562 0
-0.022103922 -0.012346329 0.0495934 0.072945245 0.14303258 0.98702615 0
-0.017964076 -0.011558855 0.048718225 -0.012054231 0.65459925 0.75588006 0
-0.012403636 -0.012624014 0.049820408 0.0051895916 0.0036030766 0.99998003 0
-0.0076263007 -0.012402326 0.049806129 -0.00072400359 0.0010358304 0.99999923 0
-0.0026038981 -0.012479961 0.049797505 0.0068148514 -0.0027182694 0.99997312 0
0.0023631195 -0.012305601 0.04971344 0.032597646 0.00138915 0.99946761 0
0.0063230102 -0.012589509 0.047814537 0.91931868 -0.03895491 0.391581 0
-0.043315023 -0.007640182 0.048275106 -0.94282979 -0.0037169717 0.33325386 0
-0.025097102 -0.0061260411 0.049717952 0.67972189 0.23893327 0.6934616 0
-0.02329208 -0.0080203433 0.047829028 0.74906707 0.60769558 0.26382685 0
-0.015711294 -0.0097326403 0.046656385 -0.38491473 0.921453 0.052585088 0
-0.012630953 -0.0076973918 0.048045881 -0.69817084 0.50686663 0.50561231 0
-0.0074981186 -0.007512961 0.049806844 -0.0035936285 -0.0014779265 0.99999243 0
-0.0025754008 -0.007461404 0.049809411 0.0051667667 -0.0024652344 0.99998367 0
0.0027736444 -0.0075715384 0.04969516 0.038739588 -0.0021116077 0.99924707 0
0.0065103727 -0.0074767764 0.047460813 0.95903736 -0.01126481 0.28305557 0
-0.043918613 -0.0022903152 0.047525551 -0.99993372 0.00091919972 0.011479748 0
-0.025239322 -0.0038440833 0.049663067 0.73989469 -0.049283363 0.67091507 0
-0.024281405 -0.0024270867 0.04731768 0.94295073 -0.31016865 0.12099317 0
-0.012179843 -0.002217351 0.048066474 -0.81624919 -0.3425242 0.46520364 0
-0.0074401712 -0.0023556235 0.049822241 -0.0066072382 -0.0014045063 0.99997717 0
-0.0024562906 -0.0027745545 0.049817383 0.0086975927 -0.00084015576 0.99996179 0
0.0025902558 -0.0023701319 0.049705256 0.034399919 -0.0011743277 0.99940747 0
0.006491065 -0.0025277878 0.047823183 0.91935694 -0.020884542 0.39286983 0
-0.04389162 0.0026720001 0.047506638 -0.99990147 0.010689792 0.0091042761 0
-0.021534815 0.0019047458 0.048523828 0.36926189 -0.7117902 0.59749502 0
-0.017481273 0.0021128394 0.048135463 -0.13136409 -0.84427762 0.5195564 0
-0.012764518 0.0021701301 0.049410325 -0.1334006 -0.18526271 0.97359228 0
-0.0075475005 0.0025308309 0.04981678 -0.0048065432 0.0042871642 0.9999792 0
-0.002715474 0.0024704058 0.049820583 0.0089095607 0.003932707 0.99995255 0
0.0024204911 0.0022889755 0.049712315 0.037747774 0.0040323352 0.9992792 0
0.006535335 0.0023050057 0.047852695 0.91355497 -0.016569018 0.40637788 0
-0.043852814 0.0073353909 0.047439396 -0.99898189 0.0049093598 0.044846099 0
-0.021861449 0.0073460084 0.049934942 0.03337175 -0.0048203827 0.99943143 0
-0.017574815 0.0071804761 0.049826916 0.015287836 0.012557517 0.99980426 0
-0.012725677 0.0075389454 0.04977664 0.0032072605 0.015998172 0.99986684 0
-0.0076381834 0.0073971916 0.049781591 -0.0011827037 0.0091458084 0.99995744 0
-0.0026124793 0.0073937764 0.049778793 0.0083226077 0.010532263 0.99990988 0
0.0024400339 0.0073901019 0.049688179 0.035775993 0.0057598059 0.99934322 0
0.006559812 0.0074289441 0.047780834 0.90585828 -0.010031765 0.42346206 0
-0.043801207 0.012544283 0.047654018 -0.99941975 0.019426281 0.027978323 0
-0.022392202 0.012658143 0.047862217 0.62340891 0.72784781 0.28565514 0
-0.017609378 0.011301966 0.047510453 -0.0592249 0.95548153 0.28904572 0
-0.012669012 0.012736749 0.048326585 -0.51985073 0.49155068 0.69866526 0
-0.0073847161 0.01238073 0.049733341 -0.0095740994 0.008444584 0.99991852 0
-0.0024899992 0.012678998 0.049746711 0.0031341938 0.0061367624 0.99997628 0
0.0026687176 0.012594823 0.049666513 0.035198931 0.0014677605 0.99937922 0
0.0066269203 0.012738865 0.047912806 0.89751166 -0.018406443 0.44060653 0
-0.043722522 0.017621189 0.047619507 -0.99983472 0.015135917 0.010069541 0
-0.02523225 0.017982995 0.049952738 0.43020195 -0.028020568 0.90229762 0
-0.024436556 0.017446816 0.04728429 0.9933998 -0.04119321 0.10705128 0
-0.011622883 0.01777927 0.047793902 -0.88718712 -0.10072377 0.45028171 0
-0.0075175283 0.017633727 0.049699783 -0.01189716 0.0033493366 0.99992371 0
-0.0027109722 0.01771179 0.049717676 0.0012771193 0.0046870443 0.9999882 0
0.0023396153 0.017422538 0.049659178 0.025466723 0.0097633246 0.99962801 0
0.0067062741 0.017502537 0.047835484 0.89894599 0.003318931 0.43804678 0
-0.043628652 0.022330342 0.047630616 -0.99980271 0.019815816 0.001357366 0
-0.022184335 0.022333339 0.048034161 0.59310514 -0.71010822 0.37943718 0
-0.017307073 0.023405505 0.047744323 -0.15759818 -0.92326343 0.35035354 0
-0.012705453 0.022254707 0.048641786 -0.40256944 -0.43484101 0.80551296 0
-0.0074500483 0.022612507 0.049697209 -0.0039753499 0.00035637175 0.99999201 0
-0.0023659044 0.022568326 0.049683113 0.0058932034 0.0078442963 0.99995196 0
0.0024597468 0.022446083 0.049615301 0.022234906 0.0053803558 0.99973834 0
0.0067481678 0.022635764 0.047981381 0.88326186 -0.024017226 0.46826452 0
-0.043532379 0.027568009 0.047451645 -0.9995786 0.025341932 -0.014157603 0
-0.021703698 0.027474629 0.049923915 0.037946559 0.009408433 0.99923551 0
-0.017652888 0.027527705 0.049790606 0.025856314 -0.0021258274 0.99966341 0
-0.01246307 0.027575919 0.04970669 0.0085212607 -0.001607077 0.99996233 0
-0.0077902814 0.027480455 0.049698498 0.0043282812 -0.00061235065 0.9999904 0
-0.0024290595 0.027367199 0.049665358 0.0080843586 0.0010597275 0.9999668 0
0.0023391445 0.027473602 0.049603533 0.018827494 -0.00014047376 0.9998228 0
0.0068202778 0.027279088 0.047984861 0.86188263 -0.024312021 0.50652474 0
-0.043445062 0.032392453 0.047551379 -0.99988478 0.0062836646 -0.013819937 0
-0.025169689 0.033950318 0.04999363 0.061505467 0.035432186 0.99747765 0
-0.022088341 0.033019055 0.048813179 0.36370635 0.54213792 0.75749856 0
-0.017613178 0.032517806 0.048098192 -0.024003861 0.82887995 0.55891132 0
-0.012758338 0.032901414 0.048991516 -0.22096223 0.30869514 0.92513949 0
-0.0076954477 0.032382511 0.049663704 -0.0015573094 0.010741888 0.99994111 0
-0.0024356453 0.032482758 0.049648967 0.0034321633 0.0042462721 0.99998504 0
0.0023460656 0.032570068 0.049597967 0.01847871 0.0036772047 0.9998225 0
0.0069249631 0.032473456 0.048029006 0.86931169 -0.01759346 0.49395114 0
-0.043428808 0.037661579 0.04746842 -0.9998579 7.4042005e-06 -0.016855966 0
-0.025378764 0.03816748 0.049943499 0.14056796 0.039026219 0.98930162 0
-0.023927843 0.037446886 0.047774583 0.94890523 0.20505884 0.23985353 0
-0.011696598 0.037263602 0.047787927 -0.85407174 0.28144839 0.43743387 0
-0.0075689023 0.0375624 0.049594577 -0.0021368663 0.018620517 0.99982429 0
-0.0027024373 0.037481137 0.049587447 -0.00088834867 0.017755682 0.99984193 0
0.0026544463 0.037257157 0.049567625 0.01605422 0.0090683317 0.99983001 0
0.0069719958 0.037470326 0.048009239 0.84981072 -0.0022616859 0.52708316 0
-0.043421824 0.042481624 0.047429718 -0.99986005 0.0099861026 0.013420398 0
-0.025990345 0.042530987 0.049954053 0.052826378 -0.0007081916 0.9986034 0
-0.02260639 0.043128382 0.047882967 0.65767521 -0.64691931 0.38595179 0
-0.017357007 0.044776235 0.04705641 -0.092583016 -0.99075401 0.099170439 0
-0.012534705 0.04274594 0.047947805 -0.64734399 -0.50651693 0.56954914 0
-0.0073933266 0.042499937 0.04954179 0.010781909 0.0074103242 0.99991441 0
-0.0023233402 0.042448375 0.049475558 0.0041900347 0.025688959 0.99966121 0
0.0026330904 0.042488746 0.049485322 0.0009376852 0.01980776 0.99980336 0
0.0070804465 0.042734977 0.047936663 0.88706177 -0.009017352 0.46156266 0
-0.043411516 0.047669575 0.047492407 -0.99974072 0.0050457316 0.022205034 0
-0.02698792 0.047781881 0.049943522 0.033489443 0.0085722301 0.99940234 0
-0.022335691 0.047612447 0.049827438 0.027812801 -0.012552503 0.99953437 0
-0.017623732 0.047213309 0.049450316 0.037552245 -0.26339906 0.96395582 0
-0.012478537 0.047434047 0.049628824 0.0057581533 -0.030658741 0.99951333 0
-0.0076795737 0.04745635 0.049531512 0.029438762 -0.0055615678 0.99955112 0
-0.0024356104 0.047542132 0.04939463 0.0098375631 -0.00035605609 0.9999516 0
0.0024021261 0.047384497 0.049409486 -0.0077833277 0.0035514997 0.9999634 0
0.0071197995 0.047598045 0.047935478 0.86697942 -0.014564216 0.49813119 0
-0.042534556 0.052430641 0.047228139 -0.76460385 0.64239293 0.052079245 0
-0.037446767 0.053572066 0.047536962 -0.0006344805 0.99945968 0.032863744 0
-0.032293029 0.053491782 0.047838632 -0.0062855994 0.99996156 0.0061155437 0
-0.027345711 0.052902546 0.048138291 0.0020813455 0.9486829 0.31622225 0
-0.022387089 0.05294434 0.048252676 -0.0064433552 0.92515767 0.37952834 0
-0.017383199 0.052920386 0.048306413 -0.0074611017 0.85938251 0.51127881 0
-0.012486799 0.053061921 0.048192531 -0.0075375442 0.8095575 0.58699226 0
-0.0076315147 0.052882031 0.048520904 0.0081783449 0.72855085 0.68494284 0
-0.0025558213 0.053055719 0.048284508 0.010509494 0.76041812 0.6493488 0
0.0024491423 0.052960172 0.048249096 0.038107976 0.7653988 0.64242703 0
0.0066824639 0.052408237 0.047640845 0.66685164 0.5897693 0.4555009 0
-0.042219225 -0.020649413 0.050283931 -0.058790393 -0.10228869 0.99301589 0
-0.037711605 -0.020846546 0.050250914 -0.024975358 -0.38970509 0.92060101 0
-0.032053001 -0.020742137 0.050226104 0.00022915151 -0.15749779 0.98751926 0
-0.027217444 -0.020772981 0.050154004 0.031832289 0.0023992774 0.99949038 0
-0.022510903 -0.021001145 0.050103575 -0.016004955 -0.059503678 0.99809974 0
-0.017764077 -0.021032672 0.050137162 -0.040935539 0.08298789 0.99570942 0
-0.012059001 -0.020961065 0.050163679 0.031743579 -0.026813397 0.99913633 0
-0.0074358764 -0.020824643 0.050214428 -0.0055695809 0.020271046 0.99977899 0
-0.0039626816 -0.020541182 0.050055463 0.098006517 0.13369554 0.98616439 0
-0.043062933 -0.017614106 0.050198678 0.09419474 0.040888105 0.99471378 0
-0.037782613 -0.01966963 0.050062556 -0.0082872072 0.27896529 0.96026546 0
-0.033713009 -0.019798907 0.050051972 0.016598038 0.25568831 0.96661681 0
-0.028827786 -0.01974472 0.05001799 0.06951791 0.21463482 0.97421724 0
-0.0080149295 -0.019975385 0.050013971 0.025742752 0.40224755 0.91516894 0
-0.043306116 -0.012171743 0.050448686 0.073368214 -0.053028081 0.99589413 0
-0.036811315 -0.011722374 0.050035682 -0.016079554 -0.019368362 0.99968308 0
-0.032361567 -0.012202533 0.050042581 0.0075155739 -0.019143116 0.99978852 0
-0.028482331 -0.010974736 0.050017688 0.0089004058 -0.019241637 0.99977535 0
-0.023617133 -0.010332242 0.050010324 0.029346805 -0.0028197027 0.9995653 0
-0.042638794 -0.0073790713 0.050295912 0.055894777 0.019636372 0.99824351 0
-0.037325498 -0.0075019989 0.050088659 -0.017913442 -0.011187685 0.99977696 0
-0.032392394 -0.0074916054 0.050105225 0.0066151968 -0.0092214532 0.99993557 0
-0.027573802 -0.007471574 0.050064128 0.018643314 -0.010901763 0.99976677 0
-0.024573574 -0.0091799712 0.050028909 0.017614374 -0.0033836206 0.99983913 0
-0.042246047 -0.0025380242 0.050208293 -0.051407754 -0.016952408 0.99853384 0
-0.037420318 -0.0025002451 0.050144002 -0.017009037 -0.013134194 0.99976909 0
-0.032612491 -0.0025163642 0.050152935 0.0090003069 -0.010809191 0.99990106 0
-0.027643738 -0.0023485494 0.050109029 0.029126195 -0.0072389869 0.99954951 0
-0.024776101 -0.00070968521 0.050065298 0.069778904 -0.00027275074 0.99756241 0
-0.042161703 0.0024371627 0.050236978 -0.073443905 -0.0069226981 0.99727529 0
-0.037407234 0.0023845602 0.050217066 -0.015368504 -0.017893832 0.99972177 0
-0.032656584 0.0023263975 0.050202359 0.013415268 -0.012287019 0.99983448 0
-0.027604474 0.0024884408 0.050122779 0.020935519 -0.0091337292 0.99973911 0
-0.02397277 0.0020094225 0.050037801 0.035035916 -0.0057514743 0.9993695 0
-0.041816834 0.0073084212 0.050311778 -0.044180129 -0.017506486 0.99887019 0
-0.037632469 0.0071919123 0.050314564 -0.015596345 -0.021561146 0.99964589 0
-0.03253613 0.0073962952 0.050269376 0.023908302 -0.01268897 0.99963361 0
-0.027865048 0.0074280244 0.050166108 0.026310703 -0.0069796327 0.99962944 0
-0.024196919 0.0074992678 0.050031625 0.053532239 -0.0063457866 0.99854594 0
-0.042138655 0.012280105 0.050406069 -0.067783453 -0.017199613 0.99755186 0
-0.037478961 0.012414141 0.05039895 -0.010606992 -0.01094389 0.99988389 0
-0.032588001 0.012476744 0.050334327 0.028996516 -0.0060680066 0.99956107 0
-0.027635289 0.012489359 0.050185677 0.036152851 -0.0035347203 0.99933994 0
-0.024247458 0.011753909 0.050053332 0.071102329 0.024003992 0.9971801 0
-0.04191957 0.01738601 0.050448798 -0.077433512 -0.00096385623 0.99699706 0
-0.037670758 0.01749311 0.050416712 -0.0064764712 0.0051768604 0.99996561 0
-0.032495931 0.017286967 0.050342787 0.028691912 -0.00062786916 0.99958807 0
-0.027680039 0.017477879 0.050183959 0.058459155 0.0030713077 0.99828511 0
-0.042104457 0.022613779 0.050465643 -0.093956664 -0.0029507573 0.99557191 0
-0.03746219 0.022710944 0.050403133 -0.00047314237 -0.00051467918 0.99999976 0
-0.032347139 0.022217816 0.050327517 0.02748701 0.004847635 0.99961036 0
-0.027600393 0.022593908 0.050182108 0.038179282 0.0047557685 0.99925953 0
-0.024278166 0.023400119 0.050038628 0.041527912 -0.0060477364 0.99911904 0
-0.042172827 0.027348768 0.05049048 -0.11077483 0.0043019191 0.99383616 0
-0.037536018 0.027444802 0.05038454 0.0029385253 0.0066800513 0.99997336 0
-0.032578479 0.027636377 0.050306451 0.025150733 0.0050980705 0.99967062 0
-0.027336778 0.027362464 0.050150517 0.034692619 0.0093371961 0.99935442 0
-0.024401687 0.027320642 0.0500324 0.046100117 0.011851876 0.99886644 0
-0.041955654 0.032416899 0.050425801 -0.10827355 -0.0005570348 0.99412096 0
-0.037480973 0.03256347 0.050352775 0.0060005472 0.0021496895 0.99997967 0
-0.032184955 0.03245255 0.050249971 0.029086564 0.011238314 0.99951375 0
-0.027779527 0.032521617 0.050119106 0.033506606 0.0090581141 0.99939746 0
-0.024848403 0.031128213 0.050018776 0.046576217 -0.0099658864 0.99886495 0
-0.041899726 0.037357364 0.050404083 -0.092302077 0.01086817 0.99567175 0
-0.037506919 0.037327245 0.050331593 0.007098115 0.0054069217 0.99996018 0
-0.032457367 0.037609983 0.050218634 0.029680984 0.006843287 0.99953598 0
-0.027791094 0.037343699 0.050074115 0.033517905 0.011362555 0.99937356 0
-0.041841265 0.042487152 0.050387625 -0.089162193 0.01022251 0.99596465 0
-0.037564926 0.042508453 0.050303012 0.021341305 0.0053944793 0.99975771 0
-0.032524768 0.04269053 0.050176337 0.026045326 0.008440312 0.99962515 0
-0.028542943 0.042529423 0.050041508 0.033984967 0.012656296 0.9993422 0
-0.041562844 0.047222149 0.05038083 -0.046391305 -0.0013657309 0.99892247 0
-0.037576739 0.047568116 0.050277695 0.021232445 0.0059773531 0.99975675 0
-0.032530241 0.047412343 0.050127279 0.035630245 0.01187878 0.99929446 0
-0.029426664 0.047034986 0.050024077 0.031296778 0.010510801 0.99945486 0
-0.041843027 0.05205496 0.050406482 -0.13107428 0.098188378 0.98649818 0
-0.037535865 0.052066274 0.05033692 0.0090468675 0.13502482 0.99080086 0
-0.032666929 0.051841121 0.050183576 0.036405057 0.012612428 0.9992575 0
-0.027684754 0.052826405 0.050156683 0.024412805 0.030040776 0.99925047 0
-0.022365013 0.053285159 0.050178654 0.0020290816 -0.048308603 0.99883032 0
