# .PCD v0.7 - Point Cloud Data file format
VERSION 0.7
FIELDS x y z normal_x normal_y normal_z curvature
SIZE 4 4 4 4 4 4 4
TYPE F F F F F F F
COUNT 1 1 1 1 1 1 1
WIDTH 234
HEIGHT 1
VIEWPOINT 0 0 0 1 0 0 0
POINTS 234
DATA ascii
-0.010931266 -0.046124782 -8.6540422e-05 -0.084435664 -0.046458974 -0.99534523 0
-0.008246175 -0.046409596 -0.00015837952 0.032399457 -0.076591536 -0.99653608 0
-0.010906733 -0.044022515 -9.317384e-05 -0.095874377 0.07215897 -0.99277449 0
-0.0082219448 -0.043564357 -0.00013341664 0.037407309 0.090854466 -0.99516135 0
-0.015701344 -0.055434879 0.0046924469 -0.32242718 -0.64308327 -0.69461113 0
-0.012178357 -0.056109957 0.0040831855 -0.22520806 -0.63067991 -0.74264681 0
-0.0077926433 -0.056286253 0.0038472672 0.1340604 -0.63857657 -0.75779134 0
-0.0035670442 -0.055717193 0.0044052796 0.24381672 -0.61687768 -0.74834174 0
-0.020272445 -0.050617382 0.0047774827 -0.65083957 -0.18318757 -0.73678374 0
-0.017209709 -0.052313205 0.0034783906 -0.45308867 -0.40933901 -0.79192936 0
-0.012603792 -0.052547842 0.0018947108 -0.19482116 -0.42789626 -0.88258111 0
-0.0074785529 -0.052526057 0.0016156306 0.092360489 -0.42526966 -0.90034175 0
-0.0025332333 -0.052487038 0.0028478091 0.36741161 -0.42016235 -0.82974237 0
0.0010311799 -0.051308226 0.0043000313 0.5718978 -0.34638211 -0.74360764 0
-0.020821402 -0.04727719 0.0042590066 -0.67253506 -0.13130048 -0.72832471 0
-0.017640103 -0.047586318 0.0021682675 -0.46304992 -0.15330274 -0.87297368 0
-0.012882547 -0.047886264 0.00046024058 -0.19934 -0.15181811 -0.96809858 0
-0.0068885684 -0.048340749 0.0002720489 0.11711017 -0.18758902 -0.9752413 0
-0.0025301597 -0.047468822 0.0012752346 0.36758891 -0.13162912 -0.92062593 0
0.0017124899 -0.04739796 0.0036887415 0.61993414 -0.14040212 -0.77199024 0
-0.020875055 -0.042748723 0.0042228191 -0.68174487 0.12549692 -0.7207458 0
-0.017613634 -0.042446334 0.0021719991 -0.45491046 0.15066932 -0.87769878 0
-0.012858242 -0.042296216 0.00047578875 -0.19230802 0.16440894 -0.96746433 0
-0.0071018371 -0.041709553 0.00028582592 0.097365163 0.20735954 -0.97340745 0
-0.0024408889 -0.042517148 0.0013825605 0.39315227 0.15725262 -0.90592653 0
0.0016466022 -0.04258506 0.0037761379 0.60403478 0.14854985 -0.78299099 0
-0.020268356 -0.03941438 0.0047404869 -0.6796791 0.29054752 -0.67351198 0
-0.01737085 -0.037859719 0.0035379592 -0.45024741 0.40387747 -0.79634184 0
-0.01252176 -0.037472658 0.0019588845 -0.17676941 0.41975814 -0.89025593 0
-0.0074567799 -0.037523538 0.0016951569 0.091680698 0.43176782 -0.89731336 0
-0.0025130478 -0.037435111 0.003049897 0.36513948 0.43975207 -0.82054323 0
0.00091066572 -0.038738571 0.0043087238 0.5646556 0.38087586 -0.73218685 0
-0.015686747 -0.034680311 0.0047637685 -0.38965923 0.59013873 -0.70703745 0
-0.012176635 -0.034029093 0.0040959688 -0.17234989 0.66771269 -0.72419292 0
-0.0075706365 -0.033803955 0.0039977906 0.086179912 0.6460951 -0.75837606 0
-0.0037838824 -0.034419969 0.0044813892 0.26962548 0.64371938 -0.7161895 0
-0.01194615 -0.06038636 0.0092609897 -0.15059763 -0.87926191 -0.45190576 0
-0.0077449982 -0.060507849 0.0090674153 0.042843904 -0.87486124 -0.48247507 0
-0.0042293817 -0.060232881 0.009480875 0.27059224 -0.85374957 -0.44485 0
-0.020633413 -0.055664226 0.0091293817 -0.64821827 -0.60597986 -0.46108732 0
-0.017338842 -0.057100553 0.0076737385 -0.46169397 -0.6943422 -0.55202138 0
-0.012760927 -0.058501065 0.0067541329 -0.22678477 -0.76436585 -0.60358381 0
-0.0073430068 -0.058718145 0.0065073362 0.10499556 -0.77934343 -0.61773753 0
-0.0023911586 -0.057829451 0.0072578276 0.37306777 -0.72019243 -0.5849303 0
0.0013462402 -0.056186453 0.0084795188 0.59546286 -0.62634301 -0.50310868 0
-0.021913769 -0.052401546 0.0077622919 -0.73115641 -0.42663935 -0.53234309 0
-0.01902673 -0.054035157 0.0057319552 -0.53209358 -0.5297491 -0.66048646 0
-0.00034570938 -0.054676391 0.0053187138 0.51738179 -0.53740722 -0.66596508 0
0.0029059488 -0.052688185 0.0070378855 0.69836324 -0.4212991 -0.57861543 0
0.0054169744 -0.050782248 0.0093474239 0.82464391 -0.34715599 -0.44659278 0
-0.025081549 -0.046204969 0.0098632304 -0.90977073 -0.04988971 -0.4121021 0
-0.023364071 -0.047633704 0.0073233228 -0.8131727 -0.13893098 -0.56519759 0
0.0040487461 -0.047766712 0.0061494024 0.77121913 -0.17699687 -0.61146808 0
0.0058162902 -0.047242839 0.0085777873 0.86370498 -0.097663827 -0.49444461 0
-0.025120983 -0.043932859 0.0097946441 -0.91429329 0.032657478 -0.40373412 0
-0.02339614 -0.042393237 0.0072936672 -0.81703848 0.15080488 -0.5565123 0
0.0040916004 -0.042263087 0.0061488505 0.7549026 0.18178903 -0.63013881 0
0.0058450913 -0.04268299 0.0085196057 0.86528033 0.08445178 -0.49412322 0
-0.021896167 -0.037719492 0.0076650088 -0.72589952 0.4269028 -0.53928101 0
-0.019117245 -0.036045305 0.0058379369 -0.57566023 0.52452844 -0.62728405 0
-0.00046727751 -0.03545865 0.0053837993 0.4369939 0.56357586 -0.70101261 0
0.0028538899 -0.037302483 0.0071923672 0.67154044 0.44083661 -0.59556395 0
0.0053821267 -0.038939547 0.0091781775 0.81672937 0.33638632 -0.46882552 0
-0.020614723 -0.034397144 0.0091278115 -0.68414414 0.59312677 -0.42443776 0
-0.017309777 -0.033024743 0.0076524667 -0.42956802 0.71714664 -0.54879141 0
-0.012747122 -0.031557214 0.0070400969 -0.21095169 0.78288436 -0.58531314 0
-0.0073305783 -0.031398192 0.006693386 0.1169714 0.7829389 -0.61100274 0
-0.002526111 -0.032430131 0.0074103591 0.36265057 0.73820204 -0.56880784 0
0.0014235013 -0.033873208 0.0086198635 0.58875829 0.64282435 -0.49004132 0
-0.01131261 -0.029678067 0.0093208095 -0.20027757 0.87268358 -0.44532266 0
-0.0075330539 -0.029594116 0.0092067756 0.094184838 0.87901556 -0.46739793 0
-0.004396141 -0.029848928 0.0097774295 0.24356914 0.87659985 -0.41502622 0
-0.016144412 -0.060613431 0.013237879 -0.40741035 -0.88123208 -0.23968066 0
-0.012499953 -0.061482869 0.012422594 -0.17357628 -0.94115639 -0.28999296 0
-0.0075502861 -0.061866313 0.012512031 0.040206406 -0.96326423 -0.26552862 0
-0.0029121228 -0.060876805 0.012763046 0.36855283 -0.90017706 -0.23205633 0
-0.021576032 -0.05662097 0.012839103 -0.69502467 -0.66969353 -0.26163197 0
-0.018329471 -0.058985475 0.012071893 -0.52505225 -0.80041414 -0.28923592 0
-0.014993867 -0.059962213 0.010016957 -0.33408123 -0.88012546 -0.33729655 0
-0.00077939645 -0.059526633 0.011435268 0.47275597 -0.82905513 -0.29861251 0
0.0024229391 -0.057400357 0.012623311 0.66259295 -0.70377254 -0.25627089 0
0.0050976765 -0.055161908 0.014515146 0.82822871 -0.55018234 -0.10647339 0
-0.025307495 -0.050801031 0.013520705 -0.92744964 -0.324449 -0.18593028 0
-0.023959864 -0.052900497 0.012216531 -0.84981704 -0.44546863 -0.28172463 0
0.0045463466 -0.054139417 0.011062516 0.84312165 -0.43431655 -0.31704101 0
0.0060920985 -0.052167598 0.012830059 0.88373458 -0.39241159 -0.25500256 0
-0.02583167 -0.047319815 0.012591258 -0.96342832 -0.12646553 -0.23624638 0
-0.024810383 -0.049461633 0.01041476 -0.89977568 -0.31194571 -0.30511257 0
0.007359751 -0.047536813 0.01252401 0.95721573 -0.14882396 -0.24817224 0
-0.025793787 -0.042557348 0.012660393 -0.96123827 0.15402372 -0.22868676 0
-0.024790112 -0.040762346 0.010487008 -0.88071698 0.24951859 -0.40258923 0
0.0074516139 -0.042384271 0.012423635 0.95161831 0.13179675 -0.27758288 0
-0.025235489 -0.039434087 0.013613664 -0.92154735 0.35107943 -0.16581239 0
-0.023737954 -0.037044276 0.012249069 -0.84961736 0.47487342 -0.2294461 0
0.0045175008 -0.03557935 0.011313194 0.77189976 0.53755009 -0.3394269 0
0.0061958423 -0.037803061 0.012788956 0.88259494 0.41211805 -0.22624089 0
-0.021353101 -0.033566803 0.012711566 -0.71703923 0.66910559 -0.19532667 0
-0.018167123 -0.031175682 0.012150744 -0.50982738 0.82150155 -0.2553646 0
-0.014900419 -0.030071044 0.010316333 -0.34050474 0.86631405 -0.36545378 0
-0.0011647718 -0.030637486 0.0119117 0.44406351 0.84316683 -0.30311278 0
0.0024821861 -0.032908872 0.012595519 0.64820081 0.72348988 -0.23748305 0
0.0050143376 -0.034984913 0.014898614 0.87507689 0.47540921 -0.090700336 0
-0.015901254 -0.029586231 0.013367521 -0.37131211 0.90788364 -0.19461402 0
-0.01261435 -0.028847814 0.012455155 -0.20287845 0.94681048 -0.24978028 0
-0.007422972 -0.028514426 0.012482285 0.073770091 0.97126633 -0.22627378 0
-0.0033621984 -0.029198779 0.012913603 0.35857162 0.90173119 -0.24146907 0
-0.016675554 -0.060801912 0.017398044 -0.44517002 -0.89395505 0.051652394 0
-0.01241578 -0.0621593 0.017369946 -0.1793436 -0.98321754 0.033456411 0
-0.007426288 -0.062368769 0.017505763 0.09868332 -0.99392611 0.048709337 0
-0.0025979262 -0.061165668 0.017437631 0.3719027 -0.92469943 0.0813592 0
7.0720198e-05 -0.060040895 0.017276339 0.52422625 -0.85095835 0.032505687 0
-0.021782847 -0.05704857 0.017465312 -0.70838213 -0.70402306 0.050460085 0
-0.019024773 -0.059363909 0.017626114 -0.58110172 -0.81281298 0.04069059 0
-0.00025506414 -0.059764411 0.019264214 0.60495257 -0.76530504 0.2198651 0
0.0026059817 -0.057786062 0.017442146 0.67074507 -0.73452997 0.10279458 0
0.005193877 -0.055258825 0.016816152 0.81613547 -0.57748771 0.020753108 0
-0.025438162 -0.051170323 0.017460633 -0.93980676 -0.3365522 0.059125077 0
-0.024345001 -0.053559508 0.017679589 -0.88592499 -0.45951578 0.063104093 0
0.0049157511 -0.054831505 0.019612664 0.79798651 -0.53253806 0.28217182 0
0.0065972907 -0.052504122 0.017537076 0.90177947 -0.4281753 0.058820356 0
-0.026255637 -0.047491405 0.01754385 -0.9894188 -0.13056318 0.063274793 0
0.0080665536 -0.047551334 0.017467763 0.9918831 -0.1271517 0.000568458 0
-0.026194209 -0.042457558 0.017501354 -0.98557383 0.16289341 0.04593417 0
0.0081261043 -0.042498093 0.017500957 0.99221957 0.11917355 0.036028702 0
-0.025329126 -0.039233275 0.0173491 -0.91824776 0.39116305 0.06174596 0
-0.024050128 -0.03668984 0.017556105 -0.86176497 0.50345981 0.062364619 0
0.0065069636 -0.037419423 0.017426018 0.8909713 0.45299795 0.031030035 0
-0.021615995 -0.033363551 0.017572831 -0.73827142 0.67242175 0.05295597 0
-0.018744484 -0.030845314 0.01752631 -0.55120301 0.8332594 0.043059073 0
-0.00030944226 -0.030181384 0.017738231 0.50240481 0.86103505 0.078790233 0
0.0026305409 -0.032338243 0.017551553 0.66972381 0.74100792 0.048757173 0
0.0050957706 -0.034897801 0.017481646 0.81923854 0.57305557 -0.02134168 0
-0.016207037 -0.029437566 0.017382005 -0.40553337 0.91285324 0.047346119 0
-0.012486615 -0.028287638 0.017464213 -0.19627415 0.98003334 0.03180065 0
-0.0074961497 -0.027976874 0.017484691 0.075549327 0.99661016 0.032564681 0
-0.002756204 -0.028959965 0.017498324 0.34174925 0.93878859 0.043400269 0
-0.016058078 -0.060381524 0.021250691 -0.33210611 -0.89860916 0.28671777 0
-0.012291759 -0.061111573 0.022474082 -0.19075158 -0.9086467 0.37144977 0
-0.0075170533 -0.06126976 0.022527555 0.10750154 -0.92414194 0.36661297 0
-0.0034009416 -0.060666129 0.021610914 0.33704555 -0.896424 0.28779203 0
-0.021310484 -0.056345046 0.02202267 -0.69056082 -0.64645898 0.32437095 0
-0.01805081 -0.058548305 0.022857662 -0.50266129 -0.77897632 0.37487006 0
-0.014144264 -0.059694722 0.024499483 -0.35181716 -0.8343159 0.42443097 0
-0.0051246434 -0.059933968 0.024778219 0.21763241 -0.85924655 0.4629595 0
-0.0016088492 -0.059145164 0.023270698 0.43224904 -0.81507254 0.3857688 0
0.0021267773 -0.05687302 0.022331901 0.65796036 -0.68863529 0.30474532 0
-0.025194237 -0.050410137 0.020693287 -0.89660728 -0.37560582 0.23455444 0
-0.023473984 -0.052723754 0.022621779 -0.83265096 -0.41350356 0.36838451 0
0.004200751 -0.05391036 0.023314804 0.7680425 -0.51502681 0.38060218 0
0.0059161256 -0.051803228 0.022030657 0.87025422 -0.39442018 0.29511088 0
-0.025557607 -0.047265764 0.021789016 -0.95187515 -0.11554166 0.28387284 0
-0.024545085 -0.047908869 0.024075229 -0.87880296 -0.19466206 0.43567416 0
0.0070493608 -0.047525745 0.022541165 0.92087728 -0.18610883 0.34256181 0
-0.025530851 -0.042708132 0.02163781 -0.94434094 0.15168928 0.29190853 0
-0.024508182 -0.041973468 0.023890955 -0.87416285 0.18395165 0.44944537 0
0.0070898673 -0.042555034 0.022618556 0.91907507 0.16414148 0.35827172 0
-0.025095036 -0.039759215 0.020534527 -0.91073835 0.3506591 0.21816 0
-0.023287479 -0.037439231 0.022627665 -0.82685262 0.4589397 0.32509848 0
0.0041262303 -0.036172833 0.023448797 0.73455232 0.53404856 0.41859892 0
0.0059034661 -0.038062826 0.022022543 0.85238308 0.40940678 0.32531393 0
-0.02103504 -0.033886258 0.022097265 -0.71780592 0.62968475 0.2970722 0
-0.017790979 -0.031572979 0.022786917 -0.50837135 0.78568238 0.35250771 0
-0.013794769 -0.030302685 0.024405185 -0.27439713 0.85237855 0.44514826 0
-0.0053835595 -0.030164564 0.024736673 0.26287419 0.83636707 0.48102733 0
-0.0018497308 -0.030877674 0.023266749 0.41945088 0.82243359 0.38427067 0
0.0020548909 -0.033140939 0.0222643 0.63799602 0.69391918 0.33382225 0
-0.015686892 -0.029749427 0.020927746 -0.3337746 0.91005391 0.24575679 0
-0.012324139 -0.029065246 0.022174092 -0.20102422 0.93090916 0.30495462 0
-0.007577586 -0.02891938 0.022579856 0.082650021 0.94259584 0.32354593 0
-0.0036016305 -0.029445803 0.021604067 0.31695133 0.89925396 0.30146986 0
-0.01047252 -0.060108401 0.025150962 -0.13148433 -0.85691214 0.49841091 0
-0.0085315239 -0.06012271 0.025245039 0.021576377 -0.87377715 0.4858475 0
-0.020251123 -0.055215809 0.025440557 -0.65444881 -0.57872629 0.48659301 0
-0.017060542 -0.056556329 0.026854197 -0.43312865 -0.66987073 0.60305285 0
-0.01247974 -0.05787389 0.02764984 -0.21533598 -0.7495206 0.62597871 0
-0.0073793093 -0.058140121 0.027734568 0.11229796 -0.7629087 0.63667858 0
-0.0026606927 -0.057085365 0.027153609 0.37321132 -0.69460791 0.61500663 0
0.00091678766 -0.055860482 0.025804577 0.59712338 -0.60651535 0.52495974 0
-0.021326208 -0.052091531 0.026773309 -0.71783924 -0.40964261 0.56293839 0
-0.018279908 -0.05329204 0.028789483 -0.49999741 -0.47024417 0.72723651 0
-0.014871242 -0.054759279 0.029981514 -0.38418022 -0.35247996 0.85332495 0
-0.001247552 -0.053822115 0.029282374 0.46652672 -0.52720565 0.71021616 0
0.0023370269 -0.052311193 0.027352761 0.64719367 -0.42899668 0.63016045 0
0.0051295958 -0.05048012 0.025236266 0.86084753 -0.27222461 0.42992485 0
-0.02225879 -0.047483955 0.027644007 -0.76570779 -0.14735566 0.62608123 0
-0.019749053 -0.049449906 0.029802153 -0.59094083 -0.30127037 0.7483483 0
0.0034615432 -0.047633424 0.028302247 0.70754087 -0.17198184 0.68542558 0
0.0055374363 -0.047068071 0.025897088 0.84079629 -0.1338869 0.52453411 0
-0.022243809 -0.042464104 0.027596442 -0.77737206 0.16241726 0.60771149 0
-0.019774292 -0.040594742 0.029819801 -0.62803012 0.27991053 0.72610486 0
0.0034154435 -0.042295687 0.028303197 0.72446173 0.16821495 0.66847509 0
0.0055224374 -0.042796638 0.025799019 0.83831447 0.16252263 0.52039903 0
-0.02135168 -0.037985627 0.026630197 -0.72312969 0.40916348 0.55647886 0
-0.018412659 -0.036721241 0.028725659 -0.54388136 0.49064478 0.68077958 0
-0.014737781 -0.03509967 0.02990366 -0.33840242 0.38604853 0.85816681 0
-0.0010955266 -0.036041375 0.029229024 0.43384063 0.56813014 0.69929278 0
0.00226637 -0.037641961 0.027397683 0.67061502 0.42266232 0.60961628 0
0.0051359078 -0.039656397 0.025248671 0.85005844 0.27667055 0.44816756 0
-0.020168496 -0.034883965 0.025226153 -0.58302641 0.65411037 0.48189184 0
-0.01692857 -0.033467535 0.026864685 -0.47333017 0.67816675 0.56218183 0
-0.012505631 -0.032053903 0.0275752 -0.21357456 0.76691449 0.60516787 0
-0.0074956282 -0.031819362 0.027771663 0.12248155 0.77293116 0.62255579 0
-0.002640351 -0.033015545 0.027284971 0.38628554 0.70530862 0.59440994 0
0.00088292948 -0.03423474 0.025948942 0.56918311 0.66843766 0.478771 0
-0.010695202 -0.0299388 0.02510773 -0.14064528 0.91622704 0.37516242 0
-0.0081254244 -0.029881163 0.025207486 0.0099574253 0.88660198 0.4624261 0
-0.011572755 -0.055447452 0.030366817 -0.1649361 -0.57574654 0.80081969 0
-0.0079841353 -0.055517215 0.030432938 0.082556963 -0.58223987 0.80881453 0
-0.0047048191 -0.055128809 0.030136043 0.20017998 -0.55984855 0.80405074 0
-0.01651152 -0.051680207 0.030837595 -0.43722162 -0.40322262 0.80389601 0
-0.012449828 -0.052681573 0.0317108 -0.18201192 -0.43290085 0.8828752 0
-0.0074806348 -0.052591592 0.032048047 0.080849431 -0.43713689 0.89575374 0
-0.0029666261 -0.052171275 0.03109031 0.35338983 -0.40910837 0.84127641 0
0.00027056012 -0.050536107 0.030236177 0.56536824 -0.23861147 0.78957164 0
-0.020151429 -0.046283472 0.030162526 -0.67324507 -0.045930006 0.73799151 0
-0.017629143 -0.047502812 0.03156507 -0.47751045 -0.16720371 0.86256993 0
-0.012593798 -0.047456075 0.033442132 -0.19597062 -0.16629128 0.96640718 0
-0.0075129382 -0.047543537 0.033693764 0.10022117 -0.16401769 0.9813531 0
-0.002447854 -0.047574759 0.032363459 0.38719192 -0.14873452 0.90992332 0
0.00084743765 -0.047236685 0.030661922 0.56390822 -0.13047981 0.81546462 0
-0.020210488 -0.043804422 0.030142043 -0.66709763 0.048885658 0.74336463 0
-0.017504493 -0.042570982 0.031674668 -0.47445232 0.1487004 0.86763084 0
-0.012633815 -0.042428471 0.033467598 -0.19863926 0.14656994 0.96905094 0
-0.0075764582 -0.042535108 0.033785485 0.091883324 0.12893158 0.98738748 0
-0.0024419506 -0.042417124 0.032356925 0.39922556 0.14975254 0.9045403 0
0.0009305579 -0.042551421 0.030622507 0.55511874 0.12198025 0.82277828 0
-0.016605096 -0.038259037 0.03088109 -0.4493168 0.37494376 0.81088328 0
-0.012581755 -0.037467062 0.031911537 -0.20353648 0.43246886 0.87837553 0
-0.0074705202 -0.037452828 0.032196507 0.097948492 0.43318295 0.89596796 0
-0.0028125513 -0.037934545 0.031193834 0.37128153 0.37822682 0.84799445 0
0.00043362152 -0.039592978 0.030251568 0.54205501 0.34198391 0.76760894 0
-0.011580761 -0.034509145 0.030419989 -0.14207262 0.6056844 0.78291875 0
-0.0078314189 -0.034410264 0.030486114 0.084270231 0.61432678 0.78453881 0
-0.004689218 -0.034696024 0.030225981 0.18428957 0.60582304 0.77396107 0
