# .PCD v0.7 - Point Cloud Data file format
VERSION 0.7
FIELDS x y z normal_x normal_y normal_z curvature
SIZE 4 4 4 4 4 4 4
TYPE F F F F F F F
COUNT 1 1 1 1 1 1 1
WIDTH 636
HEIGHT 1
VIEWPOINT 0 0 0 1 0 0 0
POINTS 636
DATA ascii
-0.022304032 -0.04237486 0.0068180612 0.70005566 -0.042876177 0.71279985 0
-0.01736542 -0.042254884 0.0069258921 -0.21408939 -0.29838219 0.93012571 0
-0.012271311 -0.042397738 0.0068579572 -0.46753943 -0.52293748 0.71270138 0
-0.0078423237 -0.042988889 0.0077445852 0.70687157 0.39062616 -0.58969802 0
-0.045851476 -0.038809109 0.008178656 -0.68437535 0.66313171 -0.30312803 0
-0.042539597 -0.037743818 0.007659337 -0.16687623 0.49076468 -0.85516214 0
-0.037531372 -0.037219532 0.0069130789 0.22567786 -0.39873436 0.88886476 0
-0.032351747 -0.037596881 0.0068678944 0.16047278 -0.35728437 0.92010677 0
-0.027389193 -0.037693344 0.0068022474 -0.057709899 -0.57716006 0.81458932 0
-0.022518139 -0.037838086 0.0068376684 -0.10435722 -0.46237406 0.88052237 0
-0.017430155 -0.03719547 0.0069971643 -0.30412552 -0.46291956 0.83259422 0
-0.012770165 -0.037824824 0.007668471 0.33308068 0.50958198 -0.79333693 0
-0.0091843577 -0.03921406 0.0085654436 0.72732145 0.65014476 -0.21980762 0
-0.040695556 -0.034511495 0.0083651328 -0.4730151 0.84762746 -0.24038395 0
-0.036993753 -0.033692189 0.0081254607 -0.28633076 0.4659895 -0.83717889 0
-0.032426894 -0.032972891 0.0077023245 -0.041186869 0.76237208 -0.64582711 0
-0.02741986 -0.032605715 0.0074847243 -0.081711009 0.77468908 -0.6270408 0
-0.022752417 -0.032963805 0.0077291247 0.26200241 0.79252738 -0.550686 0
-0.01804929 -0.03376003 0.008076055 0.28518352 0.63338608 -0.71936947 0
-0.014438759 -0.034651786 0.0090957405 0.53851962 0.83464199 -0.11562541 0
-0.035646468 -0.080221884 0.012594131 -0.30026031 -0.95361137 -0.021657228 0
-0.032534789 -0.080980435 0.012371143 -0.19479387 -0.98062438 -0.020763285 0
-0.0274645 -0.081463978 0.012570905 0.014512795 -0.99973941 -0.017620124 0
-0.022376591 -0.080843203 0.012447872 0.22640416 -0.97382224 -0.020285489 0
-0.019624257 -0.080109499 0.012534154 0.30546248 -0.95199728 -0.019844569 0
-0.041894741 -0.07639686 0.012406901 -0.63020629 -0.77574897 -0.032456681 0
-0.037741777 -0.078280464 0.012473394 0.28435564 0.9564997 0.065192886 0
-0.032607298 -0.079217181 0.012675117 0.24619132 0.96884131 -0.027137376 0
-0.027573986 -0.079716228 0.01260692 -0.065249927 0.99785554 -0.0051723542 0
-0.022455718 -0.078966819 0.012343725 -0.22966217 0.9727143 0.032897387 0
-0.017182006 -0.07787203 0.012530203 -0.52417886 0.84868908 -0.070450902 0
-0.013308695 -0.076396875 0.012403698 0.59908545 -0.79885012 -0.05417664 0
-0.046754483 -0.072043575 0.012552244 -0.73782223 -0.67415637 -0.03363828 0
-0.043772798 -0.073904097 0.012540975 0.67071348 0.74104583 -0.031536147 0
-0.011673068 -0.073573381 0.012347186 -0.6977607 0.71478903 -0.046974506 0
-0.0084904274 -0.07172884 0.012503399 0.7444157 -0.6671055 -0.028557977 0
-0.050765034 -0.066736713 0.012575045 -0.90874767 -0.41706648 -0.015272111 0
-0.048632186 -0.068115652 0.012479207 0.88048524 0.47351086 0.023089323 0
-0.0068814573 -0.067763977 0.01258697 -0.8807115 0.47293332 0.026102696 0
-0.0044917259 -0.066085309 0.013065221 0.92141366 -0.38828909 -0.015116009 0
-0.051549345 -0.062244099 0.012486451 -0.95952177 -0.24834672 -0.13282253 0
-0.049810886 -0.064527698 0.012767444 0.94248384 0.33418259 0.0067971563 0
-0.0055326293 -0.062648021 0.012794366 -0.97336251 0.21737252 -0.072901599 0
-0.0034724914 -0.062409341 0.012176918 0.96516639 -0.25946489 -0.033642508 0
-0.052206237 -0.057525169 0.0125602 -0.70497561 0.13333441 -0.69658548 0
-0.005321729 -0.057287149 0.013181129 -0.98258984 0.01294566 -0.18533635 0
-0.0031848359 -0.05753592 0.011982756 0.985062 -0.067092307 -0.15859215 0
-0.051856373 -0.052430149 0.012620186 0.91934448 -0.36018643 -0.15833953 0
-0.0052744276 -0.051698525 0.013007793 -0.98190159 -0.17712513 -0.067052178 0
-0.0034498358 -0.052729268 0.012361602 0.95182472 0.25031 -0.1771289 0
-0.051200997 -0.047783561 0.012479717 -0.93478239 0.35499036 -0.012794506 0
-0.049332559 -0.046788868 0.012780091 0.91543537 -0.40119407 0.031959917 0
-0.010561816 -0.045158602 0.014386653 -0.67216182 -0.68275392 -0.28643614 0
-0.0073615685 -0.047516894 0.012567792 -0.7585153 -0.62966198 -0.16786967 0
-0.0040425989 -0.047323242 0.012421875 0.93645871 0.35054466 -0.012786116 0
-0.050266232 -0.044398889 0.013313808 -0.88536072 0.4648349 -0.0080549577 0
-0.047908686 -0.042579483 0.012427342 -0.96312237 -0.2498385 -0.099880107 0
-0.043811232 -0.041088153 0.012535363 0.71291929 -0.68151939 -0.16515838 0
-0.015477512 -0.040629108 0.01426003 -0.62029439 -0.68982697 -0.37332755 0
-0.012340599 -0.042277846 0.012733607 -0.5761438 -0.65587318 -0.48773825 0
-0.0070156143 -0.04258129 0.011991568 0.82362902 0.54106396 -0.16995575 0
-0.0049905041 -0.044938877 0.013935431 0.90815669 0.41854429 -0.0084949629 0
-0.046149921 -0.038674772 0.012541841 -0.71859711 0.69524419 -0.015926605 0
-0.042627025 -0.037044439 0.012573694 0.048476372 0.80993867 -0.58450776 0
-0.037660401 -0.035986517 0.012515111 0.12490919 -0.98662621 -0.10472007 0
-0.032742783 -0.036023837 0.012929744 0.10070468 -0.89972991 -0.42466992 0
-0.027390828 -0.035968423 0.013433309 -0.043240495 -0.85660547 -0.51415694 0
-0.022195796 -0.036115803 0.013395622 -0.078507476 -0.8217411 -0.56442726 0
-0.017313145 -0.037590444 0.012534304 -0.51290804 -0.65763283 -0.55176491 0
-0.012403136 -0.036743343 0.011919317 0.5745129 0.80234236 -0.1618076 0
-0.0091622779 -0.038934503 0.012314095 0.73710984 0.67565942 -0.012383565 0
-0.041041743 -0.034459133 0.012559138 -0.52745992 0.84928828 -0.022258015 0
-0.037688777 -0.032779906 0.012544391 -0.39128071 0.92009902 -0.017809767 0
-0.032290913 -0.031983983 0.011959047 -0.11796748 0.94302684 -0.31110123 0
-0.027637629 -0.032142054 0.011873787 -0.075902849 0.76589471 -0.63847011 0
-0.022381123 -0.032353189 0.012139834 0.31248516 0.84747756 -0.42910922 0
-0.017654238 -0.033015687 0.01240915 0.39923736 0.9159838 -0.039788853 0
-0.014344062 -0.034599114 0.012363019 0.5336473 0.84566557 -0.0083801243 0
-0.035908002 -0.080235653 0.017525621 -0.32066247 -0.94703186 -0.017498259 0
-0.032393783 -0.081113689 0.01755495 -0.17396294 -0.98458093 -0.018366296 0
-0.027649414 -0.081550114 0.017411225 -0.0048663318 -0.99983388 -0.017562978 0
-0.022538718 -0.080981746 0.01751619 0.22240922 -0.97478658 -0.018036461 0
-0.019516563 -0.080169842 0.01794287 0.34282532 -0.93914765 -0.021738488 0
-0.041825414 -0.076468386 0.017351462 -0.60143822 -0.79852653 -0.025051104 0
-0.038023036 -0.078253463 0.01769861 0.39647323 0.91795105 0.013223465 0
-0.032573208 -0.079171032 0.017539142 0.22319952 0.97456044 0.020346045 0
-0.027476886 -0.079749361 0.017671719 -0.021758445 0.99958998 0.018611047 0
-0.022534987 -0.079136677 0.01767936 -0.2169793 0.97596979 0.020074647 0
-0.017176306 -0.078063942 0.017530821 -0.98050117 0.037848625 -0.19283369 0
-0.013167148 -0.076434709 0.017661814 0.58717489 -0.80924386 -0.01871188 0
-0.046812262 -0.072003782 0.017339071 -0.75376755 -0.65705109 0.010882357 0
-0.043420978 -0.073975772 0.017599659 0.63252211 0.77445948 0.011330449 0
-0.011713832 -0.073519953 0.017410442 -0.64004546 0.7678026 0.028653692 0
-0.0084888088 -0.071866073 0.017448194 0.76136291 -0.64813983 -0.015537278 0
-0.050833542 -0.066742897 0.017242288 -0.90915757 -0.41616237 -0.015537119 0
-0.048827417 -0.067949243 0.01734329 0.88025045 0.4737702 0.026478276 0
-0.0067443973 -0.06783583 0.017700758 -0.89091283 0.45402122 0.011790135 0
-0.0044526616 -0.066167817 0.017542981 0.92302793 -0.38426673 -0.018936772 0
-0.051565237 -0.06240185 0.017492102 -0.86404622 -0.49999598 -0.058549363 0
-0.049839254 -0.064598076 0.016485108 0.97106719 0.2264269 0.075890392 0
-0.0056091961 -0.062536396 0.017347571 -0.99383193 0.10111392 0.04554113 0
-0.003231863 -0.062479816 0.017445374 0.96627742 -0.25690606 -0.017530922 0
-0.051821955 -0.057416789 0.01771275 0.35507357 0.4008891 -0.84451801 0
-0.0058587086 -0.057453644 0.017495243 -0.99756813 0.052257039 -0.046119742 0
-0.0024802249 -0.057521939 0.017486939 0.99837518 -0.054167438 -0.017685961 0
-0.052018795 -0.052464735 0.017716743 -0.82816815 0.55618042 -0.069288082 0
-0.0051992633 -0.051857445 0.017150709 -0.99688947 -0.07840509 0.0080017447 0
-0.0034723345 -0.052708864 0.017635394 0.96051788 0.278115 0.0075798742 0
-0.051330715 -0.047921173 0.017389413 -0.93694413 0.34908319 -0.016627718 0
-0.049269699 -0.046544794 0.017291497 0.88082319 -0.47342473 0.0044247527 0
-0.010712093 -0.04548908 0.017488493 -0.47740555 -0.87861335 -0.011074818 0
-0.0072639026 -0.047435477 0.017625136 -0.67398894 -0.72428441 0.14543399 0
-0.0038508892 -0.047655869 0.017443012 0.94177419 0.33592919 -0.014594194 0
-0.05032023 -0.044372004 0.017396815 -0.88686192 0.4615522 -0.021104895 0
-0.047889449 -0.04259824 0.017510625 -0.58868581 -0.80554324 0.067447051 0
-0.043720711 -0.041366294 0.017471969 0.64527065 -0.76351672 0.025846077 0
-0.016245645 -0.041187178 0.01704463 -0.64483589 -0.72518843 -0.24143015 0
-0.013256081 -0.04370841 0.01740931 -0.59341532 -0.78827351 -0.162736 0
-0.0063936203 -0.042500697 0.017359918 0.8409633 0.54095942 -0.011981316 0
-0.0049617444 -0.044935919 0.016657328 0.90619802 0.4226543 -0.012982042 0
-0.046217222 -0.038653653 0.017226575 -0.72192961 0.69182432 -0.014026116 0
-0.042546168 -0.037135743 0.017465472 0.79107058 0.60400778 0.096859746 0
-0.037528429 -0.035802674 0.01748308 -0.065527648 -0.99672729 0.047338117 0
-0.032542255 -0.037297651 0.017492658 -0.15443228 -0.97499031 -0.15982668 0
-0.027541371 -0.037628938 0.017642325 -0.030998606 -0.9721387 -0.23234786 0
-0.022528159 -0.037762709 0.017543877 -0.091485761 -0.9713434 -0.21936792 0
-0.018859997 -0.038972989 0.017394518 -0.59947968 -0.77235514 -0.20998034 0
-0.011804931 -0.036400702 0.017177943 0.63065612 0.77595067 -0.013168422 0
-0.009011846 -0.039019987 0.01739426 0.73743486 0.67532504 -0.011222191 0
-0.041046031 -0.034415238 0.017268626 -0.52220374 0.85281283 -0.0036722606 0
-0.037324738 -0.032575753 0.017457346 -0.37941512 0.9251861 -0.0086482763 0
-0.032388095 -0.031153746 0.017431209 -0.1782501 0.98392701 -0.010692747 0
-0.02744687 -0.030741161 0.017596509 0.010410534 0.99987906 -0.011552797 0
-0.022198053 -0.031355333 0.017813221 0.21576765 0.97635287 -0.013394522 0
-0.017443497 -0.032917548 0.017577413 0.40603441 0.9137702 -0.012646847 0
-0.01432294 -0.034550577 0.017501701 0.54582244 0.83779758 -0.013156384 0
-0.035919137 -0.080324583 0.022333991 -0.33285192 -0.94284987 -0.015613889 0
-0.032234628 -0.081239194 0.022531301 -0.18075886 -0.9833923 -0.016306689 0
-0.027554709 -0.081666365 0.022825934 -0.0020023286 -0.99982703 -0.018487506 0
-0.022669787 -0.081101954 0.022696666 0.21292651 -0.97690862 -0.01765858 0
-0.019357402 -0.080213115 0.022452513 0.328401 -0.94428271 -0.021976979 0
-0.04500911 -0.07501068 0.024424739 -0.65760124 -0.75283748 -0.028221583 0
-0.04210829 -0.07649716 0.0225535 -0.59256524 -0.8051948 -0.022975255 0
-0.037851401 -0.078432776 0.022399334 0.37096977 0.92771322 0.041588459 0
-0.032564148 -0.07940425 0.022629967 0.20581391 0.97804052 0.032821406 0
-0.027438518 -0.079881378 0.022613317 -0.027094245 0.99930495 0.02560164 0
-0.022388818 -0.079220906 0.022524156 -0.22909021 0.97317564 0.021139087 0
-0.01723435 -0.078022093 0.02240172 -0.71993327 0.69247615 -0.046615094 0
-0.01306549 -0.076581411 0.022477373 0.58863682 -0.80797404 -0.026166977 0
-0.046818446 -0.07203456 0.022534227 -0.74554086 -0.66585737 -0.0283339 0
-0.043454915 -0.073915005 0.022568686 0.63326794 0.77388406 0.0086635146 0
-0.011609868 -0.073503062 0.022384807 -0.66228145 0.74925309 0.0017577935 0
-0.0083887372 -0.071807355 0.022405047 0.77473336 -0.63212121 -0.014524268 0
-0.050914258 -0.066763707 0.022555014 -0.90652984 -0.42174003 -0.018412972 0
-0.048770677 -0.068120196 0.022575567 0.86781847 0.49663207 0.015736975 0
-0.0067278864 -0.068103746 0.022412958 -0.87694836 0.48043022 0.01217987 0
-0.0044525755 -0.066393331 0.022368094 0.91646111 -0.39968792 -0.018671082 0
-0.051499862 -0.062440731 0.022622302 0.019365137 -0.96684247 0.25463831 0
-0.049966596 -0.064855956 0.022601953 0.92307341 0.38435194 0.01446101 0
-0.005372799 -0.062778674 0.022180796 -0.98029292 0.19121099 0.049639713 0
-0.0034118351 -0.062231213 0.022786686 0.95919234 -0.28266811 -0.0069852262 0
-0.05178564 -0.057626162 0.022459388 0.066079207 -0.2868188 0.95570314 0
-0.005643494 -0.057441119 0.022238754 -0.99667615 -0.059450809 0.055697847 0
-0.0024797965 -0.057819828 0.022775868 0.99736744 -0.068974778 -0.022376193 0
-0.052014813 -0.05237639 0.022376662 0.73296332 0.67475438 0.086436167 0
-0.0053201043 -0.052494224 0.022872433 -0.99334651 0.090563893 -0.07114011 0
-0.0032993134 -0.052696183 0.022244399 0.95784491 0.2859678 -0.027483959 0
-0.051349841 -0.048046563 0.022609511 -0.94088948 0.33654797 -0.038242262 0
-0.049387682 -0.046544328 0.022486219 0.89374524 -0.44852045 0.006978218 0
-0.010752786 -0.045186542 0.021032194 -0.2172953 -0.96420598 0.15195246 0
-0.0067550237 -0.047107883 0.022338206 -0.8028717 -0.58735764 0.10201997 0
-0.0038921649 -0.047340449 0.022512954 0.93857962 0.34465426 -0.016785301 0
-0.050408155 -0.044350676 0.022266442 -0.89252973 0.4507724 -0.013958534 0
-0.047722198 -0.04243556 0.022429209 0.19040981 -0.97810256 0.084021002 0
-0.043568224 -0.041088372 0.022717301 0.61351299 -0.78967971 -0.0027921554 0
-0.016873801 -0.041437097 0.022573 -0.63436222 -0.77293098 -0.012740491 0
-0.012788268 -0.044098355 0.022500286 -0.40478334 -0.91100752 0.078839384 0
-0.0069258879 -0.042724818 0.022869905 0.91810495 0.39247566 0.055191468 0
-0.004892061 -0.044869486 0.022868693 0.90563685 0.42379346 -0.014862154 0
-0.046403594 -0.038721927 0.022610361 -0.7233634 0.69025153 -0.017268453 0
-0.042405915 -0.037018567 0.022570269 0.99219775 0.11402372 0.050419878 0
-0.037483715 -0.035795931 0.022745537 -0.17522626 -0.98199028 -0.070646122 0
-0.032605231 -0.037713863 0.022559002 -0.18665189 -0.98238242 0.0092682736 0
-0.027492436 -0.038090993 0.022249831 -0.023585148 -0.99937171 0.02645714 0
-0.022402832 -0.038316634 0.022526091 -0.13107219 -0.99120295 -0.018350914 0
-0.01925095 -0.03937576 0.022190565 -0.61927336 -0.78275615 -0.061588727 0
-0.011709442 -0.03638339 0.02238583 0.63702995 0.77071416 -0.0138764 0
-0.0090262331 -0.038922187 0.022589479 0.7385025 0.67413807 -0.012324801 0
-0.041130401 -0.034385756 0.022415163 -0.51999348 0.85402155 -0.015937228 0
-0.037722137 -0.032745786 0.022398323 -0.39806172 0.91726214 -0.013307884 0
-0.032534257 -0.031105492 0.022395233 -0.17902802 0.98369938 -0.016868128 0
-0.027796775 -0.030675616 0.022456361 0.0042738854 0.99988401 -0.014615995 0
-0.022680769 -0.031182364 0.02251951 0.19996515 0.97967845 -0.015624418 0
-0.017520096 -0.032818332 0.022285949 0.40956175 0.91219527 -0.012615006 0
-0.014286614 -0.034496427 0.022548094 0.53177327 0.84680974 -0.011422032 0
-0.035956554 -0.080400072 0.02754298 -0.32087034 -0.94698727 -0.016037686 0
-0.032725416 -0.081232168 0.027486024 -0.1971924 -0.98018986 -0.01852084 0
-0.027498927 -0.081659742 0.027279859 0.010464336 -0.99971318 -0.021540599 0
-0.022727463 -0.081212625 0.027501889 0.20525616 -0.97837955 -0.02536374 0
-0.019096076 -0.080233097 0.027832411 0.33368489 -0.94252449 -0.017380714 0
-0.045013495 -0.075094745 0.028508348 -0.65118659 -0.75844169 -0.026874021 0
-0.042073637 -0.076520689 0.027619556 -0.59759241 -0.8017956 -0.0026522442 0
-0.038066454 -0.078377135 0.02749902 0.44680697 0.89396703 0.034445088 0
-0.032560404 -0.079521261 0.027544916 0.18633002 0.98237312 0.014970829 0
-0.027660992 -0.079920679 0.027611278 -0.0066470522 0.99997365 -0.0029166413 0
-0.022507235 -0.079345688 0.027599365 -0.22195341 0.97481471 0.021749642 0
-0.01703351 -0.077951722 0.02762204 -0.60247719 0.79422528 0.078913555 0
-0.013095213 -0.076542504 0.027362576 0.59260118 -0.80513531 -0.024102805 0
-0.04685317 -0.072127894 0.027502006 -0.71723044 -0.69682074 -0.0046323487 0
-0.043612711 -0.073895894 0.027090508 0.62976825 0.77572829 0.040468253 0
-0.011721097 -0.073527507 0.027281661 -0.6176157 0.7859332 -0.029323656 0
-0.0086301211 -0.07206367 0.027381504 0.77480954 -0.63188958 -0.019640017 0
-0.050938636 -0.066912554 0.027535778 -0.90778613 -0.4190492 -0.017948011 0
-0.049105003 -0.067859687 0.027178541 0.89903682 0.4377532 0.010241931 0
-0.0067532654 -0.068110272 0.027367812 -0.87698925 0.47945321 0.031852834 0
-0.0043847598 -0.066486776 0.027524713 0.91342962 -0.40646261 -0.020841874 0
-0.051644903 -0.062382903 0.027526719 -0.55327463 -0.82393736 -0.12253308 0
-0.049997561 -0.064934418 0.026324201 0.91890192 0.39399517 0.019673448 0
-0.0053473539 -0.063549727 0.027375527 -0.96232939 0.27131382 0.017633291 0
-0.0037312966 -0.062222444 0.02758801 0.84568483 -0.53327692 -0.020806534 0
-0.051942974 -0.057462841 0.027489157 -0.44866687 -0.22529359 -0.86483574 0
-0.049955867 -0.057273034 0.029839817 0.99144387 0.042555619 -0.12340178 0
-0.0059337751 -0.057436004 0.027753832 -0.97840238 -0.20655444 0.0080089374 0
-0.0023162193 -0.057551883 0.027501687 0.99816674 -0.058524903 -0.015424822 0
-0.052109774 -0.052450009 0.027280238 -0.025633315 0.88702142 -0.46101615 0
-0.0054518483 -0.052644331 0.027300315 -0.9694382 0.24381261 -0.027295817 0
-0.0031827318 -0.052368406 0.027331322 0.96924758 0.24194756 -0.044949763 0
-0.051377803 -0.047784876 0.027464306 -0.94440699 0.32837468 -0.016292473 0
-0.049218684 -0.04640625 0.027918287 0.84123433 -0.53892428 -0.043423574 0
-0.0061876024 -0.047373634 0.027434669 -0.89352149 -0.44805098 0.029490333 0
-0.0037134869 -0.047604293 0.027362347 0.94390011 0.32999936 -0.012369202 0
-0.050445728 -0.044275716 0.027697412 -0.88620996 0.46317354 -0.010111792 0
-0.047558092 -0.042418033 0.02732498 -0.17362435 -0.76292539 -0.62273544 0
-0.043482773 -0.041292708 0.027697163 0.62277228 -0.77877223 -0.075289287 0
-0.016519239 -0.041210655 0.027083818 -0.5663107 -0.79583323 0.21434003 0
-0.012778272 -0.043354798 0.027743883 -0.42088702 -0.88492167 0.19941837 0
-0.0070395111 -0.043152504 0.027125239 0.98732615 0.12058143 -0.10318545 0
-0.0048753321 -0.044717181 0.028270839 0.88961846 0.45655796 -0.01156682 0
-0.04634105 -0.03856089 0.027612275 -0.72247577 0.6912874 -0.012266285 0
-0.042617545 -0.036862671 0.027416324 0.4294883 0.88474554 -0.1810116 0
-0.037372202 -0.036105689 0.027632013 -0.19063079 -0.98066676 0.044187654 0
-0.032309171 -0.036930524 0.027902003 0.014159475 -0.94818759 0.31739539 0
-0.027460076 -0.037004892 0.027687974 -0.067005418 -0.92354447 0.37759233 0
-0.022524703 -0.037741102 0.027550666 -0.23223454 -0.92164099 0.31087765 0
-0.018993588 -0.039223108 0.027839202 -0.54216903 -0.79226136 0.27995491 0
-0.011818739 -0.036215905 0.02757334 0.62896293 0.77732372 -0.01316962 0
-0.0089972178 -0.038848642 0.028006669 0.73372108 0.67929423 -0.01458575 0
-0.041189332 -0.034349076 0.02744142 -0.52657342 0.85006303 -0.01064902 0
-0.037606817 -0.032543786 0.027468778 -0.38644522 0.92223257 -0.012131493 0
-0.03234211 -0.030991636 0.027560992 -0.16896223 0.98552191 -0.014080576 0
-0.027490331 -0.030613353 0.027378535 0.010373376 0.99986851 -0.012462544 0
-0.022718409 -0.031100214 0.02760274 0.19331832 0.98107392 -0.011051147 0
-0.01760613 -0.032721695 0.027399719 0.39922574 0.91677868 -0.011641753 0
-0.014252192 -0.034459248 0.027077567 0.52670586 0.84989643 -0.01602811 0
-0.036293101 -0.080369785 0.032225415 -0.33714789 -0.94123173 -0.020354386 0
-0.032375958 -0.081272431 0.032614384 -0.19573112 -0.98045862 -0.019751512 0
-0.027400602 -0.08103697 0.032872237 0.017549681 -0.96254736 0.27054498 0
-0.022747496 -0.081306532 0.032470535 0.20727773 -0.97798413 -0.024145966 0
-0.019233113 -0.080383211 0.032509785 0.33693317 -0.94125932 -0.022514781 0
-0.045136392 -0.075111613 0.032923616 -0.71187299 -0.70200473 -0.020645402 0
-0.042090628 -0.076634049 0.032476835 -0.58050889 -0.81415647 -0.012598176 0
-0.038005684 -0.078507714 0.032483973 0.38416752 0.9223842 0.040281374 0
-0.032593258 -0.079649985 0.032551356 0.19526082 0.9802354 0.031809185 0
-0.027459851 -0.079929739 0.030947046 -0.0038452416 0.99880266 0.048769873 0
-0.022290228 -0.079399258 0.0323072 -0.23729463 0.9711861 0.022109851 0
-0.017179832 -0.078227125 0.032399002 -0.49459201 0.86679256 0.06363482 0
-0.013081411 -0.076636218 0.032516465 0.54222679 -0.84023196 -0.00067493087 0
-0.046821214 -0.072325438 0.032439373 -0.69511628 -0.7187109 -0.016371451 0
-0.043740086 -0.073995128 0.032363329 0.61863887 0.78519809 0.027382491 0
-0.012007224 -0.073563606 0.032647453 -0.63167477 0.77184743 0.07237789 0
-0.0083539672 -0.071931988 0.0323801 0.78249776 -0.622554 -0.011121294 0
-0.050965283 -0.066822343 0.032517802 -0.91014403 -0.41385019 -0.019128744 0
-0.048948415 -0.067975305 0.032603662 0.8797937 0.47503245 0.017528482 0
-0.0066031115 -0.068028331 0.032286931 -0.87890804 0.47622922 0.026950024 0
-0.0042662388 -0.066425055 0.032318976 0.91933548 -0.39305994 -0.018061854 0
-0.051650386 -0.062625811 0.032629501 -0.66987741 -0.74242914 -0.0079476675 0
-0.0053385105 -0.064178891 0.032630038 -0.9392066 0.34182969 0.032301087 0
-0.0036097327 -0.062115323 0.032410804 0.89584178 -0.44291258 0.035998728 0
-0.051895581 -0.057592589 0.032475166 -0.78062236 -0.51646668 0.35198149 0
-0.049929887 -0.057205323 0.031365048 0.99975717 0.013546437 0.01738248 0
-0.0055872356 -0.056931838 0.03168565 -0.95854461 -0.18157679 0.2195954 0
-0.0029897091 -0.057878975 0.032646239 0.94124156 -0.27289551 0.19897819 0
-0.052030846 -0.052577734 0.032579988 -0.01989482 0.99957544 -0.021287806 0
-0.0054642959 -0.053918064 0.032109931 -0.94023746 0.28106776 0.1922358 0
-0.0032096908 -0.052149631 0.032496318 0.96725863 0.24928284 0.047632147 0
-0.051406838 -0.047787182 0.032574587 -0.93117726 0.36447996 0.0079598427 0
-0.049024951 -0.045874584 0.032294858 0.74700147 -0.64881432 0.14501306 0
-0.005971136 -0.047405306 0.032361772 -0.89747959 -0.43696195 0.059956487 0
-0.0036760655 -0.047811605 0.032538064 0.94613534 0.32333076 -0.016887082 0
-0.050476 -0.044201959 0.032337483 -0.88051355 0.47370696 -0.017252266 0
-0.047818404 -0.042405516 0.032685418 -0.70497781 -0.1158094 0.69971031 0
-0.043714121 -0.041017879 0.032147828 0.67437488 -0.67248589 0.30492839 0
-0.015353036 -0.040538624 0.030726356 -0.52456528 -0.72823906 0.44102049 0
-0.012184292 -0.041773506 0.031850871 -0.47492439 -0.65350151 0.58939171 0
-0.0072335224 -0.042793449 0.032594707 0.81920505 0.16970073 0.54781812 0
-0.0048092115 -0.044691477 0.032587089 0.89010274 0.45541182 -0.017808847 0
-0.046351459 -0.038471919 0.032355934 -0.72245872 0.69130224 -0.012434255 0
-0.042464193 -0.037065566 0.032572914 0.90007043 -0.11834894 0.4193646 0
-0.037928738 -0.035435621 0.032084081 0.15070106 -0.96645236 0.20798843 0
-0.033017043 -0.035726428 0.030994028 0.16004877 -0.86670798 0.47244227 0
-0.027010622 -0.035600506 0.030643899 -0.11727927 -0.8260569 0.55124909 0
-0.022410301 -0.035832886 0.030855227 0.036034327 -0.67996395 0.73235959 0
-0.017600279 -0.03735185 0.032392867 -0.64185655 -0.57246655 0.51019824 0
-0.012223095 -0.037309088 0.033170998 0.66598189 0.47500649 0.57518435 0
-0.0088410182 -0.03890473 0.032784481 0.73569936 0.67701608 -0.019889172 0
-0.041356511 -0.034379236 0.03261641 -0.53154969 0.84695095 -0.011364478 0
-0.037296582 -0.033047128 0.032778103 -0.50531465 0.85398793 0.12394276 0
-0.032420028 -0.032153942 0.032788407 0.035618145 0.75197417 0.65822965 0
-0.027522625 -0.032005113 0.03268116 -0.12903573 0.40012446 0.90733141 0
-0.022442486 -0.032307878 0.032848224 0.36185095 0.7338416 0.5749265 0
-0.017781042 -0.033063285 0.032750633 0.34188962 0.93911475 0.034275234 0
-0.014057457 -0.034490347 0.032118116 0.52657312 0.84996665 -0.016654573 0
-0.036315281 -0.080482483 0.037414733 -0.33970082 -0.94025511 -0.022884997 0
-0.03204409 -0.081172138 0.037568294 -0.22250937 -0.9746297 -0.024216468 0
-0.027619215 -0.081076138 0.037378911 -0.199095 0.97962731 -0.026296021 0
-0.022760633 -0.081227608 0.037547041 0.22674602 -0.97383255 -0.015375891 0
-0.018970348 -0.080405019 0.037611615 0.34256473 -0.93926626 -0.020695437 0
-0.045176558 -0.075182326 0.037369974 -0.67135435 -0.74092335 -0.017772479 0
-0.042053364 -0.076773256 0.037492674 -0.56155688 -0.82737875 -0.0099104922 0
-0.0379568 -0.078630529 0.037528828 0.38078195 0.92425954 0.027374148 0
-0.033233929 -0.079663023 0.037837908 0.22753994 0.97362959 0.016456356 0
-0.022076074 -0.079502612 0.037543233 -0.24446239 0.96929967 0.02638617 0
-0.017015887 -0.078385308 0.037626814 -0.46491781 0.88504368 0.023433346 0
-0.013144579 -0.07654094 0.037527673 0.58598167 -0.80998242 0.023537664 0
-0.046975426 -0.07225816 0.037457068 -0.71836054 -0.69474876 -0.035807896 0
-0.043974675 -0.073986068 0.037216116 0.63479257 0.77195698 0.033478808 0
-0.011455156 -0.073742852 0.037491769 -0.66439706 0.74247575 0.085475624 0
-0.0082586072 -0.072096497 0.037571784 0.76419079 -0.64494079 -0.0079863444 0
-0.050958693 -0.066984802 0.037569132 -0.90596116 -0.42296547 -0.018289858 0
-0.048845269 -0.068266071 0.037521392 0.87064898 0.49109146 0.028274469 0
-0.0063768895 -0.067988716 0.037213434 -0.90655112 0.42097157 0.030789327 0
-0.0042034104 -0.06648732 0.037101969 0.91804028 -0.39597693 -0.020109775 0
-0.051867928 -0.062541716 0.037480991 -0.95960081 -0.22307079 0.17148072 0
-0.0052928301 -0.064283654 0.036848307 -0.94347084 0.33145496 0.00054539577 0
-0.0035775851 -0.062134828 0.037491426 0.95430791 -0.29615682 -0.039843816 0
-0.052390605 -0.05762472 0.0373687 0.14345777 -0.19487944 0.97027928 0
-0.0031244499 -0.057578631 0.037628267 -0.6460247 -0.1536625 0.74768984 0
-0.052300107 -0.052580491 0.037396811 0.25858679 0.51904345 0.81469434 0
-0.0032645762 -0.05259699 0.037519276 0.48205644 0.37920767 0.78982478 0
-0.051323518 -0.047903486 0.037393156 -0.92511606 0.36925879 0.088364325 0
-0.049517918 -0.045785204 0.037561662 0.8990739 -0.4370704 0.025210587 0
-0.0056370059 -0.047244612 0.037303291 -0.92467278 -0.37888661 0.037750624 0
-0.0038459953 -0.047909778 0.037625581 0.93839455 0.34554568 -0.003705082 0
-0.050558724 -0.044165924 0.037643775 -0.88421595 0.46675807 -0.017295271 0
-0.04802103 -0.042119712 0.03741521 0.77174896 -0.62352222 0.12499461 0
-0.010097863 -0.040135909 0.037479475 -0.86223096 -0.50481677 0.041446108 0
-0.0074886796 -0.042277016 0.037544359 -0.74914408 -0.65891463 0.067931503 0
-0.0047745146 -0.04459298 0.036988299 0.89206994 0.45159414 -0.016552366 0
-0.046208981 -0.038616683 0.037633855 -0.717884 0.69609648 -0.0096052298 0
-0.043021895 -0.03702062 0.037356868 0.60554409 -0.75399971 0.25456011 0
-0.039473183 -0.035219692 0.037336931 0.50044191 -0.86330694 0.065261081 0
-0.016094262 -0.035673801 0.037295993 -0.45230252 -0.84723359 0.27859956 0
-0.01214982 -0.037117597 0.037688877 -0.5113197 -0.82504976 0.24051009 0
-0.0089460677 -0.038657814 0.037538592 0.72875059 0.68464273 -0.013667979 0
-0.04109529 -0.034159094 0.037444718 -0.5206123 0.85364276 -0.01602605 0
-0.037239425 -0.033082217 0.037423387 -0.40560499 0.89966822 0.16149844 0
-0.032646973 -0.03187098 0.037438985 0.28858504 -0.89497089 0.34021419 0
-0.027435524 -0.031403165 0.037602834 0.20694283 -0.95752937 0.20077914 0
-0.022614574 -0.032003436 0.037564013 -0.40209195 -0.85553062 0.32617381 0
-0.017944185 -0.03308063 0.037689026 0.36399764 0.93054187 0.039968502 0
-0.014171654 -0.034317356 0.037621256 0.52516657 0.85084838 -0.016032409 0
-0.036518756 -0.080513634 0.042541131 -0.33986524 -0.9402734 -0.01942772 0
-0.032173015 -0.081235811 0.042444978 -0.22534353 -0.97400862 -0.022966489 0
-0.027480213 -0.0812141 0.042572062 -0.21679422 -0.96801907 -0.12625128 0
-0.022977997 -0.081141517 0.042672757 0.23983821 -0.97069144 -0.015354583 0
-0.018825848 -0.080437995 0.04245216 0.34998867 -0.93664658 -0.014183152 0
-0.045190446 -0.075297102 0.043157209 -0.68404591 -0.72916561 -0.019968029 0
-0.042117447 -0.076842278 0.042347793 -0.56089056 -0.82767934 -0.018675143 0
-0.038052816 -0.078635126 0.04245425 0.38126355 0.92446172 0.0029499365 0
-0.033385035 -0.079702936 0.04272582 0.2361867 0.97153956 0.018078184 0
-0.022033021 -0.079606414 0.042414553 -0.23860261 0.97097075 0.016867055 0
-0.017023798 -0.07841555 0.04246008 -0.41261563 0.91058731 0.024063192 0
-0.012972514 -0.076725192 0.042665597 0.59868675 -0.80096257 -0.0057421289 0
-0.047078535 -0.072188698 0.042545702 -0.76840496 -0.63993657 -0.0059249131 0
-0.044060785 -0.074060611 0.042031992 0.66034073 0.75024575 0.032884356 0
-0.011216915 -0.073772371 0.042267658 -0.68859947 0.7249133 0.018207103 0
-0.0082478886 -0.072153956 0.042300273 0.75205684 -0.65881574 -0.019294715 0
-0.050952639 -0.066963769 0.042291526 -0.90078449 -0.43389839 -0.017876115 0
-0.049111076 -0.068059042 0.042407572 0.87639821 0.48148242 0.010040648 0
-0.0063546104 -0.068119317 0.04244994 -0.89072347 0.45439368 0.011744081 0
-0.0042192042 -0.066754051 0.042380858 0.91670012 -0.39923298 -0.016552942 0
-0.051998224 -0.062520489 0.042543914 -0.99783969 -0.065059267 0.009124632 0
-0.005185239 -0.064384796 0.042439964 -0.94003516 0.34079713 0.013826163 0
-0.0035031112 -0.062359627 0.042659685 0.97123659 -0.23810095 0.0027276874 0
-0.052799601 -0.05739307 0.042528 -0.99639225 -0.0070078904 0.08457765 0
-0.0029759922 -0.05756693 0.042438194 -0.98927909 0.089079678 0.11572214 0
-0.052560303 -0.052468535 0.042641118 -0.99447644 0.10494947 -0.0014702149 0
-0.0032941715 -0.052565962 0.042369928 -0.98478687 -0.17375262 0.002195074 0
-0.051479809 -0.047764409 0.042592894 -0.93053055 0.36593929 -0.014187282 0
-0.049637519 -0.045760397 0.042403612 0.90562397 -0.42378372 0.015894463 0
-0.0056196074 -0.046963621 0.042540736 -0.92492467 -0.37990552 0.013645254 0
-0.0039189965 -0.047954865 0.042582214 0.92366081 0.38289922 -0.015456209 0
-0.050567728 -0.044033915 0.042305205 -0.88229567 0.47051817 -0.012925641 0
-0.048115026 -0.041940633 0.042540871 0.80311161 -0.59237754 0.064035423 0
-0.0073143421 -0.042379279 0.042591315 -0.80242944 -0.59620398 0.025452131 0
-0.0047092959 -0.044526182 0.042949673 0.88873565 0.45830137 -0.010427452 0
-0.046267595 -0.038638104 0.042729467 -0.71969587 0.6941781 -0.012435772 0
-0.043112051 -0.03684359 0.042403568 0.619488 -0.78446859 0.029047374 0
-0.039690524 -0.035211097 0.042586833 0.49687782 -0.86779082 0.0071759708 0
-0.015795292 -0.035361703 0.04226039 -0.50117457 -0.86521435 0.015110014 0
-0.012074511 -0.037169229 0.042383865 -0.65146321 -0.75826365 0.025138324 0
-0.0088241752 -0.038697794 0.042484935 0.73628163 0.67652279 -0.014366027 0
-0.04144137 -0.034282006 0.042657688 -0.53107911 0.84721708 -0.013354143 0
-0.037567947 -0.033290796 0.042496245 0.57158774 -0.8190068 0.050152466 0
-0.03247774 -0.031791128 0.042435877 0.29457062 -0.95162696 0.087374896 0
-0.027507974 -0.031221762 0.042422716 0.18099521 0.98266077 0.040231325 0
-0.022533581 -0.0318655 0.042450175 -0.19604792 -0.94659233 0.25598496 0
-0.017835299 -0.033190545 0.042575646 0.36533633 0.93084836 -0.0071267369 0
-0.01393884 -0.034385506 0.042435177 0.52488202 0.85109156 -0.011916627 0
-0.036605164 -0.08058998 0.047654632 -0.33586732 -0.94168884 -0.020376932 0
-0.032233078 -0.081156045 0.047834367 -0.24760973 -0.96874493 -0.014925986 0
-0.027574582 -0.081349388 0.047474012 0.084180303 -0.99644148 -0.0042535961 0
-0.022889314 -0.08124233 0.047558095 0.23412348 -0.9721154 -0.013329471 0
-0.018727057 -0.080501497 0.047545135 0.35562685 -0.9344303 -0.01922502 0
-0.04534182 -0.075304188 0.04772668 -0.68061602 -0.73237365 -0.019765805 0
-0.042133916 -0.076896623 0.04738757 -0.57280397 -0.81961244 -0.011446664 0
-0.038057175 -0.078714438 0.047222067 0.37287244 0.92744911 0.028359799 0
-0.03377087 -0.079712085 0.047362637 0.24882402 0.96831614 0.021223491 0
-0.021666182 -0.079636104 0.04768103 -0.25561306 0.96657085 0.020067539 0
-0.016974039 -0.078489959 0.047507249 -0.3871606 0.92172909 0.022851603 0
-0.012792317 -0.076665848 0.047485877 0.60687757 -0.79457581 -0.018679373 0
-0.0099455789 -0.075027592 0.04753631 0.67076707 -0.74139458 -0.020141408 0
-0.047213409 -0.072176591 0.047517285 -0.78790623 -0.61555487 -0.017202904 0
-0.044049241 -0.074213102 0.047662187 0.6667695 0.74502057 0.019048454 0
-0.01124383 -0.073828429 0.047675733 -0.68843681 0.72500265 0.020637298 0
-0.008050303 -0.072049551 0.047630537 0.76985782 -0.63794118 -0.018706786 0
-0.050959568 -0.067009948 0.047440205 -0.90540528 -0.42431563 -0.014058948 0
-0.049097832 -0.068111017 0.047352597 0.87676305 0.48035091 0.023441747 0
-0.0063883383 -0.068018593 0.04743902 -0.88693529 0.4611147 0.026815502 0
-0.0041775382 -0.066850603 0.047489762 0.91396523 -0.40549907 -0.015430794 0
-0.052060951 -0.062421713 0.047637485 0.58797133 0.78773731 0.18373786 0
-0.0051735761 -0.064620242 0.046895236 -0.93454164 0.35489848 0.026057543 0
-0.0035359405 -0.062351629 0.047465164 0.96235377 -0.27083454 0.022887787 0
-0.052854791 -0.057464283 0.047667418 -0.98058265 -0.19273685 -0.036195669 0
-0.0027898119 -0.057436988 0.047392923 0.99591237 -0.088105172 0.01990273 0
-0.052466016 -0.052487306 0.047554974 0.9719885 -0.23238686 0.035139713 0
-0.0030733091 -0.052434016 0.047339048 0.96709669 -0.25363463 0.019836603 0
-0.05153263 -0.047667604 0.047671411 -0.9392097 0.34305179 -0.014163715 0
-0.049707655 -0.04580342 0.047496907 0.90033984 -0.4350622 0.010439118 0
-0.0056520225 -0.046707369 0.047514305 -0.92112625 -0.38892686 0.016193369 0
-0.0038678732 -0.048036687 0.047792364 0.92806184 0.37240055 -0.0043653408 0
-0.050483312 -0.043752123 0.047019806 -0.87617135 0.48184565 -0.01218514 0
-0.048152383 -0.042057302 0.047465641 0.82706344 -0.56198186 0.011936609 0
-0.0074422401 -0.04225298 0.047451612 -0.80651045 -0.59105617 0.013907051 0
-0.0047152652 -0.044407941 0.04721887 0.88117927 0.47262928 -0.012026336 0
-0.046312384 -0.038698643 0.047354598 -0.72267592 0.69106978 -0.012730127 0
-0.042990237 -0.036697064 0.047288813 0.59159946 -0.80600941 0.018946987 0
-0.039781518 -0.0351955 0.047723234 0.51406384 -0.85742569 0.023654401 0
-0.015588223 -0.03537301 0.047526117 -0.50920504 -0.86048448 0.016628044 0
-0.012044953 -0.037194472 0.047428317 -0.63120025 -0.77544898 0.01628455 0
-0.0088025099 -0.038700212 0.047910482 0.73788804 0.67473847 -0.015787052 0
-0.04127375 -0.034103487 0.047402941 -0.51457196 0.85734063 -0.013517969 0
-0.037412867 -0.033045594 0.047651805 -0.363168 0.93171144 0.0047807535 0
-0.032659587 -0.031720258 0.047476217 0.40646803 -0.913167 0.030161591 0
-0.027399736 -0.031146744 0.04762657 -0.12323892 0.99207127 0.024633301 0
-0.022393955 -0.031754717 0.047522862 0.0052313055 0.99980778 0.018893193 0
-0.017660836 -0.033344358 0.047345325 0.58154655 0.80941933 0.081509456 0
-0.013873151 -0.034364007 0.047742266 0.52781957 0.84932053 -0.0078154532 0
-0.036774676 -0.080629408 0.052616332 -0.35210142 -0.93579048 -0.01791553 0
-0.03238542 -0.081131309 0.052413233 -0.29237345 -0.95629698 -0.0037400455 0
-0.027401388 -0.081335768 0.052516274 0.041829314 0.99243718 0.11540687 0
-0.023057228 -0.081165887 0.052649077 0.23191211 -0.97262728 -0.014593304 0
-0.018512543 -0.080512613 0.05227029 0.36374483 -0.93129724 -0.019370317 0
-0.045415606 -0.075360723 0.052766915 -0.68955767 -0.72416699 -0.0096130427 0
-0.042256329 -0.077110142 0.052385673 -0.55749601 -0.83006287 -0.013924283 0
-0.038054112 -0.078791022 0.05243542 0.38596335 0.92196375 0.031861756 0
-0.034007672 -0.079776801 0.052459199 0.24031833 0.97035551 0.02563761 0
-0.021120096 -0.079627991 0.052725431 -0.27292979 0.96173847 0.023843758 0
-0.016912397 -0.078449696 0.052716464 -0.44091642 0.89722306 0.024154689 0
-0.013019266 -0.076810144 0.05233619 0.5942468 -0.80419981 -0.011549278 0
-0.0099467952 -0.07513836 0.052334413 0.66867495 -0.74341917 -0.014206841 0
-0.047210887 -0.072378293 0.052326955 -0.78345919 -0.620583 0.032686431 0
-0.04422253 -0.074213237 0.052565742 0.67281485 0.73936236 0.025759334 0
-0.011185774 -0.073908702 0.052237391 -0.69046623 0.72294992 0.024492266 0
-0.0080689639 -0.072127722 0.052431654 0.78512073 -0.61921662 -0.012501724 0
-0.050981298 -0.066901192 0.052615009 -0.89531434 -0.44513324 -0.01638837 0
-0.049115803 -0.068280391 0.052335769 0.87236995 0.48818505 0.025418846 0
-0.0060917228 -0.06766846 0.052561235 -0.90413797 0.42628941 0.028491814 0
-0.0041447794 -0.066980712 0.052313797 0.91329205 -0.40693891 -0.017269855 0
-0.052108012 -0.06236092 0.052549973 0.92792362 0.36651659 0.067995854 0
-0.0051069413 -0.064809293 0.052524731 -0.94029593 0.33923733 0.027597386 0
-0.0035081019 -0.062374536 0.052531321 -0.96573949 0.23494817 0.11021161 0
-0.052881651 -0.057485968 0.052696113 0.75874448 0.64024109 0.11999226 0
-0.0028389448 -0.057491828 0.052599959 -0.99604261 0.079608604 0.039518133 0
-0.05264942 -0.052577961 0.052479535 0.6989283 -0.71277392 0.058758955 0
-0.0029792974 -0.052429747 0.052550007 0.99406725 0.093118705 0.056206483 0
-0.051658258 -0.047812782 0.052589696 -0.94606805 0.32396689 -0.00082664913 0
-0.049692411 -0.045581669 0.051924337 0.90655375 -0.42164952 0.019287206 0
-0.005696639 -0.046360929 0.052596159 -0.91528475 -0.4021976 0.022158569 0
-0.0037502022 -0.048071988 0.052531656 0.9330951 0.35962352 -0.0020897449 0
-0.050607387 -0.043873165 0.05227752 -0.88386565 0.4676854 -0.0072098705 0
-0.048201405 -0.041925654 0.052498553 0.80614495 -0.59125757 0.023342144 0
-0.0072324164 -0.042133525 0.052545745 -0.76748717 -0.64083749 0.017054139 0
-0.0046497947 -0.044405252 0.052783683 0.88445294 0.46651083 -0.010518332 0
-0.046354726 -0.038648903 0.052455153 -0.7266286 0.68693382 -0.011526319 0
-0.043091673 -0.036787845 0.052488152 0.61903739 -0.78520149 0.015852431 0
-0.039732866 -0.035091005 0.051630128 0.46533197 -0.88509774 0.0082542226 0
-0.015585731 -0.03528323 0.052432071 -0.50839257 -0.86080599 0.023454014 0
-0.012155405 -0.037035625 0.052309919 -0.64598989 -0.76299822 0.023037229 0
-0.0087620914 -0.038890768 0.052346777 0.73972499 0.67279631 -0.012335811 0
-0.041358497 -0.034096524 0.052562088 -0.51720661 0.85580236 -0.0099790301 0
-0.037486389 -0.033145178 0.052473865 0.48466477 -0.86858857 0.10321816 0
-0.032523226 -0.031585045 0.052515455 0.45184755 0.88784057 0.087022834 0
-0.02730892 -0.031074578 0.052579377 0.051930983 0.99840403 0.022192964 0
-0.022371378 -0.031843688 0.052625846 -0.36681288 -0.92993295 0.0259423 0
-0.017783513 -0.033068929 0.052545637 0.38025421 0.92487782 0.0027814913 0
-0.013918418 -0.034283865 0.052756656 0.53621638 0.8439703 -0.013643941 0
-0.035557993 -0.085286424 0.059832722 -0.19982788 -0.74297631 -0.63879192 0
-0.032419585 -0.085607544 0.05960789 -0.073744662 -0.43625098 -0.89679807 0
-0.027709149 -0.085694626 0.059570134 0.0036539466 -0.0092948871 -0.99995011 0
-0.022583276 -0.085555241 0.059657272 0.092663974 -0.43988717 -0.89325953 0
-0.01973721 -0.085118599 0.059754152 0.14995649 -0.60939723 -0.77855504 0
-0.04523956 -0.080218874 0.05955134 -0.14723915 -0.19871087 -0.96893483 0
-0.042517208 -0.081764765 0.059653293 -0.11348354 -0.18627846 -0.97592103 0
-0.037042402 -0.081962951 0.058260512 -0.29568297 -0.82178515 -0.48707357 0
-0.03233505 -0.081427552 0.057707995 -0.30510685 -0.74647623 -0.59134001 0
-0.027426025 -0.081565745 0.057663843 -0.037832234 0.96038193 -0.27610767 0
-0.022687409 -0.081554852 0.057739601 0.23127005 -0.80004489 -0.55357236 0
-0.017901523 -0.081926554 0.058518685 0.29293284 -0.75189018 -0.59063655 0
-0.012868951 -0.081338853 0.059701007 -0.060494605 0.10990962 -0.99209893 0
-0.009954433 -0.080168605 0.059631992 0.26118788 -0.29557782 -0.91892034 0
-0.050406542 -0.075747162 0.059676971 -0.36769366 -0.31662428 -0.87438577 0
-0.047044113 -0.077014916 0.058927514 -0.3099167 -0.34083849 -0.88757014 0
-0.042258523 -0.077157468 0.057441492 -0.54068345 -0.83672065 -0.086948119 0
-0.038025163 -0.078856125 0.05730569 0.38258159 0.92332858 0.033103123 0
-0.034476534 -0.079795547 0.057473168 0.27403682 0.96095735 0.038273845 0
-0.020994294 -0.079713136 0.057228059 -0.29401758 0.95524347 0.032612953 0
-0.017021844 -0.078707904 0.057605192 -0.41003144 0.91154367 0.031021647 0
-0.012702278 -0.077027231 0.057615403 0.58699501 -0.79512835 -0.15234084 0
-0.0078342659 -0.076841354 0.059364684 0.29485944 -0.28976196 -0.91054702 0
-0.0046593957 -0.075675935 0.059905771 0.72154933 -0.50776207 -0.47068495 0
-0.052382849 -0.072201729 0.059639893 -0.0092393085 0.013685673 -0.99986368 0
-0.047481786 -0.07222572 0.057606254 -0.80312097 -0.58549082 -0.11044078 0
-0.044277906 -0.074344955 0.057261016 0.67137325 0.7402631 0.035614852 0
-0.011050263 -0.073966458 0.057263523 -0.69080061 0.722278 0.033304576 0
-0.007978403 -0.072395295 0.057635494 0.75983775 -0.64279246 -0.097285673 0
-0.0028704992 -0.071927436 0.059751928 0.17253913 -0.11500629 -0.97826576 0
-0.055435043 -0.066179216 0.059740167 -0.074529909 -0.021826779 -0.99697983 0
-0.051502753 -0.067382745 0.057891615 -0.80534375 -0.41602239 -0.42231128 0
-0.049141429 -0.068295196 0.057661321 0.86969918 0.49263191 0.030613568 0
-0.0060352343 -0.067911871 0.057492614 -0.89978123 0.43406066 0.044554163 0
-0.0033021048 -0.067301057 0.05805986 0.8599872 -0.39046863 -0.32856706 0
0.00034721385 -0.066220976 0.059784498 0.74210018 -0.26874343 -0.61405563 0
-0.056544524 -0.062337045 0.059746742 -0.069610313 -0.019012405 -0.99739313 0
-0.052228782 -0.062554441 0.057456467 -0.20391485 0.81228513 0.54645377 0
-0.0050705574 -0.064899072 0.05536817 -0.94202852 0.33529624 0.012596332 0
-0.0033132045 -0.062511235 0.057619881 -0.27592811 0.80501866 -0.52517486 0
0.0007433818 -0.062497042 0.059714787 -0.14039196 0.038296442 -0.98935509 0
-0.057086401 -0.057008937 0.059809033 -0.0051961537 -0.00804401 -0.99995416 0
-0.05295673 -0.05748855 0.057602748 0.9800334 -0.16021892 0.1177469 0
-0.0026332997 -0.05740438 0.057737313 -0.91587412 -0.29000378 0.27761924 0
0.001577809 -0.057377473 0.059795115 0.064235963 0.021347892 -0.99770635 0
-0.056829542 -0.052537855 0.059777223 0.082543194 -0.011827724 -0.9965173 0
-0.052746993 -0.052671269 0.057464976 0.861857 -0.43732497 0.25680616 0
-0.0028896932 -0.052621692 0.0573739 -0.88458061 -0.4379662 0.16032042 0
0.0014091658 -0.052458018 0.05980913 0.018445993 0.0050529633 -0.99981701 0
-0.056114804 -0.048091918 0.059811447 -0.22285005 0.095956959 -0.97011858 0
-0.051675308 -0.047674201 0.057541013 -0.95400047 0.29878771 -0.024677137 0
-0.049762603 -0.045532372 0.057170767 0.89759344 -0.43985477 0.029220127 0
-0.0055242795 -0.046550192 0.057392307 -0.91724902 -0.39774203 0.021344168 0
-0.0036120375 -0.04775231 0.057661779 0.90561152 0.38147545 -0.18532205 0
0.00041601076 -0.047864124 0.059799116 0.08703319 0.031428479 -0.99570948 0
-0.055168416 -0.044245232 0.059908349 -0.804452 0.31615528 -0.50289452 0
-0.05157904 -0.043133385 0.05843154 -0.76965022 0.41355571 -0.48642609 0
-0.048293635 -0.042043615 0.057333335 0.8138814 -0.58013898 0.032184754 0
-0.0070428918 -0.042281527 0.057407692 -0.81203294 -0.58347708 0.012530369 0
-0.0033665164 -0.04341542 0.058780935 0.69965172 0.36768129 -0.6126157 0
-0.051520985 -0.038694046 0.059850883 -0.26592147 0.19478284 -0.94411093 0
-0.046895437 -0.038070235 0.057907548 -0.68689978 0.65244973 -0.32012188 0
-0.043155517 -0.036674209 0.057319842 0.60592312 -0.79512894 0.02504099 0
-0.039872039 -0.035063799 0.056914628 0.50032318 -0.8656531 0.017926592 0
-0.015446793 -0.035244934 0.057360742 -0.49876711 -0.86669415 0.0085246293 0
-0.0120664 -0.036892388 0.057552181 -0.66653061 -0.74509108 0.02400234 0
-0.0085291043 -0.038301993 0.057948463 0.72350341 0.67248601 -0.1559017 0
-0.0041343169 -0.038790632 0.059839312 0.13658927 0.093147203 -0.98623884 0
-0.046383098 -0.033517275 0.059831776 -0.047036976 0.045969971 -0.99783486 0
-0.041961253 -0.033204053 0.058443323 -0.47049293 0.78048307 -0.41168258 0
-0.037547946 -0.033018515 0.057437811 0.087871827 0.9840647 0.15458047 0
-0.032499146 -0.03132344 0.057559233 -0.21124151 0.97731978 -0.014933914 0
-0.02740743 -0.031107269 0.057566527 0.043141335 -0.99649686 0.07164409 0
-0.022365509 -0.031671785 0.057544317 -0.77132332 -0.63288313 0.067225933 0
-0.0177698 -0.033024862 0.057669111 0.34111524 0.93968529 0.025138298 0
-0.013213765 -0.033333167 0.058456723 0.48475197 0.74801314 -0.45331216 0
-0.0084346877 -0.034041934 0.059850685 0.061374202 0.066212378 -0.99591625 0
-0.040850632 -0.029823899 0.059824418 -0.086698018 0.17593338 -0.98057675 0
-0.037374869 -0.028529536 0.059877325 -0.037892286 0.13675015 -0.98988062 0
-0.032114357 -0.027230799 0.059862167 0.0029565578 0.076590545 -0.99705827 0
-0.027170034 -0.026991533 0.05985111 -0.021578699 -0.16216163 -0.98652828 0
-0.022778351 -0.027384428 0.059815135 0.038241256 0.060459919 -0.99743783 0
-0.017570108 -0.028723305 0.059877798 0.04157687 0.098326281 -0.99428535 0
-0.014639298 -0.029646555 0.059876382 0.19047026 0.40125072 -0.89594579 0
-0.036190081 -0.085295588 0.061237112 -0.27116096 -0.94107538 0.20211144 0
-0.032106627 -0.085869066 0.06167553 -0.13805449 -0.91017318 0.3905454 0
-0.027360406 -0.086107306 0.0617643 0.010444541 -0.88075346 0.47345996 0
-0.022209689 -0.085734472 0.061718956 0.18329743 -0.89750928 0.40109736 0
-0.019140491 -0.085233144 0.061090015 0.30399582 -0.95196956 0.036612745 0
-0.045729976 -0.080555096 0.061031673 -0.58971417 -0.80714136 0.02756846 0
-0.041968003 -0.081802748 0.061679833 -0.43126717 -0.73921245 0.51727509 0
-0.037475947 -0.082266189 0.061827231 -0.1831193 -0.43141046 0.88337559 0
-0.03250204 -0.082499541 0.061778549 0.11726774 0.66375369 0.73870116 0
-0.027530165 -0.082929105 0.061741255 -0.018941516 0.81982297 0.57230371 0
-0.02245334 -0.082433552 0.061856605 -0.14324963 0.67412168 0.72459608 0
-0.017529529 -0.082336113 0.061779976 0.20017235 -0.59733278 0.77661097 0
-0.012849324 -0.081623174 0.061682723 0.4594481 -0.75380641 0.46976954 0
-0.0094126314 -0.080285385 0.060916666 0.59117466 -0.80477679 0.053354848 0
-0.050775882 -0.075865462 0.061422616 -0.76603496 -0.58901215 0.25740093 0
-0.047111161 -0.077191867 0.061683226 -0.46796268 -0.60398102 0.64514947 0
-0.042537309 -0.077906445 0.061651058 0.42079145 0.59145612 0.68783295 0
-0.037685458 -0.079252757 0.061221141 0.35259163 0.83612555 0.42020607 0
-0.034772061 -0.07991498 0.060525078 0.28623644 0.93149406 0.22447155 0
-0.020473629 -0.079764292 0.060552079 -0.28152299 0.93951362 0.19508711 0
-0.016887406 -0.079100676 0.061418459 -0.33332443 0.72415727 0.60373098 0
-0.012329031 -0.077724338 0.06169695 -0.39921322 0.5683549 0.71944529 0
-0.0080229221 -0.077143066 0.061723158 0.52495885 -0.58638346 0.61690575 0
-0.0044990666 -0.075711623 0.060804639 0.78476894 -0.61607963 -0.06770166 0
-0.052111439 -0.072145 0.061787952 -0.69338977 -0.41836274 0.58667141 0
-0.047889333 -0.072924323 0.061713435 0.57117158 0.48470733 0.66243631 0
-0.044528916 -0.074626602 0.061023302 0.63661313 0.69710916 0.32979172 0
-0.010603271 -0.074432068 0.061570067 -0.603809 0.60965246 0.51355481 0
-0.0073090121 -0.072802119 0.061712638 -0.63878858 0.52500284 0.56242442 0
-0.0030933933 -0.072168864 0.061722498 0.74732649 -0.47415704 0.46548712 0
-0.055764385 -0.067062557 0.061430521 -0.91260535 -0.35441518 0.20381713 0
-0.052375622 -0.067534529 0.061965033 0.29455063 0.13467221 0.94609898 0
-0.049252417 -0.068740219 0.061071593 0.83065605 0.47444463 0.29139805 0
-0.0058341525 -0.068256833 0.061223097 -0.80590904 0.42010683 0.41715816 0
-0.0024760943 -0.067464441 0.061850395 0.25919288 -0.10416462 0.96019202 0
0.0005114018 -0.066390984 0.061457861 0.92577225 -0.32499251 0.19319825 0
-0.056482781 -0.062528037 0.061630774 -0.93311751 -0.20714588 0.29390875 0
-0.053120077 -0.062712505 0.061642949 0.75198698 0.21056439 0.62464243 0
-0.0020788787 -0.062747367 0.061697435 -0.8405475 0.2350869 0.48807177 0
0.001247779 -0.062141571 0.061834499 0.85570478 -0.17891452 0.48555005 0
-0.056714393 -0.057521846 0.061831914 -0.74492639 -0.057250638 0.66468567 0
-0.053525336 -0.057555031 0.061533019 0.81616455 0.015606972 0.57760864 0
-0.0017860383 -0.057463691 0.061693616 -0.84400028 -0.0065324591 0.53630286 0
0.0016046484 -0.057269942 0.061673921 0.88369274 -0.067061104 0.46323854 0
-0.056718361 -0.052728727 0.061800383 -0.78676862 0.080638982 0.61195791 0
