# .PCD v0.7 - Point Cloud Data file format
VERSION 0.7
FIELDS x y z normal_x normal_y normal_z curvature
SIZE 4 4 4 4 4 4 4
TYPE F F F F F F F
COUNT 1 1 1 1 1 1 1
WIDTH 634
HEIGHT 1
VIEWPOINT 0 0 0 1 0 0 0
POINTS 634
DATA ascii
-0.04673202 -0.052741751 0.0077433856 -0.72460383 0.2365337 -0.64730293 0
-0.042423967 -0.052344855 0.0066117756 0.08748398 -0.102703 0.99085754 0
-0.03725319 -0.052757904 0.0067740534 -0.11114918 0.11999187 0.98653322 0
-0.032545052 -0.052633602 0.00634189 -0.54891753 0.60983837 -0.57165265 0
-0.027363589 -0.052518971 0.0063048429 -0.46852252 0.75942296 0.45140162 0
-0.022561874 -0.052256089 0.0060855714 -0.14564139 0.28019407 -0.94883072 0
-0.017488703 -0.052324474 0.0061966539 0.5131579 0.57320589 -0.63883018 0
-0.01252477 -0.052333914 0.006011507 -0.15349239 0.080816239 -0.98483956 0
-0.0084049571 -0.052713655 0.0061919806 0.87564838 0.45924619 0.14944209 0
-0.00085932337 -0.052343223 0.0064017163 -0.96087199 -0.2623556 0.088851213 0
0.0024349543 -0.052609678 0.0064197262 0.86987829 0.13627049 0.47406968 0
0.0068743634 -0.052635439 0.0076804976 0.45628059 0.13391106 -0.87970215 0
-0.046060767 -0.048670866 0.0081728147 -0.85755092 0.46272346 -0.22470717 0
-0.042687364 -0.047498845 0.0072155958 0.23784946 0.49349329 0.83659554 0
-0.037320968 -0.0475973 0.0068103317 0.25752062 -0.22235703 0.94034064 0
-0.032398969 -0.047260102 0.0066871634 0.0047472804 -0.0059590675 -0.99997097 0
-0.027390586 -0.047459472 0.0065452927 -0.52301961 0.78857023 0.32343078 0
-0.022489574 -0.047621537 0.0063471445 -0.48245645 0.84461987 0.23206237 0
-0.017414954 -0.047524132 0.006173484 -0.05878878 0.24557565 -0.96759319 0
-0.01253311 -0.047621585 0.0063421801 0.64587861 0.74055052 -0.18554157 0
-0.0074768015 -0.047489543 0.006481736 0.055002779 -0.087024257 0.9946866 0
-0.0024931871 -0.04758906 0.0064794822 -0.3451142 -0.3991147 0.84947252 0
0.0026828139 -0.047260404 0.0071803597 -0.61139435 -0.14960541 -0.77705544 0
0.0061529507 -0.048563175 0.0078172814 0.78121454 0.44689941 -0.43587232 0
-0.041549146 -0.043302659 0.0082199536 -0.6998744 0.55768442 -0.44627771 0
-0.037453324 -0.042148922 0.0070827156 0.16417496 -0.38809896 0.90687686 0
-0.032544758 -0.042513791 0.0066357953 0.29877648 -0.50682449 0.80861706 0
-0.027539609 -0.042447094 0.0067709084 0.22207211 -0.65293008 0.72413146 0
-0.022382503 -0.042147975 0.0067379535 0.19903003 0.97871661 0.05000836 0
-0.01774413 -0.04257524 0.0067025381 -0.17378597 0.82442337 -0.53863204 0
-0.012561384 -0.042399496 0.0067806956 0.079946093 -0.086827196 0.9930104 0
-0.0079362579 -0.042660676 0.0066782078 -0.47495413 -0.7777065 0.41181454 0
-0.002644805 -0.042135727 0.0071873581 -0.47313997 -0.73945558 0.47889888 0
0.0017459281 -0.042914975 0.008234567 0.71691519 0.58023947 -0.38646448 0
-0.036722839 -0.038778208 0.0081396792 -0.48402685 0.69368315 -0.53340566 0
-0.032478735 -0.037519686 0.0075069568 -0.43385753 0.72657472 -0.53278214 0
-0.027493574 -0.037386715 0.0070036193 0.1037316 -0.47000057 0.8765496 0
-0.022394735 -0.037582774 0.0065827952 0.072769806 -0.66414571 0.74405307 0
-0.017676683 -0.037338164 0.0066163931 -0.016232895 0.27163354 0.96226382 0
-0.012548901 -0.037455626 0.0070594489 -0.1719995 -0.65468132 0.73607635 0
-0.0075098793 -0.037453651 0.0074662771 0.29630542 0.59623516 -0.7461279 0
-0.0029661353 -0.038700867 0.0079227882 0.49782673 0.71601105 -0.48938408 0
-0.030647177 -0.034828816 0.0083235539 -0.34191212 0.91420907 -0.21752647 0
-0.027089581 -0.033973366 0.0080756042 -0.2473329 0.90107417 -0.35621849 0
-0.022399046 -0.033823363 0.008085439 -0.034160268 0.43572152 -0.89943308 0
-0.017637482 -0.033654194 0.0078427177 0.064206965 0.66374946 -0.74519402 0
-0.01246458 -0.033947539 0.0081834989 0.22976749 0.9081133 -0.35005319 0
-0.0092748348 -0.034580529 0.0086029256 0.36966118 0.92182952 -0.11653725 0
-0.031152062 -0.090360068 0.012169081 -0.37759161 -0.9258278 -0.016353302 0
-0.027241705 -0.091191605 0.012594089 -0.29081556 -0.95592457 -0.040430542 0
-0.02271386 -0.09137737 0.012568106 0.084664978 0.99327135 -0.079017639 0
-0.017600507 -0.091690719 0.012359883 -0.037270203 -0.99912238 -0.019113326 0
-0.01272982 -0.091406137 0.012695433 0.26133001 -0.96520275 -0.009505081 0
-0.0088483244 -0.090540417 0.01245097 0.37452024 -0.92711669 -0.013754886 0
-0.036976997 -0.08653558 0.012348493 -0.65490752 -0.75185525 -0.076221503 0
-0.033134427 -0.088062994 0.01252071 0.81885338 0.57110035 -0.057650566 0
-0.028215041 -0.089496069 0.012323637 0.30492455 0.95237404 -0.0021444215 0
-0.01179505 -0.089126438 0.012466948 -0.47921345 0.87769836 0.00039924396 0
-0.007201849 -0.087511376 0.012301041 -0.52674192 0.65309072 -0.5440731 0
-0.0024457311 -0.086863324 0.012360726 0.58640313 -0.80872148 -0.04583564 0
9.971737e-05 -0.085109681 0.011662431 0.66829449 -0.7436884 -0.017609 0
-0.041849099 -0.082102403 0.012458052 -0.66726595 -0.74314487 -0.049918603 0
-0.038461447 -0.084155075 0.012455117 0.51268643 0.85377216 -0.090695739 0
-0.0054680225 -0.084778011 0.013322639 -0.5063917 0.86189651 -0.026489606 0
-0.0023816389 -0.083514966 0.01256192 -0.39942145 0.90004236 -0.17431667 0
0.0022993076 -0.081956804 0.012380472 0.73823464 -0.67215419 -0.056730792 0
-0.045932524 -0.077048749 0.012297324 -0.88151258 -0.47190195 -0.015622332 0
-0.043774173 -0.078168027 0.012467816 0.87147021 0.48871213 -0.041232739 0
0.0037378983 -0.078019723 0.012403199 -0.83816367 0.54340887 -0.046780527 0
0.0061211977 -0.077106193 0.012925095 0.87353051 -0.48676783 -0.0012817021 0
-0.046891857 -0.072664171 0.012531526 0.87054545 0.3191022 0.37459889 0
0.0074759745 -0.07253103 0.012528401 -0.5589425 -0.45121372 -0.69569355 0
-0.048429564 -0.067586668 0.012394015 -0.941755 -0.090939485 -0.32377067 0
0.0078431796 -0.06770727 0.012565076 -0.77077979 -0.42829913 -0.47165489 0
0.010074711 -0.065602101 0.012756425 0.99348313 -0.1124543 -0.018580273 0
-0.048656128 -0.062520407 0.012686132 0.41859931 -0.44597271 -0.79112768 0
0.006808721 -0.062471759 0.011971531 -0.84343594 0.0094043054 -0.53714746 0
0.010234003 -0.062462814 0.01240429 0.99986696 -0.0060181757 -0.015156865 0
-0.048092134 -0.05738445 0.012328194 0.061522543 -0.24549785 -0.96744293 0
0.0046399496 -0.05677307 0.014330924 -0.86241233 -0.23451786 -0.44860488 0
0.0079187537 -0.057224397 0.012268076 0.129913 0.070964068 -0.98898262 0
0.010111804 -0.059375055 0.012945088 0.99443305 0.10469081 -0.011949673 0
-0.046811022 -0.05278106 0.012666152 -0.71747136 0.42550021 -0.55152917 0
-0.044698283 -0.050808936 0.012920836 0.87575132 -0.47579762 -0.081708267 0
0.0034978075 -0.051994767 0.012858885 -0.71665877 -0.47542685 -0.51026416 0
0.0075986194 -0.052876357 0.01205912 0.89275205 0.23769906 -0.38274381 0
-0.04608395 -0.048297063 0.012285246 -0.87628287 0.48170304 -0.0095201423 0
-0.042913038 -0.047159564 0.01230749 0.67046589 -0.54884988 -0.4992387 0
-0.039317746 -0.045691047 0.014315368 0.58445758 -0.68594348 -0.43346384 0
-0.0010478788 -0.046520844 0.013587416 -0.66746455 -0.55565441 -0.49572089 0
0.0019340785 -0.047374576 0.011856955 -0.57905555 -0.38653418 -0.71783417 0
0.0061761262 -0.047619414 0.012407206 0.86520433 0.50124693 -0.013153222 0
-0.042012695 -0.042882141 0.012105615 -0.75291699 0.65387571 -0.074583083 0
-0.037940301 -0.041687526 0.012553942 0.6573509 -0.67408735 -0.3368918 0
-0.0065211873 -0.040940095 0.013857054 -0.56112105 -0.64522237 -0.51848948 0
-0.0029561603 -0.042811878 0.012118272 -0.56600624 -0.52661878 -0.63427883 0
0.0021426822 -0.042618707 0.012048678 0.73929828 0.6618343 -0.12415081 0
-0.037013419 -0.038398791 0.012248741 -0.58156806 0.81270236 -0.035965402 0
-0.032808345 -0.036939755 0.012476451 -0.48860401 0.33232856 -0.80673659 0
-0.02738888 -0.037043754 0.012397195 0.075453922 -0.85510212 -0.51293957 0
-0.02274663 -0.036789626 0.012496905 0.080921546 -0.84487724 -0.52880436 0
-0.017466975 -0.036831036 0.01248092 -0.1257046 -0.82416624 -0.55222142 0
-0.012622049 -0.037617642 0.012412208 -0.16940324 -0.78407568 -0.59709954 0
-0.0074083726 -0.037301328 0.012185514 0.048709661 -0.067474328 -0.99653131 0
-0.0026130883 -0.038267162 0.012119464 0.57079631 0.81800854 -0.071088776 0
-0.030622579 -0.034641765 0.012472537 -0.34421164 0.93888807 -0.0027625361 0
-0.027665069 -0.033682477 0.012468752 -0.26351172 0.96465474 -0.0016675387 0
-0.022409985 -0.032921217 0.012141591 -0.095875889 0.99426919 -0.047292862 0
-0.017358385 -0.032884523 0.012397991 0.082211725 0.99545592 -0.04805018 0
-0.012416124 -0.033548422 0.012387128 0.23399653 0.97223324 -0.0028421399 0
-0.0089187343 -0.034612253 0.012528067 0.37305492 0.92773324 -0.011878349 0
-0.031002762 -0.090504043 0.017267704 -0.37747571 -0.92591631 -0.013823769 0
-0.027210319 -0.091276206 0.017543055 -0.27847716 -0.9604066 -0.0083434256 0
-0.022517655 -0.091554232 0.017636133 -0.63634002 -0.51064074 0.57820189 0
-0.017185712 -0.091549307 0.017661339 -0.91968942 -0.39187047 0.024673009 0
-0.012891566 -0.091290243 0.017470229 0.27968869 -0.96008945 0.0015737157 0
-0.0086697359 -0.090488523 0.017306179 0.36913002 -0.92936331 -0.0051900838 0
-0.037070882 -0.086690784 0.017717741 -0.59811491 -0.80139273 0.005326753 0
-0.033102758 -0.087937206 0.017700225 0.68048078 0.72752482 0.087484211 0
-0.028260613 -0.089471087 0.017533526 0.29410103 0.95564061 0.015989184 0
-0.011772991 -0.089189015 0.01723584 -0.46735632 0.88388592 -0.017992066 0
-0.0071901586 -0.087433241 0.017248215 -0.36440185 0.8510375 0.37808257 0
-0.0026035744 -0.086929873 0.017432373 0.56119114 -0.82766473 -0.005963421 0
0.00016839191 -0.085085191 0.017481074 0.65571523 -0.75493759 -0.010329098 0
-0.041897953 -0.082044125 0.017230095 -0.7297588 -0.6820547 -0.047472365 0
-0.038268302 -0.08398436 0.017776283 0.5382992 0.84248275 0.021373581 0
-0.0052608349 -0.084917843 0.015588534 -0.58325356 0.65924037 0.47457075 0
-0.0024026069 -0.083233148 0.017251296 -0.50825328 0.85977978 0.049571153 0
0.0022272763 -0.08233425 0.017517136 0.7635594 -0.64569694 0.0072475253 0
-0.046043787 -0.076801382 0.017322429 -0.88202894 -0.47086513 -0.017633688 0
-0.043783966 -0.077987082 0.017480129 0.86598307 0.49851096 0.03949834 0
0.0036588486 -0.078265406 0.017351305 -0.83880293 0.54235768 0.04751651 0
0.0061494135 -0.07712435 0.017471312 0.86688095 -0.49843156 -0.009127276 0
-0.046893563 -0.072684616 0.017593792 0.8961153 0.44188118 -0.041452877 0
0.007594821 -0.072335407 0.017585123 0.78483284 -0.42211965 0.45370957 0
-0.048370838 -0.067449942 0.017655483 0.87214661 -0.44032478 0.21324715 0
0.0080148457 -0.06802202 0.017259071 -0.50763518 -0.79484034 0.33246875 0
0.01012597 -0.065982327 0.017575912 0.99353004 -0.11228833 -0.01701083 0
-0.048731916 -0.062496379 0.017465653 -0.97171879 -0.21605247 -0.095309392 0
0.0048023066 -0.061168496 0.018605039 -0.9788174 -0.1763353 -0.10403128 0
0.0052797738 -0.063080825 0.016888466 -0.98152828 -0.16749114 -0.09246017 0
0.010301477 -0.062608019 0.017410815 0.99992627 -0.0052442658 -0.010947787 0
-0.048144735 -0.05768596 0.017406037 0.18248664 -0.63568938 0.75006509 0
0.0039602462 -0.05754206 0.017421672 -0.93403238 -0.31884059 -0.16101018 0
0.0096688876 -0.056467295 0.017441707 0.97797745 0.20822823 -0.014185497 0
0.010098139 -0.058961932 0.017361587 0.993007 0.11792165 -0.0056213848 0
-0.047151361 -0.052676879 0.017544417 -0.96899909 0.20348103 0.14012922 0
-0.044333857 -0.050820496 0.017066192 0.74286276 -0.65810484 0.12269043 0
-0.00043441736 -0.050459538 0.018853864 -0.74699455 -0.64237893 -0.17131372 0
0.0015743712 -0.052595001 0.017614326 -0.81213588 -0.54482263 -0.20881477 0
0.0085172839 -0.052488372 0.017517785 0.94280809 0.33312491 -0.011858854 0
-0.045997247 -0.048087426 0.017338434 -0.87293267 0.48777369 -0.0080950791 0
-0.042577125 -0.048317607 0.017616376 0.37365851 -0.92756599 0.0008384469 0
-0.03836656 -0.046270132 0.017738042 0.68771714 -0.68149722 -0.25021333 0
-0.0054300302 -0.045396339 0.018913729 -0.58083397 -0.76674247 -0.27338225 0
-0.0025366142 -0.047452513 0.017486868 -0.69596821 -0.64755762 -0.3103182 0
0.0037869178 -0.046252612 0.016971339 0.80833548 0.56343395 -0.17069294 0
0.0062204222 -0.047544699 0.017449081 0.85993743 0.510221 -0.013497106 0
-0.042077299 -0.042605888 0.017618297 -0.7447679 0.6672703 -0.0084330449 0
-0.036363456 -0.042417023 0.017317656 0.88200951 -0.31828734 -0.34749442 0
-0.034014545 -0.04160779 0.019570086 0.8672092 -0.3446891 -0.35935724 0
-0.028920298 -0.040120419 0.019505331 0.072008662 -0.98664176 -0.14612554 0
-0.01670217 -0.040298533 0.01911404 -0.22662519 -0.93544662 -0.27125746 0
-0.012217685 -0.041121591 0.017937301 -0.2878167 -0.87094903 -0.39825797 0
-0.0075700991 -0.042884883 0.017202931 -0.50157541 -0.72535884 -0.47146216 0
-0.0043802154 -0.044657834 0.015716644 -0.61518615 -0.6798557 -0.39917681 0
0.0024146005 -0.042415541 0.017323103 0.73864782 0.67398173 -0.01216282 0
-0.037381623 -0.038516577 0.017596297 -0.58677381 0.80974513 -0.0030364543 0
-0.03311795 -0.037865981 0.017509466 -0.70708817 -0.66448212 -0.24184696 0
-0.027479172 -0.039448034 0.017122719 0.091750488 -0.95876718 -0.26897469 0
-0.022623535 -0.038990688 0.017318057 0.054761592 -0.95247197 -0.29966369 0
-0.018014627 -0.039190285 0.016992871 -0.18333405 -0.91123956 -0.36882389 0
-0.013558884 -0.039586257 0.01564336 -0.21311477 -0.85978508 -0.46406001 0
-0.0063066119 -0.03573538 0.017156998 0.44741461 0.89432043 -0.0033465282 0
-0.0023010087 -0.038206805 0.017517248 0.58275485 0.81261337 -0.0075022932 0
-0.030902522 -0.034730379 0.017227093 -0.34808779 0.93741202 -0.0096702827 0
-0.02753509 -0.033638641 0.017464386 -0.26505154 0.96419197 -0.0090311542 0
-0.02248374 -0.032744471 0.017445982 -0.085989483 0.99624079 -0.010489183 0
-0.017303834 -0.032695182 0.017475568 0.083626106 0.99645025 -0.0096738944 0
-0.012252441 -0.033554375 0.01749224 0.24394619 0.96972644 -0.010990537 0
-0.0087702954 -0.034629084 0.017570954 0.36756766 0.92996043 -0.0082151191 0
-0.031256326 -0.090469062 0.022483369 -0.37071547 -0.92867357 -0.011637868 0
-0.026998181 -0.091387883 0.022345124 -0.26926899 -0.96298921 -0.012082497 0
-0.022546854 -0.091618493 0.022439783 0.39978841 -0.91600418 0.033249352 0
-0.017385097 -0.09167099 0.022481315 -0.28929573 -0.95611864 -0.046315819 0
-0.01284158 -0.091329619 0.022532303 0.27579543 -0.96112323 -0.013386194 0
-0.0086715799 -0.090539791 0.022594377 0.37479267 -0.9270528 -0.010174874 0
-0.037182529 -0.086608849 0.022402063 -0.5778659 -0.81602907 -0.012945445 0
-0.032856245 -0.088312797 0.022638096 0.493687 0.86917597 -0.028393878 0
-0.028287504 -0.089531608 0.022106137 0.30273131 0.95299911 0.012096824 0
-0.011720241 -0.089393854 0.022102682 -0.39389399 0.91850209 0.034661703 0
-0.0068809474 -0.088138215 0.022757774 -0.42915159 0.87687588 0.21660447 0
-0.0027968576 -0.086787187 0.022734661 0.52069819 -0.85373747 0.0023962678 0
0.00021869516 -0.085099444 0.02234327 0.67038131 -0.74193829 -0.010790462 0
-0.041993305 -0.08204139 0.022583758 -0.74899364 -0.6622808 -0.019815333 0
-0.038470168 -0.083879746 0.022470469 0.60103995 0.79919875 0.0056901164 0
-0.0023755957 -0.083253607 0.022480182 -0.65433502 0.75612748 -0.010815538 0
0.0022769987 -0.082121171 0.022519786 0.80451155 -0.59261739 -0.039569966 0
-0.046127971 -0.076665163 0.02245428 -0.88429528 -0.46665385 -0.015997669 0
-0.043924186 -0.077994294 0.022602724 0.86177647 0.50671256 0.024159303 0
0.0039135171 -0.07826297 0.022251545 -0.82759863 0.56108767 0.016158333 0
0.0060660611 -0.07692796 0.022769334 0.85172355 -0.5239144 0.0089828623 0
-0.047290381 -0.072534107 0.022316774 -0.99323362 -0.11321534 -0.025870558 0
0.0075028925 -0.072605535 0.022590507 -0.98029029 0.19132589 0.0492476 0
-0.048573874 -0.067447804 0.022588139 -0.9123162 -0.40923718 -0.014286662 0
0.0080070207 -0.067815475 0.022577101 -0.8007409 -0.59680241 0.051389802 0
0.010191676 -0.06603191 0.022879219 0.99309289 -0.11682077 -0.010925543 0
-0.04860441 -0.062604271 0.022618148 0.89455718 -0.3860473 -0.22524428 0
0.0047217095 -0.061607886 0.022395775 -0.97754806 -0.20840949 0.03107015 0
0.0053817937 -0.063932806 0.022684211 -0.92459601 -0.37658039 0.05752733 0
0.010352099 -0.062845044 0.022251856 0.99986553 -0.0093745021 -0.013452021 0
-0.048259608 -0.05742918 0.022266444 0.11606817 0.97930717 -0.16578777 0
0.0039549777 -0.057224959 0.022556888 -0.93867409 -0.21978386 0.26568028 0
0.0094180545 -0.056253411 0.022955965 0.97288787 0.22814345 0.037945375 0
0.010123709 -0.058859289 0.022060029 0.99251288 0.12149044 -0.012577948 0
-0.047118913 -0.052618042 0.02230683 -0.90986103 -0.40366873 0.095939964 0
-0.044944264 -0.050048858 0.024492221 0.6955781 -0.71507919 -0.06951879 0
-0.00052201259 -0.05051202 0.022028008 -0.72275233 -0.68437541 0.096225724 0
0.0017944321 -0.052961219 0.022611465 -0.7590571 -0.61597276 0.21073614 0
0.0085951118 -0.052510671 0.022737304 0.94295955 0.3326706 -0.012549085 0
-0.046194229 -0.048321649 0.022633024 -0.87320423 0.48723885 -0.010620542 0
-0.043016847 -0.048209555 0.02258209 0.095771484 -0.99490017 0.031646356 0
-0.037896618 -0.046743996 0.022499243 0.63121551 -0.77456766 -0.040147915 0
-0.0058104126 -0.045621224 0.022942116 -0.5238995 -0.85054368 0.045876727 0
-0.0025805293 -0.048271004 0.022524061 -0.69021207 -0.71515763 0.11025829 0
0.0048424276 -0.045218877 0.023030976 0.81064218 0.58532882 -0.015796937 0
0.0065961676 -0.048095863 0.022469455 0.872612 0.48823211 -0.01333348 0
-0.042119935 -0.042589959 0.022584973 -0.74314541 0.66897929 -0.014200086 0
-0.036366776 -0.043044653 0.022308201 0.91273707 -0.38754079 -0.12931783 0
-0.033842996 -0.041745119 0.02275507 0.91734904 -0.38672084 -0.094433472 0
-0.027913556 -0.040165234 0.022836197 0.051257405 -0.99868399 -0.0017053159 0
-0.022467194 -0.040140618 0.023165297 -0.033459187 -0.99809194 -0.051894002 0
-0.017539613 -0.040671036 0.022581574 -0.21557069 -0.97425085 -0.066064641 0
-0.012617861 -0.042140402 0.022478716 -0.36379448 -0.92813247 -0.078889713 0
-0.0083428621 -0.044129945 0.02229947 -0.48498431 -0.87262082 -0.057646818 0
0.002682358 -0.04260464 0.022751102 0.74813384 0.66342854 -0.012583341 0
-0.03721251 -0.038181588 0.022553517 -0.58176601 0.81327903 -0.011204194 0
-0.033397656 -0.037517026 0.022602001 -0.94435173 0.32365832 0.058694117 0
-0.026159639 -0.039953269 0.020600237 0.023626098 -0.99803793 -0.057983864 0
-0.022247745 -0.039867103 0.020871064 -0.023252463 -0.98517692 -0.16995807 0
-0.019431639 -0.039940327 0.020015847 -0.10029479 -0.938829 -0.3294557 0
-0.006226541 -0.035717763 0.022498699 0.44763613 0.89412493 -0.012749023 0
-0.0023121696 -0.038124036 0.02259339 0.580993 0.81374657 -0.016238999 0
4.5976882e-05 -0.039912578 0.022444643 0.65847147 0.75246245 -0.014679532 0
-0.030891417 -0.034654196 0.022974541 -0.36096492 0.93248516 -0.013256209 0
-0.027829891 -0.033655703 0.022650154 -0.27005628 0.9627375 -0.014360189 0
-0.022515537 -0.032681283 0.022289611 -0.091672175 0.995754 -0.0083757145 0
-0.017651699 -0.032614648 0.022547007 0.065785527 0.99777603 -0.010733067 0
-0.012050392 -0.033542097 0.022479907 0.25486252 0.96691573 -0.010916115 0
-0.0087518198 -0.034576986 0.022487916 0.36744219 0.93000251 -0.0090294275 0
-0.03136773 -0.090481132 0.027514478 -0.38493884 -0.92286867 -0.011642236 0
-0.027056906 -0.091385588 0.027351402 -0.27911788 -0.96016264 -0.013444926 0
-0.022626692 -0.091804065 0.027405648 -0.06310451 -0.99798328 -0.0068730651 0
-0.017533556 -0.091747671 0.027520394 -0.29020602 -0.95526451 0.057009947 0
-0.012847222 -0.091418669 0.027337164 0.28456548 -0.9586153 -0.0088954717 0
-0.0086701801 -0.0906021 0.027841719 0.37395138 -0.92741579 -0.0077613704 0
-0.037122469 -0.086516909 0.027299132 -0.52832901 -0.84895128 0.012254537 0
-0.032933783 -0.088358432 0.02748185 0.44435015 0.89494121 0.040412813 0
-0.028634585 -0.089503065 0.027597839 0.31577298 0.94878983 0.009235396 0
-0.01180023 -0.089598842 0.027654085 -0.32026222 0.94722897 0.013765302 0
-0.0070028147 -0.08820992 0.027667537 -0.42931816 0.90266234 0.029776314 0
-0.0025030277 -0.086668208 0.027313491 0.52141666 -0.85328525 -0.005387058 0
0.00011749806 -0.085240923 0.027857207 0.67399764 -0.73872888 -0.0026169301 0
-0.041943785 -0.082120046 0.027361728 -0.76228315 -0.64616454 -0.037360471 0
-0.038327798 -0.083921976 0.027312938 0.59145892 0.80633336 0.0017127625 0
-0.0021592483 -0.083020627 0.027633619 -0.65756911 0.75282139 -0.029374124 0
0.0024536082 -0.081912056 0.02757086 0.86500645 -0.50070244 -0.032570824 0
-0.046008039 -0.076920137 0.027894786 -0.87154216 -0.49017265 -0.012040542 0
-0.044055518 -0.078028731 0.027182713 0.852265 0.52305657 0.0075008413 0
0.0038711701 -0.078166485 0.02716643 -0.83202416 0.5546509 0.009906387 0
0.006127263 -0.076978609 0.027608637 0.85227889 -0.5230369 -0.0072927717 0
-0.04726249 -0.072517648 0.027580811 0.55356771 0.83188468 0.039123341 0
0.0078155017 -0.072431102 0.027497279 0.98550814 -0.16841862 0.020221228 0
-0.04856028 -0.067603387 0.027387481 -0.83032691 -0.55393088 -0.060973309 0
0.0082104756 -0.067956358 0.027439417 -0.87299341 -0.47338083 0.11744394 0
0.010178179 -0.066468686 0.027720788 0.9918626 -0.12687279 -0.010579516 0
-0.048711099 -0.062587097 0.027432634 -0.51700938 -0.85587746 -0.013233668 0
0.0048736725 -0.061071388 0.025028303 -0.97492456 -0.085897498 0.20528933 0
0.0057799099 -0.062961876 0.027685147 -0.95623553 -0.22877851 0.18241152 0
0.010426481 -0.062387582 0.027602516 0.99992001 0.0039439835 -0.012019557 0
-0.048153639 -0.057438076 0.027517246 0.93861341 0.33544329 0.080514744 0
0.0048456658 -0.059068531 0.025228588 -0.95812935 0.044486009 0.28285903 0
0.0076556625 -0.057068788 0.02768057 -0.65111107 0.46807325 0.59746283 0
0.010149335 -0.058591582 0.027010718 0.99072915 0.13537826 -0.011329798 0
-0.046992376 -0.052395239 0.027448788 0.89856696 -0.43725193 0.037258126 0
0.0030570913 -0.05174648 0.026152454 -0.43729365 -0.54595757 0.71463609 0
0.00725492 -0.052672014 0.027435167 0.29932961 -0.28006825 0.91212034 0
-0.046071913 -0.048148002 0.02746569 -0.87186813 0.48959684 -0.011872906 0
-0.043089759 -0.047830489 0.027530195 0.12588453 -0.97114176 0.20257516 0
-0.037955564 -0.046417776 0.027358722 0.61099464 -0.77369785 0.1675625 0
-0.0056872056 -0.045276269 0.025830969 -0.45021257 -0.85574198 0.25497898 0
-0.0021850707 -0.046507284 0.027066631 -0.36886397 -0.75308734 0.54479247 0
0.0024199691 -0.047722265 0.028229494 -0.48388585 -0.47632319 0.7341463 0
0.0063398224 -0.047593981 0.027663065 0.86561584 0.50065672 -0.0072193942 0
-0.042418942 -0.042811759 0.027611941 -0.75383049 0.65697056 -0.011367812 0
-0.035869319 -0.043603234 0.028095268 0.80661744 -0.55139971 0.21290065 0
-0.034602657 -0.041888934 0.027197057 0.97757143 -0.15670101 0.14070858 0
-0.02780701 -0.040068056 0.025699789 0.023283634 -0.99463743 0.10076828 0
-0.022415306 -0.040098008 0.025599455 -0.033608019 -0.99506152 0.093397073 0
-0.016878039 -0.040595733 0.026670562 -0.22624028 -0.95582634 0.18764697 0
-0.012120081 -0.041877132 0.027626183 -0.35438621 -0.90079051 0.2509715 0
-0.0077030649 -0.043694921 0.027644128 -0.38290602 -0.87680846 0.29084346 0
-0.0026455417 -0.044501048 0.029402994 -0.049489334 -0.88236648 0.46795315 0
0.0022656284 -0.04243353 0.027574921 0.78876889 0.61451769 0.014553179 0
-0.037273463 -0.038140669 0.027349371 -0.57846886 0.81561929 -0.011794496 0
-0.033047814 -0.038049109 0.027555238 -0.50523347 -0.82759911 0.24457881 0
-0.027513035 -0.039685417 0.028127022 0.038730629 -0.97700334 0.2096771 0
-0.02251141 -0.039535116 0.028074335 -0.010482929 -0.951958 0.30604911 0
-0.018212635 -0.039568264 0.029055953 -0.1651087 -0.88572359 0.43385801 0
-0.0063884677 -0.035555787 0.027482515 0.42684773 0.90426826 -0.0100023 0
-0.0025652465 -0.037850816 0.027724665 0.57210416 0.82006836 -0.01359481 0
0.00014235161 -0.039895955 0.027578192 0.65948993 0.75159991 -0.013065085 0
-0.030822128 -0.034568831 0.027786218 -0.35201836 0.93585968 -0.015806146 0
-0.027609766 -0.033538662 0.027470937 -0.26643986 0.96380347 -0.0096223867 0
-0.022213506 -0.032594729 0.027698819 -0.081880756 0.99657655 -0.011435808 0
-0.017509347 -0.032569323 0.027694995 0.075045407 0.99711508 -0.011393583 0
-0.012252897 -0.033423681 0.027296167 0.24982882 0.96820122 -0.01311106 0
-0.0088993311 -0.034448557 0.027892489 0.35203576 0.93577611 -0.019849097 0
-0.031286497 -0.090564579 0.032370225 -0.37500876 -0.92697561 -0.0092020864 0
-0.027038278 -0.091442972 0.032563064 -0.2664775 -0.96379 -0.0099287666 0
-0.022438938 -0.09179987 0.03249171 -0.028336208 -0.99587375 0.086212173 0
-0.017394947 -0.091851115 0.032558773 -0.14531064 -0.98914343 0.021912772 0
-0.013017016 -0.091413803 0.032387096 0.26741001 -0.96353793 -0.0092948908 0
-0.0087763648 -0.090687208 0.032480065 0.36291587 -0.93174404 -0.012048078 0
-0.037091106 -0.08658617 0.032415457 -0.570131 -0.82138181 0.016810842 0
-0.032948922 -0.088382818 0.032452404 0.46116099 0.88643229 0.039602429 0
-0.028605428 -0.08959572 0.032450091 0.30006242 0.95381063 0.01441491 0
-0.011471488 -0.089527227 0.032432523 -0.35097131 0.93630099 0.012631223 0
-0.0070882454 -0.088217221 0.03253822 -0.38926467 0.92032254 -0.038463611 0
-0.0028765236 -0.08689864 0.032401588 0.47470516 -0.88011426 0.0073435204 0
0.00018851721 -0.085231364 0.032591332 0.70856839 -0.70557791 -0.0095241135 0
-0.042107049 -0.082001016 0.032516178 -0.78497165 -0.61953026 -0.0013056708 0
-0.038576413 -0.083668426 0.032591671 0.67122436 0.74102122 0.018581817 0
-0.0020476424 -0.083039187 0.032635532 -0.63317406 0.76637399 0.10845051 0
0.0022000896 -0.082297124 0.032617927 0.82424861 -0.56617534 0.0077253357 0
-0.045984734 -0.076748632 0.032552924 -0.88064921 -0.47353539 -0.014873669 0
-0.043841526 -0.077963263 0.032382067 0.83794683 0.54572976 -0.0049017924 0
0.0038785064 -0.078203097 0.032602098 -0.82779515 0.56071204 0.018898435 0
0.006264504 -0.07705041 0.032516796 0.86536229 -0.50093329 -0.014629402 0
-0.047339268 -0.072418153 0.032599784 0.91871351 0.39294782 0.039464951 0
0.0076833582 -0.072585084 0.032433368 -0.85622323 0.51478666 -0.04331854 0
-0.048443686 -0.067535385 0.032559041 0.99639285 0.072075062 0.044793393 0
0.0083806366 -0.067952789 0.032509353 -0.98286581 -0.17463779 0.058961496 0
0.010202179 -0.066652626 0.032673709 0.9921115 -0.1249758 -0.0097937146 0
-0.048869368 -0.062621452 0.032459468 -0.76810539 -0.64031047 0.0040810108 0
0.0067961905 -0.06259273 0.032549467 -0.95872581 -0.10296484 0.26503411 0
0.01047933 -0.062467527 0.03241783 0.99993318 -0.0057251803 -0.010047372 0
-0.048475489 -0.057378594 0.032377642 -0.45748442 0.87209326 0.17367005 0
0.0078871567 -0.057089578 0.032504708 -0.98288596 0.1823995 -0.025799338 0
0.010229661 -0.058713615 0.032868236 0.99028558 0.13844927 -0.012892724 0
-0.047161631 -0.052564368 0.032435291 0.7388857 -0.67372155 -0.012134366 0
0.0077947956 -0.052406918 0.032477297 0.92696273 0.37324503 0.037790451 0
-0.04603792 -0.047925033 0.032499891 -0.87322807 0.48717526 -0.011527643 0
-0.043099821 -0.047254261 0.032585859 0.52985781 -0.77862048 0.33615607 0
-0.038909379 -0.045813359 0.031382822 0.55245399 -0.74107641 0.38157606 0
0.0037510917 -0.046567153 0.032398928 -0.80451429 -0.58318567 0.11247765 0
0.0061608194 -0.048061106 0.032498077 0.84566951 0.53323436 0.022454951 0
-0.042082213 -0.042758532 0.032748606 -0.75941104 0.64656144 0.072478645 0
-0.036967073 -0.042615604 0.032817796 0.71719444 -0.53539222 0.44607994 0
-0.034980126 -0.041655056 0.030112838 0.97745585 -0.07326512 0.19802105 0
-0.011682721 -0.040627446 0.031019492 -0.33550298 -0.80381924 0.49123558 0
-0.0072560702 -0.041614555 0.032189626 -0.28614202 -0.79520416 0.53457755 0
-0.0024213409 -0.042619854 0.032634318 -0.15459406 -0.81977141 0.55143034 0
0.0023423876 -0.043046582 0.032621704 0.84587222 0.52271348 0.10616403 0
-0.037463073 -0.038381148 0.032198742 -0.56002569 0.82847506 -0.00067616929 0
-0.032956988 -0.037327096 0.032448668 -0.50433499 -0.79162699 0.34492451 0
-0.02737011 -0.03776893 0.032583851 0.25282353 -0.8084268 0.53153205 0
-0.022293905 -0.0369871 0.031858038 0.079506062 -0.64079797 0.76358151 0
-0.016876528 -0.037618883 0.032063294 -0.24354231 -0.6807754 0.6908198 0
-0.013196694 -0.038218476 0.033169735 -0.35885486 -0.6750921 0.64457268 0
-0.0067417589 -0.036607884 0.033175066 0.45932421 0.84331357 0.27900442 0
-0.0027391769 -0.037663866 0.03253866 0.56479466 0.82511711 -0.013737923 0
0.00022891916 -0.039861493 0.033063903 0.63864195 0.76914752 -0.023421425 0
-0.030985696 -0.034580749 0.032666266 -0.35010597 0.93670475 -0.003171854 0
-0.027170053 -0.033493213 0.032664493 -0.24409615 0.96965951 0.013319395 0
-0.022447631 -0.033004586 0.03292932 -0.074075326 0.98894709 0.12843905 0
-0.017487071 -0.032996748 0.032887284 0.028946802 0.98715097 0.15714639 0
-0.012462968 -0.033302948 0.032628577 0.2386865 0.9709878 -0.014544534 0
-0.0087009538 -0.034459483 0.032378942 0.37345383 0.92762208 -0.007039187 0
-0.031312358 -0.090610087 0.037223592 -0.38333008 -0.92356658 -0.0091069257 0
-0.02724036 -0.091405429 0.03771852 -0.289924 -0.95704848 -0.0014908868 0
-0.022500128 -0.09179347 0.037348613 0.76068097 0.64693731 0.053259708 0
-0.017347388 -0.091732435 0.037632678 -0.22731324 0.96780246 0.10810705 0
-0.012910105 -0.091452591 0.03789413 0.27486333 -0.96136677 0.014970687 0
-0.0085515939 -0.090655036 0.037313499 0.37110618 -0.92852193 -0.011282212 0
-0.040140498 -0.085108265 0.038597666 -0.69054294 -0.72321606 -0.010438576 0
-0.037058908 -0.086712554 0.037515555 -0.58804131 -0.80844659 0.024931248 0
-0.032869477 -0.088454179 0.037421912 0.44230554 0.89635444 0.030241782 0
-0.028950199 -0.089558288 0.037453141 0.32039157 0.94718319 0.013905477 0
-0.011221769 -0.089627802 0.037225824 -0.3142978 0.9483043 0.043997008 0
-0.0073305955 -0.088565707 0.037586454 -0.39919138 0.9088701 0.12083635 0
-0.0026546593 -0.086834379 0.037462499 0.56052536 -0.82761151 0.029503256 0
0.00019020567 -0.085287049 0.037621267 0.67864668 -0.73428833 -0.016103078 0
-0.042180985 -0.082003728 0.037355147 -0.8081314 -0.58887106 0.012433509 0
-0.038800079 -0.083774701 0.037573434 0.68340111 0.72870481 0.044184033 0
-0.0014562325 -0.083674677 0.037297178 -0.61799395 0.75580239 0.21643977 0
0.0024402817 -0.082039542 0.037513658 0.80519819 -0.58840966 0.073687531 0
-0.046021592 -0.07718955 0.037709016 -0.86732048 -0.49771491 -0.0059175072 0
-0.043802295 -0.078073293 0.037312753 0.87225515 0.48678347 0.047038604 0
0.0038002669 -0.078515418 0.037361439 -0.82617915 0.5617184 0.043595511 0
0.0061435085 -0.077221051 0.037356842 0.85848325 -0.51282191 -0.0044962144 0
-0.047486391 -0.072229229 0.037578434 0.80112469 0.593418 0.077809289 0
0.0077765635 -0.072614796 0.037483815 -0.79449099 0.59126234 0.13853858 0
-0.048739206 -0.067504734 0.03730689 0.81551212 -0.08504907 0.57245672 0
0.0086732358 -0.067828156 0.037552536 -0.99183309 0.12690337 0.01275228 0
0.010242425 -0.066784695 0.037889093 0.99129599 -0.13110498 -0.011987345 0
-0.050023057 -0.062458694 0.038336881 -0.99985474 0.0052104318 -0.016228909 0
-0.048584398 -0.06260521 0.03698422 0.97714639 -0.049867205 0.20663543 0
0.0085110823 -0.062591203 0.037605517 -0.9871648 -0.028394409 0.15716042 0
0.010537436 -0.062484242 0.037720114 0.99994034 6.2877742e-05 -0.010923363 0
-0.048603475 -0.057652526 0.037456598 0.83055615 0.10641598 0.54667372 0
0.0084173344 -0.057147902 0.037501995 -0.96948618 -0.074906223 0.23342152 0
0.010260443 -0.05845134 0.037340432 0.99107993 0.13219479 -0.016886914 0
-0.047211345 -0.052391578 0.037467986 0.74226749 -0.5920741 0.31382674 0
0.0077395802 -0.052407555 0.037475411 -0.93102455 -0.30990648 0.1927467 0
-0.04596537 -0.048087787 0.037556801 -0.86645448 0.49923551 -0.004519681 0
-0.043772042 -0.046887688 0.037416186 0.83906722 -0.53863305 0.076424077 0
0.003985364 -0.046751615 0.037422866 -0.83197844 -0.55469215 0.011331341 0
0.0062090871 -0.047724023 0.037457891 0.85902834 0.51185548 -0.0086156437 0
-0.041756015 -0.042898297 0.037568279 -0.75274265 0.65143347 0.094936267 0
-0.038383469 -0.041270174 0.037443746 0.63899702 -0.75066805 0.16786985 0
-0.0016167175 -0.040703911 0.0373284 -0.5864923 -0.80161762 0.11591374 0
0.0024115955 -0.042884696 0.037508901 0.72723293 0.68633819 -0.0084981145 0
-0.036976367 -0.038382698 0.037464257 -0.57676291 0.81541461 0.049431548 0
-0.032919198 -0.036769975 0.037415069 0.35838836 -0.86462533 0.35210887 0
-0.028366324 -0.035593625 0.037426431 0.32555416 -0.93780017 0.12060396 0
-0.011289059 -0.035920989 0.037092619 -0.4008989 -0.82887977 0.39017743 0
-0.007148867 -0.037236955 0.037255581 -0.21762051 -0.71203393 0.66756946 0
-0.0027900301 -0.038281363 0.037638914 0.60504711 0.7901696 0.097723715 0
0.00029415821 -0.039841112 0.037539311 0.63953859 0.76875776 -0.0013636034 0
-0.030902747 -0.034492146 0.037077971 -0.36322963 0.93157905 -0.01499007 0
-0.027180238 -0.033758994 0.037507102 -0.28089821 0.9597345 0.0024142982 0
-0.022462424 -0.03339484 0.037535831 0.73775005 -0.46945262 0.48511755 0
-0.017470308 -0.033292439 0.037674483 -0.20957272 0.95110714 0.22687979 0
-0.012836319 -0.033518288 0.037567489 0.24308705 0.96999753 -0.0036667171 0
-0.0086158914 -0.034426138 0.037177913 0.38236219 0.92373168 -0.022779109 0
-0.031479109 -0.090594932 0.042615399 -0.38350609 -0.92348087 -0.010303102 0
-0.027346853 -0.09137129 0.042466849 -0.28059733 -0.95978022 -0.0093286093 0
-0.022489242 -0.091755114 0.042548031 0.16603228 0.98601794 0.014203331 0
-0.01748305 -0.092038617 0.042707499 0.059168939 -0.99792796 -0.025273662 0
-0.012847641 -0.091408543 0.042596851 0.26565543 -0.96405882 0.0042212312 0
-0.0082665812 -0.090599589 0.042531271 0.37500575 -0.92700386 -0.0058819302 0
-0.040103409 -0.085219689 0.042688094 -0.67539072 -0.73734766 -0.012876439 0
-0.037022483 -0.086624525 0.042486958 -0.5820877 -0.81286013 -0.020791907 0
-0.032997329 -0.088590555 0.042452827 0.44133249 0.89681721 -0.030734666 0
-0.028565794 -0.089750923 0.042362686 0.24340864 0.96992218 0.0017987865 0
-0.011025727 -0.089718617 0.042230431 -0.32595769 0.9453826 0.0018251416 0
-0.0070633702 -0.088533059 0.042536117 -0.4190484 0.90781832 0.016259057 0
-0.0029192348 -0.086976126 0.042410024 0.55386549 -0.8326062 -0.00018728811 0
0.00038016366 -0.085197605 0.042556908 0.67655176 -0.73626572 -0.013798832 0
-0.042256456 -0.08219225 0.042296026 -0.77691686 -0.62951702 -0.010412752 0
-0.03874433 -0.083961934 0.042528808 0.64910942 0.7605716 0.013701942 0
-0.0013133016 -0.084249556 0.0425249 -0.64797997 0.76115531 0.027650772 0
0.0024354176 -0.082208999 0.04269287 0.72136563 -0.69231021 -0.018390251 0
0.0050526438 -0.080033317 0.042548843 0.80404806 -0.59448689 -0.0095954295 0
-0.046113785 -0.076876633 0.042376433 -0.86967146 -0.49342275 -0.01433427 0
-0.043915503 -0.078248702 0.042530235 0.84467542 0.53522986 0.0072375792 0
0.0039351266 -0.078461394 0.042393707 -0.83045018 0.55691719 -0.013988535 0
0.0062912498 -0.077127814 0.042452045 0.86469609 -0.5022642 -0.0055851941 0
-0.047542267 -0.072460935 0.042410269 -0.99851274 0.025193345 -0.048348308 0
0.0078223525 -0.072623491 0.042495273 -0.94840419 0.31424233 0.042205185 0
-0.050011486 -0.065219559 0.043143488 -0.99794596 -0.063951023 -0.0037694846 0
-0.048775434 -0.067793719 0.042619023 -0.85701597 0.36050326 0.36818621 0
0.008679268 -0.067899875 0.042515345 -0.98985827 0.14056644 0.020535348 0
0.010301046 -0.066675581 0.042454738 0.99075097 -0.13529557 -0.010376894 0
-0.050079033 -0.062814102 0.04282371 -0.99993128 -0.0038385915 -0.011079822 0
-0.048544012 -0.062109385 0.042673167 0.99962592 -0.017436042 0.021070378 0
0.0087903254 -0.062565871 0.042385817 -0.99955601 0.013042074 0.026791308 0
0.010575771 -0.062793575 0.042398818 0.99980408 -0.016274625 -0.011269065 0
-0.048717052 -0.057340305 0.042394295 0.67661202 -0.69155639 -0.25287545 0
0.0087491628 -0.056959778 0.04284481 -0.98890609 -0.14798509 0.012849135 0
0.010319962 -0.058387063 0.042677566 0.98999411 0.14044853 -0.013631982 0
-0.047360223 -0.052471187 0.042296637 0.65757215 -0.75233281 -0.039928623 0
0.0079167169 -0.052346729 0.04248384 0.99409634 0.10463172 0.028716248 0
-0.046075668 -0.048183117 0.042539991 -0.86986381 0.49309963 -0.01377144 0
-0.043874532 -0.046846066 0.042558622 0.83859336 -0.54462743 0.011918102 0
0.0039646537 -0.046617318 0.042359173 -0.8234427 -0.56707424 0.019206006 0
0.0063754246 -0.047976647 0.042523876 0.86473399 0.50204521 -0.013628636 0
-0.041992243 -0.04290317 0.042468131 -0.76119184 0.64850575 -0.0052189599 0
-0.038613506 -0.041187048 0.042299192 0.66957879 -0.74258637 0.015157185 0
-0.0010108879 -0.040967103 0.042257149 -0.6505869 -0.75932086 0.012983157 0
0.0023061959 -0.042710889 0.042544805 0.73775071 0.67505378 -0.0051233699 0
0.005000982 -0.044952206 0.041546114 0.79940122 0.60060883 -0.015055983 0
-0.037161086 -0.038482007 0.042557567 -0.58487052 0.81096274 -0.016307872 0
-0.032782171 -0.036599666 0.042593565 0.42917159 -0.90322161 -0.0015758418 0
-0.028533867 -0.035445388 0.042683009 0.30673206 -0.95167297 0.015295416 0
-0.011153273 -0.035316665 0.042489845 -0.29872754 -0.95428455 0.010142555 0
-0.0071149478 -0.036307421 0.042516936 -0.39897299 -0.916789 0.017848119 0
-0.0030491843 -0.038032316 0.042358056 0.5559833 0.83109128 0.013035701 0
0.00027207102 -0.039771326 0.042314917 0.64502972 0.76412988 -0.0064915433 0
-0.031242238 -0.034561738 0.042355631 -0.3835488 0.92349106 -0.0073864679 0
-0.027164366 -0.033761829 0.04235737 -0.28616703 0.9581427 -0.0084279114 0
-0.022477932 -0.033356685 0.042480003 0.21410635 -0.9748491 0.061868988 0
-0.017661197 -0.033210784 0.042629093 0.12736891 0.98888004 0.076769434 0
-0.012878112 -0.033667017 0.042429961 0.27216995 0.96224719 0.0019618084 0
-0.0086459648 -0.034326453 0.042662747 0.35492751 0.93485028 -0.0090225227 0
-0.031401392 -0.090686493 0.048092559 -0.37997726 -0.92492688 -0.011291428 0
-0.027068952 -0.091327392 0.04756346 -0.31476808 -0.94833183 -0.039846592 0
-0.022456923 -0.091970399 0.04750514 -0.11494768 -0.99334735 -0.0069277086 0
-0.017501604 -0.091940805 0.047441658 -0.98423964 0.17505276 -0.025077732 0
-0.012802428 -0.091535218 0.047244415 0.26228604 -0.9648971 -0.013400399 0
-0.0086661866 -0.090797991 0.047607183 0.3689335 -0.92940009 -0.010176738 0
-0.0402411 -0.085164003 0.047899742 -0.66709596 -0.74490392 -0.010062598 0
-0.037157457 -0.086765543 0.04739029 -0.5930711 -0.80496168 -0.017418617 0
-0.033109471 -0.088513687 0.047624543 0.43750739 0.89921415 -0.0011187214 0
-0.02900007 -0.089630149 0.047453269 0.33034322 0.94385427 -0.003513105 0
-0.010712078 -0.089637794 0.047509085 -0.31935346 0.94763213 0.0025828651 0
-0.0070526442 -0.088508293 0.047538031 -0.42119905 0.90691823 0.0095154531 0
-0.0030444686 -0.087050907 0.047281284 0.55674523 -0.83068323 9.4178222e-06 0
0.00032139753 -0.085334413 0.047637898 0.656533 -0.75415069 -0.014874886 0
-0.042322509 -0.0820131 0.047457449 -0.79624641 -0.60462785 -0.020415869 0
-0.038847778 -0.083980776 0.047473371 0.66977721 0.742522 0.0077236192 0
-0.0010598158 -0.084173113 0.047474664 -0.64897925 0.76078337 0.0058692372 0
0.0023878554 -0.082224086 0.047415249 0.75685483 -0.65348917 -0.011071398 0
0.0050501446 -0.080097474 0.047218245 0.80306762 -0.59584934 -0.0067868894 0
-0.04613281 -0.077035658 0.047529332 -0.86836314 -0.49552634 -0.019980969 0
-0.043889254 -0.078220583 0.047594056 0.84258193 0.53855073 0.0043372125 0
0.0039979373 -0.078426123 0.047443721 -0.83085281 0.5564267 0.0085403826 0
0.0063814092 -0.077193186 0.0475806 0.86957908 -0.49368289 -0.010462192 0
-0.047585547 -0.072527252 0.047521338 -0.98466623 -0.12751681 -0.11904563 0
0.007940826 -0.072570935 0.047436472 0.8478722 0.49985966 0.17678495 0
-0.050047278 -0.065628089 0.047950987 -0.99593949 -0.088649847 -0.015675647 0
-0.048812184 -0.067726873 0.047596559 0.96692425 0.22189569 -0.12577665 0
0.0087352283 -0.068222925 0.047469415 -0.9879328 0.153989 0.01661738 0
0.01030857 -0.066970289 0.047413811 0.98848331 -0.15094857 -0.010740164 0
-0.050142687 -0.062413752 0.047585264 -0.9997465 0.013716081 -0.017854201 0
-0.048408099 -0.062283151 0.047224917 0.9999072 -0.012509198 0.005394001 0
0.0088428091 -0.062421873 0.047650963 -0.9999491 -0.0069328793 0.0073258919 0
0.010647301 -0.062653631 0.047530506 0.9999218 -0.0056897309 -0.011133628 0
-0.050026905 -0.059666414 0.04892002 -0.99534047 0.093616106 -0.023094235 0
-0.048624247 -0.057336852 0.047653321 0.96707392 -0.25437689 -0.0077679888 0
0.0087182838 -0.057170767 0.047351532 -0.9884932 -0.15116787 0.0054269601 0
0.010338337 -0.058119353 0.04745381 0.9885447 0.15063314 -0.0094395783 0
-0.047379851 -0.052428126 0.047475871 0.77674925 -0.62822962 -0.04458845 0
0.0079001337 -0.052326266 0.047464311 -0.69951928 -0.7140516 0.028338116 0
-0.046038229 -0.048139639 0.047091071 -0.86353087 0.50425994 -0.0060265274 0
-0.043901354 -0.046733882 0.047722366 0.83735102 -0.54658389 0.0094553623 0
0.0040631001 -0.04663907 0.047635935 -0.83011502 -0.55747211 0.011574512 0
0.006266071 -0.047756765 0.047407199 0.85534734 0.51791805 -0.011911504 0
-0.041879237 -0.042805124 0.047380742 -0.73745793 0.67524135 -0.014313143 0
-0.038407553 -0.040940147 0.047372829 0.648296 -0.76136965 0.0053415485 0
-0.00087279011 -0.040974572 0.047458537 -0.6552223 -0.75540805 0.0065260837 0
0.0023350071 -0.042734466 0.047568642 0.72988266 0.68354958 0.0055829752 0
0.0050228708 -0.04489081 0.047630154 0.82783949 0.56079292 -0.013893433 0
-0.037167065 -0.038439166 0.047559533 -0.61460537 0.78871387 -0.013808892 0
-0.033072762 -0.036590334 0.047474787 0.46603125 -0.8847301 0.0082139987 0
-0.028583372 -0.035410214 0.047654469 0.3066611 -0.95177621 0.0090062106 0
-0.011035523 -0.035289422 0.047740426 -0.31551534 -0.94881201 0.014348646 0
-0.0070722676 -0.036430288 0.04748122 -0.41333425 -0.91041589 0.017254516 0
-0.0027724153 -0.038277786 0.047621142 0.59789598 0.80141151 -0.016123068 0
0.0003095156 -0.039713368 0.047993477 0.64613432 0.76307273 -0.015185202 0
-0.031181253 -0.034494217 0.047627985 -0.37458324 0.92714351 -0.0096088788 0
-0.027068572 -0.03369252 0.047631633 -0.29101816 0.95663482 -0.012582577 0
-0.022655813 -0.033257194 0.047656871 0.45120567 0.89229035 0.015210923 0
-0.017443392 -0.033119671 0.047359377 -0.05745421 0.99800712 -0.026093066 0
-0.012621352 -0.033632342 0.047266223 0.2550239 0.96685559 -0.012373582 0
-0.0086739911 -0.034265906 0.047545452 0.36021349 0.93284601 -0.0066724601 0
-0.031601604 -0.090639748 0.05229152 -0.38436896 -0.92316043 -0.0059382538 0
-0.027145049 -0.09134689 0.052422728 -0.33004647 -0.94392514 -0.0086380458 0
-0.022502758 -0.091929615 0.05242493 -0.020084562 0.99842447 0.052396059 0
-0.017590361 -0.091959395 0.052466702 -0.043850407 0.99901003 0.0074822004 0
-0.012870181 -0.091362081 0.05265199 0.28867453 -0.95726007 0.017892083 0
-0.0082976418 -0.090722613 0.052831665 0.38119882 -0.92437774 -0.014603594 0
-0.040263426 -0.085191257 0.052708551 -0.6567992 -0.75401002 -0.0091468189 0
-0.03718245 -0.086774476 0.052373659 -0.58890384 -0.80819112 -0.004405221 0
-0.032772399 -0.088535227 0.052708473 0.42181867 0.90636009 0.024090884 0
-0.028950084 -0.089702331 0.052753024 0.32171008 0.94677013 0.011354307 0
-0.010824765 -0.089718223 0.052113649 -0.30989543 0.95070326 0.011319214 0
-0.0070111873 -0.088622883 0.052704964 -0.42681944 0.90424317 0.013020926 0
-0.0029816597 -0.087088674 0.05251627 0.55139542 -0.83398378 -0.020836558 0
0.00041453776 -0.085362993 0.052833501 0.64737231 -0.76207918 -0.012017919 0
-0.042141858 -0.082140282 0.052411854 -0.78593421 -0.61810517 -0.015921036 0
-0.038859941 -0.083967514 0.052540913 0.66011208 0.7511276 0.007703118 0
-0.0010106593 -0.084178329 0.052453402 -0.65017086 0.75968909 0.01226359 0
0.0023929235 -0.082264572 0.052578084 0.79123706 -0.61126155 -0.017414413 0
0.0050933594 -0.080102652 0.052736957 0.81609678 -0.57773799 -0.01431303 0
-0.046295118 -0.076673351 0.052349422 -0.87249273 -0.48854029 -0.0092164595 0
-0.043931156 -0.078126334 0.052588504 0.84028721 0.54208386 0.0079124095 0
0.0040390557 -0.078436695 0.05223912 -0.82964802 0.5581634 0.011741202 0
0.0063231452 -0.077344328 0.052424829 0.85442293 -0.51950073 -0.0089763748 0
-0.047680072 -0.072398834 0.052564289 -0.98355448 0.17751937 0.033280872 0
0.0081985574 -0.072401814 0.052556083 0.95611244 -0.29272947 -0.012586737 0
-0.050098613 -0.065609723 0.052758869 -0.9956972 -0.092059813 -0.010588856 0
-0.048832033 -0.067911655 0.052370723 0.99656832 0.082518667 0.0064994283 0
0.0086870678 -0.067738324 0.052405395 -0.98736084 0.15838388 0.0057625999 0
0.010415144 -0.066667721 0.052491002 0.98923182 -0.14578564 -0.01291956 0
-0.05022414 -0.062626898 0.052707072 -0.99992323 -0.0014547578 -0.012303704 0
-0.048439234 -0.062445886 0.052642789 0.99983299 -0.013474454 0.012350589 0
0.0088876411 -0.062660225 0.052586872 -0.99997669 0.0046728458 0.0049778698 0
0.010722998 -0.062329017 0.0527054 0.99977535 0.016769433 -0.012961986 0
-0.050096583 -0.059630502 0.053081408 -0.99246752 0.12142827 -0.016230021 0
-0.048631046 -0.057319898 0.052556872 0.98866373 -0.14598605 0.03510097 0
0.008649338 -0.05723596 0.052536696 -0.98641491 -0.16379467 0.012530212 0
0.010327663 -0.057751473 0.052659653 0.98733497 0.15836652 -0.0094759166 0
-0.047515742 -0.052447591 0.052484211 -0.98995894 0.14012802 0.018587153 0
0.0080836192 -0.052346002 0.052629903 0.96083987 0.27706859 -0.0044388757 0
-0.046218332 -0.048139714 0.052583728 -0.87248725 0.48858309 -0.0072488314 0
-0.044079188 -0.046758149 0.052612003 0.83892906 -0.5442245 0.0042058453 0
0.0039589298 -0.046384361 0.052185796 -0.83046162 -0.55690932 0.013616891 0
0.0063495035 -0.047763221 0.052264716 0.85595673 0.5168609 -0.013889227 0
-0.04192137 -0.042802226 0.052564811 -0.7319597 0.68130594 -0.0075709494 0
-0.038707767 -0.041139361 0.05268696 0.65572393 -0.75495249 0.0085447319 0
-0.0011600673 -0.040652506 0.052360564 -0.63233757 -0.77461261 0.011165577 0
0.0024146533 -0.04275148 0.052491542 0.73662126 0.67457169 -0.048395429 0
0.005052519 -0.044871427 0.050592072 0.82341838 0.56740284 -0.0060248566 0
-0.04002209 -0.039946645 0.054572903 -0.6562193 0.75430954 -0.019834377 0
-0.037159488 -0.038412377 0.052487634 -0.61356503 0.78946882 -0.016643075 0
-0.032854255 -0.036641859 0.052505326 0.4411076 -0.89740938 0.0089714574 0
-0.028673701 -0.035398122 0.052778073 0.3166846 -0.94850034 0.0076113767 0
-0.010808157 -0.035308313 0.052474413 -0.3204301 -0.94719028 0.012453343 0
-0.0067932634 -0.036430351 0.052725039 -0.43027177 -0.90247637 0.020066246 0
-0.0029456739 -0.037976135 0.052557535 0.5581063 0.82969975 -0.010758349 0
0.00032355616 -0.03965535 0.052997001 0.6558159 0.75485194 -0.010195636 0
-0.031216523 -0.034449682 0.052804947 -0.37175319 0.92825764 -0.011718621 0
-0.027196523 -0.033654805 0.052436877 -0.28005451 0.95991266 -0.011714526 0
-0.022466499 -0.03322836 0.052403867 0.22817788 -0.97359955 -0.0062192902 0
-0.017398572 -0.03313449 0.052591562 0.053986847 0.99774748 0.039818499 0
-0.012780555 -0.033657331 0.05234056 0.23592278 0.97176129 -0.004517471 0
-0.0085176658 -0.034270197 0.052514914 0.36241472 0.93191838 -0.013555335 0
-0.031686593 -0.090674259 0.057734318 -0.39446944 -0.91884744 -0.0106417 0
-0.027167711 -0.091464542 0.057381529 -0.25941336 -0.96564418 -0.01536114 0
-0.022615599 -0.092051767 0.057526201 -0.086529598 -0.99618787 0.011060052 0
-0.017784439 -0.091972493 0.057631385 -0.035268765 0.99839932 0.044214245 0
-0.012534278 -0.091410339 0.05732711 0.31325477 -0.94933456 -0.025203401 0
-0.0083805267 -0.090831049 0.05771089 0.38004529 -0.92482823 -0.016072659 0
-0.040249579 -0.085222036 0.057180829 -0.65225023 -0.75800312 0.00099147705 0
-0.037354842 -0.086860992 0.057501752 -0.59688503 -0.80221838 -0.013185808 0
-0.03282794 -0.088616587 0.057453837 0.41842291 0.90822655 0.0068418109 0
-0.028989611 -0.089734472 0.057219427 0.31519288 0.94898719 0.0087597454 0
-0.01071961 -0.089784227 0.057181098 -0.31927547 0.94756496 0.013553378 0
-0.0071970443 -0.088704154 0.057415415 -0.42181134 0.90654641 0.015772177 0
-0.0028229612 -0.087073252 0.057783924 0.53442699 -0.84507418 -0.015407491 0
0.00051333936 -0.085352942 0.057621241 0.65711904 -0.75365692 -0.013992782 0
-0.042153716 -0.082328223 0.057435438 -0.75973636 -0.650213 -0.00487555 0
