# .PCD v0.7 - Point Cloud Data file format
VERSION 0.7
FIELDS x y z normal_x normal_y normal_z curvature
SIZE 4 4 4 4 4 4 4
TYPE F F F F F F F
COUNT 1 1 1 1 1 1 1
WIDTH 635
HEIGHT 1
VIEWPOINT 0 0 0 1 0 0 0
POINTS 635
DATA ascii
-0.0024469888 -0.05217728 0.0067912098 -0.53766936 -0.66585958 0.51724529 0
0.0025364845 -0.052487314 0.0068505849 -0.16191871 -0.27809122 0.94680911 0
0.0069485363 -0.052985583 0.0078199673 0.70297819 0.44965866 -0.55102521 0
-0.03589515 -0.049048632 0.0078781163 -0.67873842 0.61972713 -0.39402094 0
-0.032527551 -0.047632039 0.0075051016 -0.20713526 0.25998092 -0.94313574 0
-0.027732927 -0.047447547 0.0067601786 0.047633532 -0.086016394 0.99515438 0
-0.022588631 -0.047689371 0.006754328 0.30071142 -0.83133203 0.46739677 0
-0.017420771 -0.047319531 0.0066767484 0.19580613 -0.95919132 -0.20399019 0
-0.012532205 -0.047505889 0.0066362857 -0.62393814 -0.72391862 0.29435191 0
-0.0074459109 -0.047387235 0.0067490009 -0.12513463 -0.3947545 0.91022539 0
-0.0023996513 -0.04717622 0.006848745 -0.20887569 -0.41102529 0.88737208 0
0.0024049233 -0.047815342 0.0076791928 0.56525618 0.63970983 -0.52082324 0
0.0054231617 -0.049330465 0.0083370917 0.73850858 0.62651402 -0.24916889 0
-0.030756243 -0.04439858 0.0078434953 -0.50010163 0.78760529 -0.35996705 0
-0.027222179 -0.043452781 0.0079766465 -0.16243127 0.34267226 -0.92530632 0
-0.022358274 -0.042349521 0.0076702391 -0.058017626 0.79717213 -0.60095799 0
-0.017415678 -0.04230269 0.0073898612 0.019111015 -0.86824769 0.49576265 0
-0.012582395 -0.042168286 0.007215362 0.06907592 0.63681877 -0.76791298 0
-0.0076240748 -0.042508855 0.0076336414 0.16565417 0.54839212 -0.81964916 0
-0.002970756 -0.043432496 0.0081075868 0.4267517 0.79309797 -0.43460155 0
0.00047693355 -0.04463084 0.008818238 0.56751293 0.81900859 -0.08458133 0
-0.020270038 -0.0399931 0.0092293322 -0.17531669 0.98195994 -0.070843078 0
-0.017090708 -0.039738663 0.0086181127 -0.060523666 0.98982364 -0.12878692 0
-0.012879266 -0.039747715 0.0087364791 0.10082718 0.99026823 -0.095930994 0
-0.017203679 -0.095192671 0.012650306 -0.08391545 -0.99646884 -0.0028409883 0
-0.013212057 -0.095175095 0.012637217 0.097547121 -0.9951973 -0.0081822434 0
-0.030609094 -0.090765558 0.012564627 -0.54594696 -0.83777702 -0.0084591564 0
-0.027295424 -0.091877475 0.012539877 -0.41419837 -0.91007358 0.014344677 0
-0.022417691 -0.093429841 0.012488522 0.2836608 -0.93083251 -0.23040718 0
-0.018031739 -0.093798965 0.012502472 0.05210188 0.99818599 -0.030169003 0
-0.012251517 -0.093527541 0.012487416 -0.14986855 0.98849851 -0.020251023 0
-0.0074475268 -0.093099236 0.012699313 0.25091195 -0.84121102 0.47896475 0
-0.0028155383 -0.091595799 0.012603267 0.45909107 -0.88758528 -0.037784167 0
0.0003865718 -0.090338826 0.012327868 0.57328135 -0.81930119 -0.0096972706 0
-0.036122292 -0.086078346 0.012281725 -0.72741586 -0.68615115 -0.007924282 0
-0.032812174 -0.087646879 0.012560668 0.61372274 0.78878212 -0.034163713 0
-0.029143833 -0.089552149 0.012447926 0.51976913 0.85385108 -0.027898401 0
-0.0014543768 -0.089334749 0.013146054 -0.50466889 0.86089128 -0.064617805 0
0.002431304 -0.087642744 0.012680436 0.44584826 -0.79883379 -0.40383658 0
0.0055637765 -0.085725322 0.012562416 0.7510829 -0.66013634 -0.0097176693 0
-0.040175714 -0.080233067 0.012298498 -0.88914013 -0.45738423 -0.015154635 0
-0.037483126 -0.082694717 0.01243146 0.81294799 0.58036351 -0.047893096 0
-0.034946486 -0.084905192 0.011869559 0.7602452 0.64963007 0.0028323857 0
0.004569259 -0.08402624 0.012527142 -0.81749696 0.57543838 -0.023862578 0
0.0071256761 -0.082249999 0.012350699 0.81723517 -0.57542044 -0.031907845 0
-0.041246124 -0.07694684 0.012346053 -0.93230736 -0.36150166 -0.0109292 0
-0.039126575 -0.078290142 0.01270462 0.9094193 0.41414154 0.037991796 0
0.0086378139 -0.077825308 0.012452798 -0.92728978 0.3725678 0.036426812 0
0.010756522 -0.076835617 0.012488589 0.94333524 -0.33172992 -0.0085955048 0
-0.041838456 -0.072526649 0.012300239 0.93255335 0.30231154 -0.19736238 0
0.0096294647 -0.072856911 0.01255436 -0.99603087 0.088995129 0.0015403815 0
0.011903105 -0.072521679 0.012685061 0.98446155 -0.17526698 -0.010816758 0
-0.042422108 -0.067313172 0.012543819 -0.28071415 -0.34723058 -0.89477956 0
0.009599926 -0.068414904 0.012648528 -0.97253871 0.22320502 -0.065939188 0
0.011644893 -0.067054383 0.01257527 0.989667 0.099251933 -0.10348133 0
-0.041715495 -0.062245209 0.012597419 0.93622881 -0.34790108 -0.049401257 0
0.0095414193 -0.061508745 0.01260468 -0.96866381 -0.24117695 -0.059363917 0
0.011499864 -0.062771693 0.012253551 0.9824568 0.17782696 -0.056180041 0
-0.041296802 -0.057668999 0.012708765 -0.93214798 0.362064 -0.0031178009 0
-0.039141711 -0.057095792 0.01246905 0.90999293 -0.41172534 0.048938576 0
0.0085812761 -0.057253856 0.012633214 -0.93706143 -0.34856173 -0.020510221 0
0.010785154 -0.05801484 0.013031952 0.93973148 0.34190217 -0.0027847872 0
-0.040218417 -0.054618839 0.012507007 -0.88272405 0.46975186 -0.011464264 0
-0.037719764 -0.05273167 0.012561465 -0.92067027 -0.23219569 -0.31376964 0
-0.034020949 -0.051295664 0.012660512 0.73863816 -0.63089418 -0.23745775 0
-0.00025991775 -0.050350834 0.014526721 -0.67124307 -0.66315097 -0.33115482 0
0.0027265958 -0.051548384 0.012713805 -0.48299021 -0.74025208 -0.46770421 0
0.0072957464 -0.052848745 0.012578431 0.90883547 0.37373236 -0.1853164 0
-0.036094669 -0.048693348 0.011959445 -0.74405277 0.66796815 -0.014281107 0
-0.032582022 -0.047023281 0.01240708 0.76529384 0.13761723 -0.62879801 0
-0.029150615 -0.045526162 0.012476266 0.50104243 -0.86463207 -0.036985919 0
-0.020881942 -0.045244403 0.014550322 -0.11586634 -0.88856769 -0.44387206 0
-0.018311059 -0.045262367 0.014389638 0.012674319 -0.89466864 -0.44655061 0
-0.012755613 -0.045200687 0.014493058 0.037392251 -0.91227192 -0.40787476 0
-0.0017938361 -0.04692572 0.012639273 -0.67825282 -0.64334249 -0.35508242 0
0.0028560117 -0.047311325 0.012424283 0.6365726 0.74109787 -0.21342275 0
0.0055706501 -0.049113572 0.012854825 0.76122475 0.64838678 -0.01146603 0
-0.031070977 -0.044274919 0.013076046 -0.56157935 0.82739806 -0.0064119808 0
-0.027109772 -0.043098815 0.012542319 -0.60374564 0.79421562 -0.068648741 0
-0.022634482 -0.042225499 0.012326464 -0.46891269 -0.038641725 -0.88239878 0
-0.017351963 -0.043205366 0.011531313 0.042007636 -0.73080599 -0.68129146 0
-0.012599552 -0.043357812 0.011986564 -0.051144458 -0.76713127 -0.63944817 0
-0.0076321838 -0.042476207 0.01240177 0.50754821 -0.50528437 -0.69791299 0
-0.0027813932 -0.043151226 0.012350353 0.49190846 0.86994308 -0.03500231 0
0.00064441335 -0.044644799 0.012403131 0.57973254 0.8147977 -0.0038495697 0
-0.020348743 -0.039978117 0.012461775 -0.14189784 0.98988122 0.00048326381 0
-0.017444443 -0.039666496 0.012559476 -0.074901231 0.99716669 -0.0069626477 0
-0.012685297 -0.039697129 0.012688423 0.094434097 0.99550474 -0.0072520431 0
-0.017411366 -0.095218502 0.017521717 -0.082689136 -0.99656785 -0.0038788044 0
-0.013196527 -0.095232964 0.017807964 0.09661974 -0.99527502 -0.0096043125 0
-0.031008588 -0.090562969 0.017806856 -0.56103909 -0.82769263 -0.012652642 0
-0.02725591 -0.091941275 0.017437387 -0.38034955 -0.9248386 -0.0028008095 0
-0.022509096 -0.093335353 0.017571554 0.38868654 0.9149254 0.1087855 0
-0.017893106 -0.093555607 0.017359696 0.081344105 0.99668539 0.0012375411 0
-0.012115287 -0.093635619 0.01744106 -0.10315926 0.99465364 0.004729121 0
-0.0073541366 -0.093181454 0.017565548 0.0068735559 -0.98799509 -0.15433246 0
-0.0029043308 -0.091697335 0.017505255 0.42485356 -0.90523767 0.0066447258 0
0.0005174689 -0.090343677 0.01764654 0.56839454 -0.8225323 -0.019188909 0
-0.035945069 -0.086328335 0.01772242 -0.7223528 -0.69130367 -0.017482957 0
-0.032929223 -0.087737158 0.017475685 0.58284396 0.81235766 0.019180872 0
-0.029273978 -0.089477755 0.017683709 0.58266652 0.81252724 0.017294265 0
-0.0013991361 -0.089282028 0.017198605 -0.51222354 0.85755074 0.047263291 0
0.0024781995 -0.087526314 0.017629754 -0.67731935 0.70908266 -0.19606212 0
0.0055540847 -0.085804492 0.017138669 0.75471288 -0.65593052 -0.012793231 0
-0.040228236 -0.080343634 0.017687595 -0.88954788 -0.45635882 -0.021005424 0
-0.037652045 -0.082769655 0.017473776 0.61116058 0.79044753 0.040932514 0
0.0043927808 -0.084195375 0.017775923 -0.83461177 0.55082846 -0.0033614603 0
0.0073133633 -0.082084909 0.017477201 0.90265065 -0.42953736 -0.026820421 0
-0.041199896 -0.07705082 0.017377432 -0.9292134 -0.36932772 -0.012620413 0
-0.039338779 -0.0781416 0.017653132 0.91954404 0.39293703 -0.0062666852 0
0.0086375605 -0.077917665 0.017471198 -0.93844128 0.34527037 -0.010789406 0
0.010797499 -0.076863043 0.017814888 0.94210678 -0.33513165 -0.011029677 0
-0.041969456 -0.072493479 0.017422346 -0.23392901 0.8237288 0.51647669 0
0.009725133 -0.07246878 0.017499229 -0.99807459 0.061933029 -0.0033789533 0
0.011977486 -0.072495826 0.017434796 0.98271877 -0.18444657 -0.015602753 0
-0.042438336 -0.067606889 0.01744356 -0.45688426 -0.88079411 0.12433194 0
0.0095622567 -0.068450645 0.017378734 -0.99369186 0.10342097 -0.043366667 0
0.011579794 -0.066798136 0.017590672 0.98747993 0.1561196 -0.022585733 0
-0.042044174 -0.062378183 0.017537141 -0.99094439 0.1342445 0.0027453648 0
0.0096574109 -0.062087167 0.017432705 -0.97467893 -0.22243664 0.022868428 0
0.011591589 -0.062817253 0.017695898 0.98374271 0.17945987 0.0066705099 0
-0.041301493 -0.057901919 0.017520789 -0.93360293 0.35789287 -0.017270565 0
-0.039188046 -0.056832585 0.017310357 0.88770276 -0.46020624 0.013928729 0
0.0041712229 -0.055236585 0.019143011 -0.20267352 -0.93881488 -0.278478 0
0.007945844 -0.056851313 0.01747803 -0.7605235 -0.64128685 -0.10176034 0
0.0108392 -0.058171242 0.01724584 0.94153917 0.33685559 -0.0056791799 0
-0.040273406 -0.054616887 0.017417822 -0.88427275 0.46685913 -0.010211268 0
-0.037597928 -0.05267163 0.017498288 -0.38324213 -0.8563596 0.34608337 0
-0.033252109 -0.051179081 0.017888628 0.61160594 -0.79037333 0.03532996 0
-0.00082032406 -0.051157381 0.017828017 -0.7335304 -0.62314135 -0.27134481 0
0.0021849766 -0.053455416 0.017282674 -0.48742217 -0.799806 -0.35032851 0
0.0077406 -0.05276617 0.017185127 0.87828213 0.46812603 -0.097357877 0
-0.036194623 -0.048710853 0.017654451 -0.74550802 0.6662783 -0.017059073 0
-0.032356225 -0.047194183 0.01752289 0.94009519 0.29539263 -0.17018864 0
-0.027643746 -0.045649979 0.018317355 0.057235796 -0.96215039 -0.2664406 0
-0.022835718 -0.046258584 0.017565189 -0.20037217 -0.88971013 -0.41020346 0
-0.017489342 -0.046478234 0.017526655 0.036541235 -0.94855571 -0.31449458 0
-0.012571819 -0.04627303 0.017493282 0.060065918 -0.95286012 -0.29740492 0
-0.0088663697 -0.045831192 0.018210208 0.42915466 -0.81694341 -0.38526586 0
-0.0021736659 -0.047492627 0.017526338 -0.95416021 -0.29575852 0.045881856 0
0.0030302089 -0.046523996 0.017352182 0.66180581 0.74962258 -0.0088882595 0
0.0056454157 -0.049108766 0.017828017 0.75827467 0.65177071 -0.014644961 0
-0.031106327 -0.044233456 0.017449664 -0.55744779 0.8300519 -0.016299685 0
-0.027417369 -0.042926796 0.017041028 -0.56912446 0.80392265 -0.17264339 0
-0.023180937 -0.040939189 0.017006876 -0.33311355 0.94120479 -0.056292202 0
-0.010153202 -0.040012643 0.01647329 0.19620368 0.98055816 -0.0031337342 0
-0.0072647291 -0.042351775 0.017304521 0.87138319 0.27719858 -0.40478662 0
-0.0028901191 -0.043147646 0.017596573 0.47359931 0.8802231 -0.03018336 0
0.00065266807 -0.044591308 0.017624697 0.58203506 0.81308627 -0.011217599 0
-0.020362476 -0.039939217 0.017941387 -0.15226871 0.98825783 -0.012677507 0
-0.017463496 -0.039623246 0.017383801 -0.074539371 0.99714184 -0.012326017 0
-0.012582526 -0.039684735 0.017483674 0.10544495 0.99441302 -0.0049045021 0
-0.017250896 -0.095282264 0.022596138 -0.10226412 -0.99465317 -0.014391488 0
-0.012827535 -0.095255397 0.022411093 0.10893761 -0.99379706 -0.022358604 0
-0.031027077 -0.090614974 0.022549119 -0.55533856 -0.83154333 -0.01160618 0
-0.027185073 -0.091825709 0.022504343 -0.31257826 -0.9462781 -0.082781076 0
-0.022526177 -0.093389951 0.022401692 0.4027203 0.91474456 -0.032538373 0
-0.017806601 -0.093672901 0.022434415 0.033755794 0.99938488 -0.009506207 0
-0.012263084 -0.093525551 0.022304712 -0.082426988 0.99659657 0.0010416702 0
-0.0074946815 -0.093313389 0.022565376 0.14647721 -0.98863977 -0.033702862 0
-0.0028561528 -0.091625534 0.022338856 0.43335584 -0.90075338 -0.029087521 0
0.00058193924 -0.090390384 0.022913037 0.55282295 -0.8332386 -0.010009509 0
-0.035957742 -0.086386859 0.022534329 -0.73085171 -0.68245739 -0.01037191 0
-0.032781869 -0.087814562 0.022514621 0.61868364 0.78564018 -0.00034625392 0
-0.029296653 -0.089638248 0.023013245 0.58952892 0.80721182 0.029407227 0
-0.0012818604 -0.089398928 0.022830689 -0.52628881 0.85026318 0.0085225515 0
0.0025228143 -0.087585978 0.022514792 -0.30472344 -0.94305116 0.13340944 0
0.0056695449 -0.08580602 0.022580646 0.7485314 -0.66280985 -0.019592581 0
-0.04025884 -0.08046861 0.022460829 -0.88731235 -0.46111217 -0.0072409795 0
-0.037752945 -0.082850583 0.02244593 -0.97622228 -0.10952637 0.1870667 0
0.0043957359 -0.08417286 0.022619829 -0.79640132 0.60444182 0.019874364 0
0.0073291301 -0.082050331 0.022360481 0.91743201 -0.39780763 0.0082281372 0
-0.041248519 -0.077221625 0.022534866 -0.93449408 -0.35594919 -0.004581505 0
-0.039205141 -0.078522041 0.022466516 0.91053879 0.41324466 0.01216421 0
0.0087250648 -0.077817284 0.022766676 -0.93127072 0.36393654 0.01688296 0
0.010738255 -0.077176787 0.022695504 0.934304 -0.3564156 -0.0066272663 0
-0.04207544 -0.072381854 0.022427812 -0.99607456 -0.054002494 0.07013762 0
0.009764676 -0.072508968 0.022262286 -0.99920613 0.013278823 0.03756047 0
0.011942207 -0.072347552 0.022331562 0.98024476 -0.19775482 -0.003638603 0
-0.042327132 -0.067457415 0.022560805 0.99843019 -0.051238045 0.022624534 0
0.0094085 -0.068372563 0.022298746 -0.99626797 0.085880771 -0.0086443061 0
0.012091689 -0.067153379 0.022469772 0.99873567 0.042096868 -0.027476786 0
-0.041977946 -0.062312745 0.022405569 0.69614315 -0.65419722 0.29565299 0
0.0096579185 -0.061535135 0.022024313 -0.9614166 -0.27122098 0.046014581 0
0.011335101 -0.062874973 0.022458371 0.9612065 0.27473482 -0.024552101 0
-0.041316889 -0.057722047 0.022479251 -0.93543422 0.35333157 -0.010940141 0
-0.039254159 -0.056818351 0.022782929 0.89369673 -0.44842848 0.014763286 0
0.0036828239 -0.056167535 0.022493932 -0.48980054 -0.83059555 -0.26496488 0
0.0073998817 -0.057647776 0.022168398 -0.46240589 -0.79669178 -0.38918257 0
0.010849025 -0.058044113 0.022491701 0.94052529 0.33958337 -0.0097677866 0
-0.040207099 -0.054361906 0.022214958 -0.88032174 0.47425768 -0.010650541 0
-0.037917674 -0.052607451 0.022458646 -0.76256067 -0.63747025 -0.1101492 0
-0.033010326 -0.051071022 0.022919862 0.36726341 -0.92516291 -0.095871024 0
-0.0017784907 -0.051676176 0.022700727 -0.71558845 -0.68063027 -0.15708478 0
0.0010331132 -0.054239973 0.022224061 -0.62344629 -0.77089828 -0.13050155 0
0.0079867579 -0.052285902 0.022277862 0.8423121 0.53877062 -0.015378623 0
-0.036235008 -0.048653584 0.022251228 -0.74105245 0.6712929 -0.014390171 0
-0.032133233 -0.047086131 0.02268637 0.17641775 0.70533419 -0.68657148 0
-0.027975339 -0.046983331 0.022584924 -0.080845162 -0.83662963 -0.5417701 0
-0.022429209 -0.0477845 0.022527982 0.012446372 -0.98961723 -0.14318822 0
-0.017100001 -0.047526002 0.022619836 0.055632968 -0.99545336 -0.077314489 0
-0.012761339 -0.047346003 0.022579929 0.035531197 -0.99614012 -0.080263913 0
-0.0074671176 -0.047074284 0.022516519 0.047659039 -0.89779073 -0.43783623 0
-0.0031856401 -0.047669128 0.021765484 -0.76521313 -0.25109288 -0.59279102 0
0.00327401 -0.046612449 0.022997869 0.67061096 0.74169123 -0.013231562 0
0.0056771273 -0.049070187 0.022333454 0.76169455 0.647829 -0.011791952 0
-0.031142699 -0.044175763 0.022320677 -0.55966771 0.82864189 -0.011167733 0
-0.027757434 -0.042259015 0.022408152 -0.43312091 0.90122992 -0.013815409 0
-0.022760058 -0.040420592 0.022330469 -0.24783419 0.9687466 -0.010402284 0
-0.0071445066 -0.041125525 0.022397844 0.35936832 0.93091637 -0.06518507 0
-0.0025171412 -0.042984094 0.022512155 0.49764869 0.86734319 -0.0078484779 0
0.00060300232 -0.04447303 0.022237075 0.58272874 0.81257188 -0.012412526 0
-0.020576809 -0.039926831 0.022927519 -0.16909322 0.98558933 -0.0045966227 0
-0.017536284 -0.039567959 0.022344964 -0.080094136 0.99673051 -0.010641182 0
-0.012651275 -0.039605703 0.022418402 0.099114031 0.99501467 -0.011053163 0
-0.0098594967 -0.039980441 0.02397659 0.16286056 0.98655397 -0.01370468 0
-0.017098935 -0.095344223 0.027472259 -0.10612676 -0.99431437 -0.0087243253 0
-0.012521961 -0.09533269 0.027544402 0.11136457 -0.99356037 -0.020871198 0
-0.031078864 -0.090657689 0.02769199 -0.55682296 -0.83049858 -0.014841339 0
-0.027256954 -0.092032932 0.027508037 -0.42540929 -0.90496922 -0.007597826 0
-0.022367442 -0.093520582 0.02744052 0.40703592 0.89590025 0.1780016 0
-0.017688943 -0.09347377 0.0276221 0.071374997 0.99694759 0.03164123 0
-0.012460739 -0.093443349 0.027152825 -0.082658544 0.99643928 0.016619083 0
-0.0075627924 -0.093434788 0.027551457 0.20262225 -0.9788478 -0.028304789 0
-0.0029354873 -0.091771044 0.027508702 0.46151003 -0.88708842 -0.0090880152 0
0.00057756255 -0.090427123 0.027204726 0.57150227 -0.82057559 -0.0063881013 0
-0.036360774 -0.086009279 0.027600426 -0.74584991 -0.66598713 -0.013003379 0
-0.032935094 -0.087896429 0.027630696 0.62412453 0.78076077 0.029686417 0
-0.029428365 -0.089670271 0.027201654 0.55044651 0.8345558 0.022920087 0
-0.00092772412 -0.089254148 0.027489129 -0.56443429 0.82528222 0.017978285 0
0.0024900655 -0.08760152 0.027661089 -0.71206516 0.69216871 0.11775284 0
0.0055828183 -0.085989363 0.02734633 0.74850947 -0.66308707 -0.0070000729 0
-0.040256824 -0.080480739 0.027254663 -0.90290272 -0.42982075 -0.0045687505 0
-0.037812661 -0.082816318 0.027584676 0.76265234 0.62927681 0.14957298 0
0.0045547709 -0.084256493 0.027576288 -0.79228687 0.60946745 0.028826123 0
0.0074234498 -0.082344711 0.027323522 0.87528545 -0.48360628 -0.00051917636 0
-0.041165166 -0.07697437 0.027481033 -0.93596637 -0.35205042 -0.0052496162 0
-0.039218727 -0.078662232 0.027423793 0.91091931 0.41220409 0.017716238 0
0.0086956285 -0.077823736 0.027344326 -0.9236756 0.38295442 0.013012501 0
0.010665925 -0.077441409 0.027423233 0.93280321 -0.36028162 -0.0086793238 0
-0.04202788 -0.072437629 0.027580813 0.98979795 0.140512 0.023584113 0
0.0098236259 -0.07358174 0.027560554 -0.98361963 0.17729864 0.032519333 0
0.01130388 -0.07211943 0.027402369 0.91846669 -0.39319986 0.042577051 0
-0.042382453 -0.067444317 0.027609967 0.99770802 0.027198179 -0.061958335 0
0.0097789485 -0.068277188 0.026412537 -0.98060638 0.02351632 0.19457126 0
0.011496935 -0.067166969 0.028046656 0.88368618 0.14599892 0.44472808 0
-0.04206498 -0.062594764 0.027576189 0.96094763 -0.27155542 0.053265557 0
0.0095337583 -0.061055098 0.027378798 -0.9246704 -0.37990499 -0.025630321 0
0.011386583 -0.06276951 0.027548039 0.96160978 0.27441588 -0.0015871257 0
-0.041230883 -0.058139063 0.027700841 -0.93336922 0.35891673 -0.00084825972 0
-0.039351977 -0.056728501 0.027564652 0.90049005 -0.43397623 0.027967991 0
0.0033436436 -0.056276269 0.027543165 -0.66769183 -0.72419947 0.17240322 0
0.0072797923 -0.058594588 0.02760376 -0.42448232 -0.90172088 0.0819401 0
0.010926111 -0.058137041 0.027315492 0.94396275 0.3299973 -0.0060061696 0
-0.04034429 -0.054482605 0.027924933 -0.89222962 0.45135424 -0.01434342 0
-0.037878647 -0.05246608 0.027346259 -0.86222112 -0.5052312 0.036279067 0
-0.032493856 -0.051182039 0.027676603 0.39065421 -0.91953099 0.043035373 0
-0.029996879 -0.050056018 0.02757285 0.4836148 -0.87521917 0.010401358 0
-0.0021006353 -0.051426601 0.027152462 -0.62836576 -0.75964952 0.16759785 0
0.00096466963 -0.053922553 0.02775424 -0.66812485 -0.70136601 0.24838458 0
0.0082040941 -0.052481849 0.027593382 0.84663463 0.53202683 -0.012541557 0
-0.036506783 -0.048840959 0.027375132 -0.75162148 0.65954036 -0.0084672105 0
-0.033610661 -0.046230666 0.027789123 -0.66149306 0.74993718 -0.0045901462 0
-0.027480328 -0.048642408 0.027767066 0.365879 -0.9121809 0.18454981 0
-0.02276534 -0.047556635 0.027533518 0.11868083 -0.95131487 0.28445545 0
-0.017440928 -0.047124058 0.027502881 0.069568269 -0.95939326 0.27335832 0
-0.012606059 -0.046819232 0.027534157 0.04339328 -0.94888759 0.31261709 0
-0.0071290168 -0.047709279 0.027554691 -0.45746791 -0.85620195 0.24008614 0
-0.004404692 -0.049450886 0.02793159 -0.5683974 -0.81065309 0.14059153 0
0.0034915812 -0.046767496 0.027760223 0.67791438 0.73507202 -0.010065998 0
0.0056755338 -0.048982266 0.027652519 0.7543993 0.65622914 -0.015653811 0
-0.031298719 -0.044235062 0.027316738 -0.56184363 0.82721764 -0.0065457942 0
-0.027575539 -0.042111088 0.027455354 -0.42706078 0.90418392 -0.0083982246 0
-0.023143265 -0.040461183 0.027355602 -0.25733426 0.9662807 -0.0089822132 0
-0.007487203 -0.040710118 0.02765147 0.27524859 0.9610824 0.023639333 0
-0.0027152025 -0.042485148 0.027462652 0.45035324 0.89280725 -0.0087896176 0
0.00060489739 -0.044416707 0.026884725 0.585563 0.81054968 -0.011184249 0
-0.020634398 -0.039895255 0.027599575 -0.17505737 0.98448563 -0.011953789 0
-0.017494146 -0.039522387 0.027487487 -0.072078213 0.99738479 -0.005317043 0
-0.012347697 -0.039569758 0.027500983 0.10553706 0.99428159 -0.01631275 0
-0.0097800987 -0.039934646 0.027242219 0.19949807 0.97972697 -0.018318253 0
-0.02026687 -0.095024489 0.032725826 -0.15604304 -0.98750174 -0.022157324 0
-0.017353222 -0.095367223 0.032427527 -0.086782813 -0.99619395 -0.0081529878 0
-0.01290531 -0.095455982 0.032575238 0.069547564 -0.99751723 -0.01106931 0
-0.0098224934 -0.0950469 0.032483168 0.21639463 -0.97621614 -0.013244318 0
-0.031302717 -0.090596579 0.032585997 -0.55928248 -0.82882887 -0.015674746 0
-0.027236167 -0.091918066 0.032511987 -0.85224229 0.4605709 -0.24810784 0
-0.022661906 -0.093541555 0.032478709 0.25406417 0.96718091 -0.0035455637 0
-0.017324107 -0.093601339 0.032613792 0.069879621 0.99725139 0.024627728 0
-0.01266183 -0.093503624 0.032456119 -0.11419823 0.99313468 0.025342537 0
-0.0075305467 -0.093294598 0.032815628 -0.26725027 0.9634347 0.019259172 0
-0.0028372998 -0.091683015 0.032500628 0.54615188 -0.83744955 -0.019909721 0
0.00061103422 -0.090465352 0.032656215 0.56704533 -0.82363999 -0.0087632183 0
-0.03617489 -0.08621005 0.032710359 -0.73809916 -0.67445081 -0.01804889 0
-0.032865629 -0.087872654 0.032369103 0.66111398 0.75017351 0.01296539 0
-0.02955273 -0.089728013 0.032848556 0.54552156 0.83787096 0.019457554 0
-0.0011575491 -0.089512929 0.032559171 -0.56598926 0.82435858 0.0094450088 0
0.0025989683 -0.087601677 0.032395657 -0.80941337 0.58364719 0.064852923 0
0.0057712873 -0.085818514 0.032245778 0.73955297 -0.67309695 -0.0013719647 0
-0.040302187 -0.080460429 0.032254778 -0.90499717 -0.42539409 0.0044786558 0
-0.037593525 -0.082881048 0.032492958 0.7773211 0.62910402 0.00035155486 0
0.0045264238 -0.084466383 0.032803643 -0.76092207 0.64872509 0.012387195 0
0.0072983084 -0.082387634 0.032520544 0.8837359 -0.46787918 -0.010002052 0
-0.041246053 -0.07704854 0.032672737 -0.92086518 -0.3898111 -0.0073966756 0
-0.039277129 -0.078730211 0.032643043 0.90283078 0.42986062 0.010788124 0
0.0088509442 -0.077785291 0.032622475 -0.92641026 0.37585592 0.022279451 0
0.010860033 -0.077058025 0.032334026 0.93887001 -0.34404662 -0.012453535 0
-0.042088151 -0.072599478 0.032524019 0.99782735 -0.0070779882 0.065501943 0
0.0098520825 -0.074158587 0.032172017 -0.96670115 0.25517875 0.019305224 0
0.011423999 -0.072010405 0.032511253 0.96745831 -0.2430809 0.070256829 0
-0.042533841 -0.067487262 0.032521218 -0.95204139 0.045973904 -0.30249563 0
0.011489433 -0.067386732 0.032627255 -0.94092667 -0.13766301 0.30936372 0
-0.042137071 -0.062653176 0.032552436 0.98964673 -0.14351711 -0.0014817248 0
0.0095077809 -0.061354 0.032120764 -0.91716176 -0.39679369 0.037000634 0
0.011425839 -0.062983111 0.032646056 0.98395962 0.17761745 0.016597152 0
-0.041231699 -0.057878591 0.032627158 -0.92665523 0.37584794 0.006956209 0
-0.039410584 -0.056420814 0.032745879 0.91190255 -0.40950084 0.027253814 0
0.0041830074 -0.055640314 0.030681046 -0.65515667 -0.5634284 0.50330716 0
0.007427834 -0.057553831 0.032428522 -0.75508994 -0.49546346 0.42936611 0
0.010756155 -0.057527639 0.032717995 0.93567109 0.35246819 -0.016907193 0
-0.040275354 -0.054235607 0.032057758 -0.88351703 0.46834534 -0.0070985211 0
-0.037871208 -0.052351642 0.032562315 0.056403581 -0.92049694 0.38665763 0
-0.033404805 -0.050875723 0.031714845 0.42779446 -0.85159534 0.30294761 0
-0.001025998 -0.050736077 0.03070795 -0.53044152 -0.69904304 0.47955254 0
0.0026065831 -0.052212678 0.03209649 -0.47461775 -0.56336164 0.67628521 0
0.0076592811 -0.052860644 0.032835163 0.81895751 0.50416267 0.27409607 0
-0.036371719 -0.048610676 0.032607835 -0.74453157 0.66749793 -0.010920767 0
-0.032565344 -0.047545958 0.032986786 0.24236301 -0.10612899 0.96436346 0
-0.02818387 -0.046534777 0.031578373 0.45511675 -0.62177706 0.63738686 0
-0.0223653 -0.045748137 0.030915828 0.0052762227 -0.73027384 0.68313414 0
-0.017885862 -0.045718607 0.030686771 0.05734586 -0.80440688 0.5913046 0
-0.012916218 -0.045401219 0.03046862 0.093918465 -0.80242068 0.58932209 0
-0.0062370319 -0.046486855 0.031354282 -0.63054699 -0.58912092 0.50531882 0
-0.002933271 -0.048189841 0.032625768 -0.44349629 -0.7130506 0.54301924 0
0.0027039889 -0.047272772 0.032898407 0.69696081 0.61911738 0.3618553 0
0.0058115344 -0.049025409 0.032175645 0.75601453 0.65437073 -0.015520432 0
-0.031229682 -0.044143975 0.032236885 -0.56899422 0.82230669 -0.0075748716 0
-0.027305193 -0.042718429 0.032689251 -0.40916243 0.88884002 0.20627545 0
-0.022880245 -0.042104576 0.032903813 -0.24520136 0.062928155 0.96742767 0
-0.017239854 -0.042548921 0.033257488 0.13137659 -0.70632076 0.69559401 0
-0.012752717 -0.042856794 0.032924801 -0.016182788 -0.79094827 0.61166906 0
-0.007419969 -0.042098638 0.032527126 -0.01706871 0.64064127 0.7676506 0
-0.0027984148 -0.042431936 0.032580975 0.45487079 0.89054734 0.0042427354 0
0.00078022317 -0.044518072 0.032362316 0.57361799 0.81912255 0.00090548134 0
-0.020771299 -0.039868135 0.032979209 -0.17700651 0.98413926 -0.011771084 0
-0.017613586 -0.039495066 0.032185674 -0.078943595 0.99681711 -0.011118148 0
-0.012512925 -0.039496798 0.032669883 0.093555525 0.99556136 -0.010245422 0
-0.0096895993 -0.039896823 0.032286383 0.22709034 0.97383404 -0.0087861512 0
-0.020426769 -0.09508311 0.037152342 -0.15997526 -0.98683083 -0.023935124 0
-0.017616633 -0.095415749 0.037563968 -0.083349392 -0.99642444 -0.013830553 0
-0.012765494 -0.09547957 0.037297826 0.080191702 -0.99677503 -0.0029596437 0
-0.0096990997 -0.095033318 0.037314586 0.18617751 -0.9825139 0.0021076244 0
-0.031187559 -0.090743959 0.037778202 -0.55725646 -0.83026785 -0.010981362 0
-0.027350008 -0.091953374 0.037473854 -0.49319729 -0.81170541 0.31287494 0
-0.022791361 -0.093534693 0.037365839 0.2863903 0.95788223 0.021032628 0
-0.017528912 -0.09374509 0.037698749 0.078107677 0.9965359 0.028556682 0
-0.01244257 -0.093622811 0.037556168 -0.12517132 0.99157166 0.033433758 0
-0.0075789155 -0.093503706 0.037663143 -0.39184606 0.78457093 0.48052588 0
-0.0029881084 -0.091838263 0.03759294 0.43962771 -0.89809817 -0.012134264 0
0.00072600972 -0.090434104 0.037312284 0.58679265 -0.80962807 -0.01329537 0
-0.036169898 -0.086339615 0.037439324 -0.74110591 -0.6711821 -0.016630232 0
-0.033105072 -0.087966472 0.0375547 0.6836614 0.72969157 0.012541634 0
-0.029570544 -0.089802824 0.037085019 0.52206665 0.85285872 0.0088563291 0
-0.00091136183 -0.089412816 0.037772909 -0.55109537 0.83438355 0.0098941587 0
0.0025908265 -0.087672308 0.037546337 -0.82574373 0.5634023 0.0269308 0
0.0057179397 -0.085880697 0.037930768 0.74803674 -0.66365677 -0.00085631607 0
-0.040341377 -0.080488361 0.038038719 -0.89246041 -0.45084357 -0.015953248 0
-0.037692793 -0.08284726 0.037370339 0.78165573 0.6227802 0.034045003 0
0.004535689 -0.084506288 0.037642188 -0.73623097 0.67658663 0.013942783 0
0.0075352774 -0.082366534 0.037810616 0.84139949 -0.53984141 0.024863761 0
-0.041178893 -0.076899163 0.037696101 -0.89271617 -0.45055929 -0.0073589589 0
-0.039335333 -0.078779891 0.037470207 0.8958391 0.4438794 0.02105516 0
0.0088401148 -0.077763803 0.037509222 -0.92454243 0.38099152 0.0081743943 0
0.010890418 -0.077189758 0.037711598 0.94041348 -0.33972096 -0.01456229 0
-0.042213652 -0.072672509 0.037384149 -0.9437055 -0.077880733 0.32148787 0
0.0098547209 -0.07440991 0.037366878 -0.96545464 0.26025817 0.012762892 0
0.011414324 -0.072224312 0.037391402 0.98664826 -0.16144747 -0.02144656 0
-0.042622324 -0.06753435 0.03742671 0.58257085 0.15518631 0.79782736 0
0.011632096 -0.067287259 0.037488576 0.051471513 -0.25037694 0.96677923 0
-0.042285141 -0.062596217 0.037311718 0.37388459 0.52795982 0.76254094 0
0.0098409466 -0.060563065 0.037219539 -0.95957369 -0.27603745 0.054969676 0
0.011352915 -0.062908545 0.037558004 0.91801727 0.13848692 0.37157181 0
-0.041305985 -0.05801785 0.037435919 -0.92731529 0.37423646 0.0057728183 0
-0.039465118 -0.056330442 0.037176628 0.90114307 -0.43325645 0.015168588 0
0.0088217333 -0.057535704 0.037491489 -0.92420971 -0.37643689 0.06427756 0
0.010867582 -0.05757634 0.037562061 0.93569624 0.35253045 -0.013964209 0
-0.040391993 -0.054333549 0.03744749 -0.8921597 0.45159361 -0.010688249 0
-0.037927557 -0.052092146 0.037474405 0.75425339 -0.64556807 0.11976515 0
0.0044872095 -0.050408147 0.037820671 -0.74790215 -0.66271895 0.038026098 0
0.007490796 -0.052746076 0.037553445 0.89442205 0.43727493 0.093806803 0
-0.036203463 -0.048652403 0.037738945 -0.74511564 0.6669327 -0.0018911024 0
-0.032939423 -0.046913605 0.037570186 0.65464759 -0.72492439 0.21429233 0
-0.029637579 -0.045225594 0.036889229 0.54239953 -0.83300877 0.10908356 0
-0.0012034513 -0.045928765 0.03693822 -0.5311712 -0.76248503 0.36942348 0
0.0026855308 -0.047234114 0.037446912 0.54927939 0.48367059 0.68143588 0
0.0058405609 -0.048951279 0.037393615 0.75700325 0.65332848 -0.010393792 0
-0.031547163 -0.044298213 0.037552882 -0.55999154 0.82841533 -0.011725455 0
-0.0274448 -0.043080371 0.0376001 0.51234215 -0.83693224 0.19248363 0
-0.022855867 -0.041277919 0.0376724 0.1416578 -0.96871173 0.20379041 0
-0.017459756 -0.041219018 0.037558191 0.08097703 -0.9960863 0.035421979 0
-0.012568226 -0.041331712 0.037315261 -0.1199484 -0.99209547 0.036863863 0
-0.0070654857 -0.041727301 0.037365396 -0.42664516 -0.53341603 0.73037064 0
-0.0027936515 -0.0432708 0.03756078 0.4032447 0.85785526 0.31855628 0
0.00067409745 -0.044426806 0.037471838 0.56388164 0.82584727 -0.0037245094 0
-0.020881493 -0.039842241 0.03767081 -0.18071654 0.98349828 -0.0085261511 0
-0.017417725 -0.039419141 0.037471261 -0.072627462 0.99732673 -0.0080303764 0
-0.012556721 -0.039445989 0.037510183 0.091523983 0.99569643 -0.014557365 0
-0.009578526 -0.039876331 0.037543252 0.22108856 0.97513986 -0.014900673 0
-0.020669414 -0.09513218 0.042751405 -0.16695872 -0.98584312 -0.015433401 0
-0.017400844 -0.095529661 0.04246464 -0.086493738 -0.99603796 -0.020667458 0
-0.012452687 -0.095525809 0.042279337 0.098450013 -0.99490029 -0.021930812 0
-0.0096120453 -0.095086865 0.04235987 0.21098642 -0.97720772 -0.0234465 0
-0.03099292 -0.090939559 0.042235486 -0.55288792 -0.83314067 -0.013841874 0
-0.027442114 -0.092095695 0.04221224 -0.35796285 -0.93134028 -0.066841938 0
-0.022787349 -0.093538329 0.042616662 0.24697278 0.96899438 0.0073662819 0
-0.017627589 -0.0937998 0.042349957 0.091929086 0.99557251 0.019605586 0
-0.012217842 -0.09367869 0.042691898 -0.13321035 0.99105787 0.0077042738 0
-0.0072969068 -0.093328625 0.042451214 -0.27692705 0.95982254 -0.045301002 0
-0.0027856906 -0.0918658 0.042349059 0.47530502 -0.87979996 0.0061000804 0
0.00071968243 -0.09053576 0.042617615 0.56686342 -0.82368964 -0.014185713 0
-0.036017776 -0.08648181 0.042457987 -0.72842348 -0.68504018 -0.010916101 0
-0.032928254 -0.088038877 0.042334404 0.66577184 0.74585426 0.021195196 0
-0.029695466 -0.089760035 0.042411603 0.53089696 0.84739363 0.0085034873 0
-0.00084535038 -0.089429826 0.042329147 -0.551929 0.83367014 0.019194515 0
0.0027290983 -0.087562777 0.042374734 -0.67319316 0.739429 0.0074561662 0
0.0059292503 -0.085705206 0.042372093 0.76232946 -0.6469987 -0.015698656 0
-0.040319402 -0.080660284 0.04251875 -0.88819569 -0.45929757 -0.012417466 0
-0.037825026 -0.082742728 0.042533074 0.76534945 0.64352661 0.010667896 0
0.0046811295 -0.084506012 0.042865343 -0.76962703 0.63843268 0.0088279322 0
0.0074536684 -0.082257278 0.042361159 0.91124493 -0.26704374 -0.31356081 0
-0.04132989 -0.077087887 0.04258959 -0.92460352 -0.38072991 -0.012371955 0
-0.039384551 -0.078836657 0.042555954 0.90436131 0.42651993 0.014538456 0
0.0088536888 -0.077955715 0.042154301 -0.92084134 0.38954464 0.017498387 0
0.01087162 -0.077460364 0.042556975 0.93828171 -0.34553513 -0.015263905 0
-0.042417556 -0.072312705 0.042550869 -0.99498612 -0.090899676 0.041711554 0
0.0098722428 -0.074663006 0.041971814 -0.95858842 0.28422323 0.018039735 0
0.011505743 -0.072454721 0.042773306 0.98472291 -0.173917 0.0085734492 0
-0.042757429 -0.067588471 0.0425459 0.98930413 0.10545531 0.1007797 0
0.011840582 -0.067286618 0.042346269 0.99988741 0.010201238 -0.011009116 0
-0.042358976 -0.062372096 0.042466313 -0.97018731 0.21648559 -0.10895227 0
0.0098949866 -0.060315087 0.042297676 -0.96429229 -0.26483351 -0.0018806028 0
0.011316341 -0.06269002 0.042534977 -0.69459355 -0.68341219 -0.22469433 0
-0.04134658 -0.058016874 0.042555138 -0.91415119 0.40484378 -0.020713497 0
-0.039496571 -0.05616492 0.04215784 0.90597939 -0.42289156 0.019080309 0
0.0090401294 -0.057322711 0.042309728 -0.92899597 -0.36988798 0.012219757 0
0.010987828 -0.057753675 0.042356975 0.93660331 0.35035866 -0.0047829817 0
-0.040357672 -0.054157443 0.042196285 -0.88941514 0.45694256 -0.012007928 0
-0.037993338 -0.052102741 0.042493343 0.76166046 -0.64363253 0.07490211 0
0.0046291668 -0.050401192 0.042200882 -0.75527251 -0.65516239 0.018050149 0
0.0075379875 -0.052737288 0.042551599 0.94118637 0.32449123 0.094200224 0
-0.036184117 -0.048771359 0.042406086 -0.75036108 0.66102338 -0.0025170546 0
-0.033116225 -0.046863306 0.042539895 0.64553988 -0.7628479 0.036622506 0
-0.029829362 -0.04511733 0.042174224 0.5251233 -0.85096329 0.010348075 0
-0.00073082314 -0.045567598 0.04227012 -0.5724867 -0.8195402 0.024752602 0
0.0025908465 -0.047195662 0.042473949 -0.76338935 -0.63672268 0.10872407 0
0.0059531857 -0.049059443 0.042640489 0.76525944 0.64372194 -0.00015777859 0
-0.031310365 -0.04405478 0.042648502 -0.5599696 0.82834047 -0.016913954 0
-0.027463006 -0.042775575 0.042494666 -0.24750307 0.96866602 -0.020699518 0
-0.022811547 -0.041333184 0.042482238 0.23149566 -0.97197992 0.040801179 0
-0.017546371 -0.041098393 0.042395413 0.074418113 -0.99704343 0.019137857 0
-0.01272399 -0.041185763 0.04244905 -0.11292379 -0.99342573 0.018802946 0
-0.0073180199 -0.041645363 0.042497881 -0.30012709 -0.95331943 0.033252731 0
-0.0026113798 -0.043118928 0.042553421 0.49380472 0.86957109 -0.0017468528 0
0.00091548968 -0.044548031 0.042643506 0.57809794 0.81592649 -0.0081634503 0
-0.021047983 -0.039811198 0.042620111 -0.1805995 0.98345888 -0.013872293 0
-0.0172616 -0.039368626 0.042370483 -0.072025619 0.99736542 -0.008632198 0
-0.012605989 -0.039384216 0.042558398 0.092400648 0.9956938 -0.0074833585 0
-0.0094249016 -0.039856501 0.042656519 0.21108225 0.97742116 -0.0096032619 0
-0.021069368 -0.095141783 0.047488071 -0.19947621 -0.97974169 -0.01775991 0
-0.017650701 -0.095598921 0.047518533 -0.090430155 -0.99580008 -0.014303765 0
-0.01237049 -0.095601365 0.047627289 0.11436683 -0.99334979 -0.013283235 0
-0.0095158489 -0.095109597 0.047208082 0.23227209 -0.97264576 -0.0031467902 0
-0.031250812 -0.090845481 0.04725251 -0.56119794 -0.82758743 -0.01248741 0
-0.027520472 -0.092115171 0.047414206 -0.35630849 -0.9343397 0.007318561 0
-0.022745866 -0.093437612 0.047423095 0.26087701 0.96529526 0.012173414 0
-0.017484859 -0.093908198 0.047795597 0.077771731 0.99693048 0.0090061603 0
-0.012388335 -0.093758494 0.04737791 -0.12765065 0.99174303 0.01229417 0
-0.0072001186 -0.093478598 0.047500636 -0.44144824 0.89691907 0.02568284 0
-0.0028122053 -0.091870166 0.047331255 0.49541572 -0.86862558 -0.0072685122 0
0.00078658975 -0.090579264 0.047638714 0.56519014 -0.82487202 -0.012095726 0
-0.036346607 -0.086326994 0.047457755 -0.73749399 -0.67533219 -0.0053925733 0
-0.033073239 -0.088181049 0.047456034 0.66176093 0.74950492 0.017745975 0
-0.029722188 -0.089823157 0.046394657 0.52474302 0.85071832 0.030383427 0
-0.00073203415 -0.089476466 0.047501214 -0.5571726 0.8303023 0.012526995 0
0.0026740353 -0.087766789 0.047431197 -0.69746381 0.71609497 0.02742839 0
0.0057679289 -0.086055949 0.047229856 0.75983495 -0.64962775 -0.025190206 0
-0.04035094 -0.080767266 0.047834843 -0.88446009 -0.46628526 -0.017559726 0
-0.038031634 -0.082867041 0.04763468 0.48524109 0.87429422 0.012276247 0
0.0047640931 -0.08451727 0.047733173 -0.76016438 0.64944458 0.019284744 0
0.0075197215 -0.082514554 0.047450472 0.85625356 -0.51655567 0.00037501915 0
-0.041321285 -0.077308416 0.047383059 -0.91862381 -0.39491871 -0.013020116 0
-0.039463181 -0.078830324 0.047639295 0.8994658 0.43681452 0.012424664 0
0.0087753348 -0.077920824 0.0471595 -0.91676039 0.39924407 0.012428731 0
0.010855794 -0.077666946 0.047347296 0.93839043 -0.34546915 -0.0086287167 0
-0.042527452 -0.07256826 0.047557004 -0.98656076 -0.16016121 -0.03234566 0
0.0099386349 -0.074771151 0.047707833 -0.95726025 0.28866276 0.018073529 0
0.01154243 -0.072127938 0.047473595 0.97494847 -0.22190906 -0.015230473 0
-0.0428534 -0.067560978 0.047454935 0.93281549 -0.34763613 -0.094890602 0
0.011763483 -0.067474745 0.047294669 -0.99562943 -0.078588493 -0.050457753 0
-0.042356167 -0.062569141 0.047529642 0.97251505 -0.22144778 0.071940482 0
0.0099290693 -0.060269833 0.047503002 -0.9647001 -0.26314408 0.010439652 0
0.011430302 -0.062683038 0.047555134 0.98544818 0.16989601 -0.0052171559 0
-0.041451652 -0.057957254 0.047438782 -0.93767577 0.34745309 0.0063659847 0
-0.039532311 -0.056080163 0.047445681 0.90434015 -0.42663461 0.012323169 0
0.0089626089 -0.057389066 0.047492839 -0.92681903 -0.37538186 0.0097496612 0
0.010921594 -0.057534009 0.047493014 0.9368068 0.34984601 -0.00089760328 0
-0.040369593 -0.05406237 0.047468141 -0.88299876 0.46926802 -0.010038772 0
-0.037912007 -0.052012838 0.047482286 0.81436443 -0.5800699 0.018153779 0
0.0047581298 -0.05040184 0.04647018 -0.77987313 -0.62547803 0.023983911 0
0.0074311779 -0.052669704 0.04752874 -0.73976803 -0.66961879 0.065984152 0
-0.036399059 -0.048864216 0.047642831 -0.7562989 0.65399909 -0.017235201 0
-0.033037737 -0.046773195 0.047719918 0.61901999 -0.78508049 0.02151409 0
-0.029873373 -0.045069326 0.047578808 0.5329839 -0.84585446 0.021408016 0
-0.00081883406 -0.045410477 0.047302876 -0.55958325 -0.82866019 0.013745902 0
0.0028483428 -0.047300469 0.047382899 -0.7729941 -0.63409024 0.020239022 0
0.0058698454 -0.0489172 0.047675524 0.76321846 0.64610106 -0.0071498542 0
-0.031372245 -0.044006672 0.047296546 -0.56314778 0.82628244 -0.011041161 0
-0.02744177 -0.042712107 0.047515441 -0.27400914 0.96089745 0.039939567 0
-0.022889378 -0.04138992 0.047624335 0.2186622 -0.97573465 0.01134517 0
-0.017600991 -0.04098225 0.047596402 0.07422588 -0.99710208 0.016669836 0
-0.012595776 -0.041094892 0.047475129 -0.11698145 -0.9929496 0.019141294 0
-0.007178687 -0.041556984 0.047373079 -0.31017768 -0.95034683 0.025116457 0
-0.0027126952 -0.043171883 0.047534224 0.52778608 0.84934247 0.007696317 0
0.00079050282 -0.044414185 0.047895137 0.57117516 0.82077354 -0.0094704805 0
-0.021193288 -0.039772991 0.047739208 -0.18360591 0.98295683 -0.0092027932 0
-0.017454876 -0.03933125 0.047418218 -0.075672589 0.99705738 -0.012255728 0
-0.012523409 -0.039333764 0.047693253 0.1018915 0.9946937 -0.014232203 0
-0.0094587673 -0.039798457 0.047920562 0.21704978 0.97612774 -0.008004779 0
-0.020980464 -0.095218077 0.052105866 -0.19337483 -0.98104942 -0.012170757 0
-0.017612001 -0.09566994 0.052444674 -0.076411605 -0.99697775 -0.014023527 0
-0.012655378 -0.095697276 0.052451786 0.089198209 -0.99598402 -0.0077174371 0
-0.0094224587 -0.095156088 0.052480966 0.22683664 -0.97389704 -0.0083417892 0
-0.031328361 -0.090868317 0.052308898 -0.55899447 -0.82906735 -0.013131991 0
-0.027390881 -0.092186488 0.05254611 -0.3635051 -0.93098992 -0.033492316 0
-0.022766331 -0.093650006 0.052429762 0.20960285 0.97769141 0.013639672 0
-0.017482437 -0.093960531 0.052381326 0.0770403 0.99691844 0.014778055 0
-0.012555375 -0.093855582 0.05248642 -0.11160885 0.99364483 0.014606377 0
-0.0072474242 -0.093552917 0.052720435 -0.25080788 0.96385044 0.089931801 0
-0.0026235087 -0.091819659 0.052688282 0.47502103 -0.87977314 -0.018820047 0
0.00097627897 -0.090529457 0.052608754 0.57034051 -0.82131028 -0.012691616 0
-0.036192179 -0.086199299 0.052879538 -0.72882038 -0.68467981 0.0058654575 0
-0.03299005 -0.088195443 0.052516814 0.63783485 0.7700398 0.014332457 0
-0.02987282 -0.089830086 0.051686179 0.54427958 0.83889544 0.003759119 0
-0.00059561984 -0.089447282 0.052524418 -0.56996191 0.82162714 0.0085065011 0
0.0027837274 -0.087734587 0.052632961 -0.70944476 0.70469987 0.0092896447 0
0.0059757023 -0.085991286 0.052836485 0.75848818 -0.65139151 -0.019612934 0
-0.040459294 -0.080755018 0.052643619 -0.87966454 -0.47521147 -0.019089678 0
-0.037981667 -0.082610905 0.052551575 0.80751604 0.58971792 0.012266287 0
0.0046902858 -0.084680617 0.052334063 -0.7600773 0.64973909 0.011031767 0
0.0076940735 -0.082314193 0.052478999 0.90500611 -0.42449367 0.027732128 0
-0.041449625 -0.077029556 0.052594047 -0.93162757 -0.36318076 -0.013033989 0
-0.039459672 -0.079014063 0.052347105 0.89601779 0.44366798 0.017632356 0
0.0090362011 -0.077623479 0.05236844 -0.92433923 0.38129944 0.0144141 0
0.010963485 -0.077455282 0.052359212 0.93757337 -0.34778315 -0.0017530804 0
-0.04250266 -0.072463632 0.05267714 -0.99837595 -0.047463216 0.031507332 0
0.009958148 -0.074879199 0.051428709 -0.96512645 0.26146695 0.012879401 0
0.011571553 -0.072394595 0.052480336 0.98947132 -0.14456987 0.0067846039 0
-0.042890932 -0.067592487 0.052502528 0.99493134 -0.09237431 0.039731003 0
0.011869193 -0.067571074 0.052374598 -0.78374678 -0.58618504 0.20525114 0
-0.042471543 -0.062456224 0.052561626 -0.12396536 0.9499594 0.28672248 0
0.0099674072 -0.060160071 0.052327946 -0.95689601 -0.28982171 0.018802945 0
0.011565883 -0.062569134 0.05230955 0.96440107 0.26170534 0.037960507 0
-0.041377701 -0.057904646 0.052553914 -0.94422489 0.32926109 0.0051425053 0
-0.039577901 -0.055977028 0.052706163 0.90714437 -0.42041278 0.018497974 0
0.0089849494 -0.057346333 0.052534215 -0.92463517 -0.38065267 0.012384591 0
0.010981016 -0.057674382 0.052625366 0.94177806 0.3361235 -0.0086697051 0
-0.040554207 -0.054293353 0.052476652 -0.89406043 0.44782034 -0.010627071 0
-0.038139831 -0.052113693 0.052647822 0.78056228 -0.6249364 0.013304779 0
0.0048063574 -0.050383721 0.052353751 -0.76463526 -0.64441925 0.0075201425 0
0.0074543352 -0.052561607 0.052493241 0.522497 -0.83022016 0.19424564 0
-0.03616102 -0.048551556 0.052487597 -0.73647654 0.67641068 -0.0084067946 0
-0.032872997 -0.046619333 0.052471675 0.62028897 -0.78422046 0.015484466 0
-0.029950505 -0.045032285 0.050834328 0.57539898 -0.81771749 0.015941417 0
-0.00063520309 -0.045444496 0.052570641 -0.55729657 -0.83015358 0.016293434 0
0.0027810812 -0.047159638 0.052655503 -0.67034042 -0.74082488 0.042688627 0
0.005854114 -0.048869852 0.052542944 0.76502824 0.64399284 -0.0022211322 0
-0.031717911 -0.044163175 0.052349851 -0.57427734 0.81858593 -0.011075236 0
-0.027505487 -0.042644847 0.052484639 -0.31851006 0.9478538 0.011161954 0
-0.023061765 -0.041301861 0.052254584 0.23393217 -0.97197747 0.023141352 0
-0.017542157 -0.040916458 0.052683365 0.067834355 -0.99761873 0.012467402 0
-0.012352663 -0.041047897 0.052536078 -0.12845136 -0.99163151 0.012925806 0
-0.0071604159 -0.041453291 0.052502729 -0.26381931 -0.96390396 0.035897493 0
-0.0027236766 -0.043164685 0.052707948 0.42207593 0.90509892 0.051457282 0
0.00089370681 -0.04442263 0.052595455 0.57580167 0.81755459 -0.0075402516 0
-0.021131307 -0.039715596 0.052448213 -0.1920886 0.98132122 -0.010516149 0
-0.017582253 -0.039278343 0.052327666 -0.069551155 0.99747795 -0.014154045 0
-0.012376173 -0.03931601 0.052474372 0.10363262 0.99461341 -0.0021066524 0
-0.0092196139 -0.039824899 0.05207511 0.2238888 0.97459131 -0.0067536929 0
-0.021443883 -0.095249318 0.057760749 -0.22732522 -0.97329587 -0.031911932 0
-0.017439386 -0.095785685 0.057492729 -0.067356139 -0.99729949 -0.029272484 0
-0.012653058 -0.095744684 0.057627667 0.10315005 -0.99441338 -0.022409284 0
-0.0092314342 -0.095201045 0.057313226 0.22825161 -0.97244829 -0.047388189 0
-0.031497087 -0.090910003 0.057700343 -0.56947994 -0.82098484 -0.040943641 0
-0.02746005 -0.092260987 0.05760156 -0.18794931 -0.96417767 -0.18718024 0
-0.023023373 -0.093774535 0.05742909 0.15525232 0.98735547 -0.032030135 0
-0.017474761 -0.094026715 0.057710737 0.081412964 0.99658859 0.013531201 0
-0.012508878 -0.093919747 0.057336181 -0.11121695 0.99368572 0.014818795 0
-0.0070367814 -0.093537144 0.057622988 -0.32534623 0.94473189 -0.040389933 0
-0.0027088788 -0.091947302 0.057382312 0.42241412 -0.89962149 -0.1106682 0
0.0010138511 -0.090625107 0.057501085 0.571621 -0.81969333 -0.036774751 0
-0.036163557 -0.086421445 0.057622474 -0.71823716 -0.69405276 -0.049255889 0
-0.033039849 -0.088226408 0.057468813 0.61972308 0.78475112 0.010436244 0
-0.029814435 -0.089916088 0.055894881 0.53758889 0.8429327 0.021510614 0
-0.00044821983 -0.089413233 0.05749004 -0.56474978 0.82512641 0.014969971 0
0.0028931894 -0.087654188 0.057588611 -0.735475 0.67643118 -0.03895143 0
0.0059663788 -0.086145796 0.057357538 0.74278796 -0.66921741 -0.020349007 0
-0.040474918 -0.080878697 0.057574932 -0.88968736 -0.45578703 -0.0267311 0
-0.037908159 -0.083048984 0.057492439 0.80480778 0.59352547 0.0034351884 0
0.0047170869 -0.084717356 0.057160635 -0.76776081 0.64071357 0.0054203984 0
0.007526292 -0.082380056 0.057339869 0.12503457 0.96701622 -0.22191447 0
-0.041408025 -0.077024825 0.057629861 -0.91010565 -0.41218269 -0.042581309 0
-0.039544836 -0.078988522 0.057474736 0.89941776 0.43673524 0.017606419 0
0.0090437252 -0.077577822 0.057404045 -0.92647964 0.37623057 0.0092780413 0
0.010995724 -0.07752803 0.057762451 0.93216658 -0.36012936 -0.03704524 0
-0.04240964 -0.072618239 0.057591427 0.96462619 0.25765529 -0.055767845 0
0.011345778 -0.072600879 0.057515312 -0.95706952 0.2823745 -0.065442428 0
-0.042963494 -0.067646675 0.057560507 0.97462237 -0.20569161 -0.088329241 0
0.01199759 -0.067381553 0.05760818 0.99234837 -0.077291049 -0.096285254 0
-0.042590693 -0.062456388 0.057592519 -0.97311741 0.19375207 -0.12450964 0
0.011433805 -0.062449731 0.057462133 -0.92264211 0.270753 -0.27463484 0
-0.041386418 -0.057914574 0.057583895 -0.92926574 0.3559975 -0.098645307 0
-0.039593477 -0.055856884 0.057429388 0.89797658 -0.4398658 0.012497289 0
0.0090786573 -0.057428285 0.057448678 -0.92730629 -0.37407264 0.013139004 0
0.011025765 -0.057688352 0.057596881 0.94122124 0.33671322 -0.026959287 0
-0.040499579 -0.054051619 0.057703845 -0.88409865 0.46682119 -0.021158073 0
-0.038012244 -0.051989328 0.057395957 0.80825555 -0.58883166 -0.00045814898 0
0.004754859 -0.050221734 0.057713084 -0.76118797 -0.64812165 0.023044938 0
0.0075369449 -0.052610487 0.057594124 0.42964149 -0.7116788 -0.55580711 0
0.010012341 -0.054986402 0.059439439 0.90621281 0.4209255 -0.040001623 0
-0.03636498 -0.048609149 0.057373226 -0.74567813 0.66591632 -0.022790262 0
-0.032908119 -0.046504524 0.057619587 0.61492139 -0.78850317 0.011595313 0
-0.00047311149 -0.045457359 0.057679243 -0.57451379 -0.81826687 0.019319436 0
0.0028611838 -0.047364421 0.057419952 -0.70627135 -0.707941 -0.00047683154 0
0.0059591993 -0.048906162 0.057514995 0.76164198 0.64728028 -0.030492818 0
-0.031469125 -0.043950036 0.057140883 -0.55651671 0.83077723 -0.0099156294 0
