# .PCD v0.7 - Point Cloud Data file format
VERSION 0.7
FIELDS x y z normal_x normal_y normal_z curvature
SIZE 4 4 4 4 4 4 4
TYPE F F F F F F F
COUNT 1 1 1 1 1 1 1
WIDTH 657
HEIGHT 1
VIEWPOINT 0 0 0 1 0 0 0
POINTS 657
DATA ascii
-0.050391182 0.027529573 0.10103133 -0.88861746 -0.20944884 0.40803203 0
-0.047761194 0.02719745 0.10225304 -0.12346364 -0.45834303 0.88015813 0
-0.041765936 0.027696541 0.10293937 -0.064280532 -0.48486611 0.87222296 0
-0.037786562 0.027449356 0.10285819 0.0079758633 -0.45704249 0.88940907 0
-0.032409694 0.027153632 0.10375917 -0.23276097 -0.37498593 0.89733374 0
-0.027796336 0.026356906 0.1042074 -0.2285296 -0.45346284 0.86147875 0
-0.021695606 0.025928386 0.10440331 0.56783944 -0.46742541 0.67754829 0
-0.016949859 0.027238287 0.1028084 -0.57580829 -0.26322672 0.77405208 0
-0.012529546 0.027178828 0.10490029 -0.065661892 -0.020982239 0.99762136 0
0.0044492083 0.028673662 0.10491191 -0.35964251 0.023557991 0.93279278 0
0.089030892 0.027438184 0.10277844 0.99643278 0.08394859 0.0086256713 0
-0.050421908 0.032699052 0.10268185 -0.99996161 0.0011202791 -0.0086913435 0
-0.047601782 0.030782497 0.10416969 -0.14544289 -0.45702046 0.8774842 0
-0.043195859 0.030412978 0.10439964 -0.079135403 -0.43265882 0.89807785 0
-0.036660776 0.030687336 0.10455817 0.0043665385 -0.46607068 0.88473666 0
-0.03417385 0.030572021 0.10474916 -0.18302275 -0.43491232 0.88167679 0
-0.016283706 0.032537062 0.10418694 0.056399148 -0.24621481 0.96757299 0
-0.013039337 0.033020962 0.10483968 -0.069986098 0.063956775 0.99549562 0
0.088615425 0.032525118 0.10322037 0.99733734 0.072681695 0.0059602805 0
-0.050292253 0.036992341 0.1026408 -0.99685454 0.046577878 -0.064120308 0
-0.017992312 0.038580142 0.10154399 0.43938032 0.82174605 0.36287519 0
-0.012209494 0.036928616 0.10484709 0.046303466 0.011074328 0.99886608 0
-0.00759828 0.038994815 0.10482585 -0.044204209 0.14804091 0.98799294 0
-0.0027913013 0.039522313 0.10490794 -0.072442621 0.076946534 0.99439996 0
0.004628208 0.039934348 0.10484329 0.094822541 0.015887344 0.99536741 0
0.088287294 0.037366744 0.1024144 0.99761176 0.068826579 0.0058083287 0
-0.050124589 0.041054096 0.10343809 -0.99649829 0.056950673 -0.061219264 0
-0.048374437 0.043723624 0.10162048 -0.49636862 0.80369079 0.32817566 0
-0.043043833 0.044154517 0.10247689 0.10163251 0.96153218 0.25519902 0
-0.037195001 0.043450262 0.10280709 0.15355347 0.90479612 0.39719689 0
-0.032456309 0.0430292 0.10223264 0.046857346 0.91259766 0.40616485 0
-0.027830543 0.04328765 0.10206031 -0.032305893 0.91944641 0.39188594 0
-0.022476342 0.042427491 0.10224936 0.37849793 0.87033319 0.31505463 0
-0.017085951 0.042149302 0.10236028 -0.90715981 0.35459515 0.22654656 0
-0.012001065 0.042172331 0.10461426 -0.012846464 -0.0066506863 0.99989533 0
-0.0067412793 0.041892342 0.10492368 -0.026615538 -0.04924348 0.9984321 0
-0.0024024476 0.042274792 0.10481681 0.011391934 0.036970522 0.99925143 0
0.0020305426 0.042954218 0.10479608 0.027649313 0.096738286 0.99492574 0
0.006017949 0.042902965 0.10474823 -0.24604487 0.069858141 0.96673763 0
0.053645756 0.044222005 0.1049244 0.12199966 0.19516096 0.97315371 0
0.056327723 0.043372009 0.10499804 -0.2176109 0.02968795 0.97558397 0
0.087923378 0.042185728 0.10252902 0.99622107 0.085176826 0.016985748 0
-0.045730159 0.046003185 0.10061772 -0.5126121 0.72313935 0.46292368 0
-0.043793142 0.045699254 0.10095084 -0.40203133 -0.27329773 0.87388742 0
-0.016780779 0.047688689 0.10221862 -0.88952363 -0.2329841 0.39302161 0
-0.012959152 0.047246218 0.10449466 -0.12291148 -0.36023581 0.92472863 0
-0.0076477961 0.047208808 0.10478757 -0.050136909 -0.059287705 0.99698102 0
-0.0029901695 0.046665266 0.1047307 0.0011279295 -0.086305879 0.99626803 0
0.0025063325 0.045968253 0.10471752 -0.044108454 -0.15330303 0.9871943 0
0.0053962898 0.045640647 0.1048187 -0.19451252 -0.29573727 0.93525624 0
0.042296972 0.048931286 0.1041729 0.20616189 0.38788298 0.89835632 0
0.047828183 0.048349287 0.10421139 0.0071954313 0.36351252 0.93156153 0
0.052726306 0.047859441 0.10440516 -0.06208124 0.13099009 0.98943794 0
0.057335392 0.049112909 0.10447239 -0.19682473 0.83816493 0.50866449 0
0.063535132 0.048702586 0.10479005 0.051729318 0.76881677 0.63737345 0
0.068251505 0.048833247 0.10455288 -0.078465909 0.34805742 0.93418372 0
0.072305985 0.048958622 0.1048774 -0.17062931 0.9853285 -0.0036662307 0
0.076026373 0.04979701 0.10455891 -0.021111496 0.40198183 0.91540426 0
0.087350287 0.047924329 0.10236801 0.98336142 0.18048118 -0.02065959 0
-0.016502017 0.052361771 0.10242379 -0.9960258 0.072961695 0.051079966 0
0.039300449 0.052622534 0.10475767 0.92209285 0.036041148 0.3852866 0
0.042660348 0.052957766 0.10415854 0.045698263 -0.17995068 0.98261356 0
0.047143195 0.052781194 0.10412458 -0.022504456 -0.16269577 0.98641968 0
0.051825382 0.052285817 0.10395601 -0.011604563 -0.085243598 0.99629259 0
0.057635188 0.052526731 0.10415169 -0.026977167 -0.089837231 0.99559098 0
0.06244497 0.052486029 0.10434876 -0.068261847 0.075195491 0.99482965 0
0.067551509 0.052788999 0.10446221 -0.089058422 0.016305817 0.99589294 0
0.072502121 0.052412584 0.10453681 0.012668052 -0.020823741 0.99970287 0
0.075850986 0.052754432 0.10470007 -0.13869491 -0.076213576 0.98739815 0
0.083478697 0.05181108 0.1046292 0.35066783 0.25398427 0.90140116 0
0.086377196 0.052838825 0.10283042 0.95752233 0.14299694 0.25040543 0
-0.015833329 0.057644926 0.10158472 -0.99236733 0.11207088 0.051451109 0
0.038456291 0.058306031 0.10463448 0.33885884 0.025354389 0.94049555 0
0.042112488 0.057413906 0.10411571 0.16549356 -0.050089389 0.98493809 0
0.047639508 0.057560008 0.10392789 -0.11767048 0.24137971 0.96327025 0
0.052297644 0.057365306 0.10419838 -0.0045059868 -0.036185756 0.99933493 0
0.057652831 0.056696672 0.10419492 -0.027081462 -0.015136338 0.99951857 0
0.062113971 0.057420552 0.1045116 -0.093457535 -0.0766856 0.99266559 0
0.06770502 0.058053877 0.10456875 -0.0027841295 0.039784532 0.99920446 0
0.072881117 0.0574545 0.10463938 -0.064890616 0.019858809 0.99769479 0
0.075722717 0.056581892 0.10485748 -0.099377617 0.0019759424 0.99504787 0
0.083870701 0.057379056 0.10462109 0.2853457 -0.025204111 0.95809323 0
0.085907385 0.057353526 0.10268453 0.97641391 0.087908208 0.19720058 0
-0.015393682 0.062379312 0.10267221 -0.99923635 0.0095997248 0.037875853 0
0.033829011 0.064198673 0.10458282 0.42284459 -0.0086838342 0.90616059 0
0.037413921 0.063000277 0.10426165 0.032801215 0.086371697 0.99572283 0
0.043294966 0.062147912 0.10416004 0.055019543 -0.06327872 0.99647814 0
0.047542244 0.062068678 0.10391603 0.03506333 -0.004037051 0.99937695 0
0.052035742 0.062909305 0.10394412 -0.053572178 0.0070094699 0.99853945 0
0.05738385 0.062226564 0.10413691 0.030332914 0.043257833 0.99860334 0
0.062987641 0.062246531 0.10429941 -0.034547087 0.056462314 0.99780685 0
0.067313544 0.062803991 0.10438594 -0.030580448 0.0372281 0.99883884 0
0.072260529 0.062632203 0.10456132 -0.04813486 -0.013749015 0.99874622 0
0.077238448 0.062189288 0.10476072 0.0092629511 0.047564983 0.99882519 0
0.084132545 0.063265972 0.10448661 0.46912783 0.022529248 0.88284284 0
0.085546426 0.062343035 0.10149343 0.98742527 0.081984907 0.13516589 0
-0.015188718 0.067368075 0.10286641 -0.99751115 0.056482069 0.042206664 0
0.034117509 0.066476658 0.10444071 0.518197 -0.10901441 0.84828508 0
0.037671275 0.068120509 0.10453847 -0.028555393 -0.22790828 0.9732638 0
0.042318515 0.067587942 0.10441316 0.070806652 -0.073756129 0.9947595 0
0.047315076 0.067562275 0.10421249 -0.04694812 -0.21428554 0.97564214 0
0.052852444 0.067931592 0.10435693 0.045670234 -0.19869328 0.97899699 0
0.057782419 0.06728135 0.104427 -0.021703707 -0.18214263 0.98303258 0
0.06283015 0.066622816 0.10465586 -0.0044595813 -0.25995666 0.96560997 0
0.067831829 0.06654527 0.10463028 0.015029826 -0.040133014 0.99908131 0
0.072246797 0.067035682 0.10471518 -0.015767844 -0.027895456 0.99948651 0
0.077138439 0.066743091 0.10483039 -0.032281935 -0.14451367 0.98897606 0
0.083318092 0.067487389 0.10437042 0.30214435 0.036888044 0.95254809 0
0.085169427 0.06720414 0.10226019 0.9917174 0.078627869 0.10155942 0
-0.033861663 0.074947633 0.10420712 0.019301925 -0.99853426 -0.05056411 0
-0.025290877 0.074605256 0.1035326 -0.46335027 -0.80580729 -0.36875618 0
-0.022092251 0.073996417 0.10217076 -0.20243457 -0.94935781 -0.24029158 0
-0.017133391 0.073027842 0.10261595 -0.39077535 -0.91999531 -0.030054146 0
0.043251954 0.071350701 0.10484308 0.28917795 -0.17318855 0.94147849 0
0.045464259 0.070347421 0.10487947 -0.14586309 -0.51107097 0.84707171 0
0.050638244 0.070094049 0.10496855 0.28657633 -0.10591068 0.95218539 0
0.069551073 0.072630249 0.10487565 0.48238724 0.099921025 0.87024045 0
0.071788236 0.072466977 0.10438775 0.12160555 -0.021234041 0.99235135 0
0.077230617 0.072988883 0.10424377 -0.3144106 0.3387008 0.88680756 0
0.083014242 0.073541768 0.10293552 0.54864174 0.5531829 0.6268819 0
-0.036286961 0.07606595 0.10266745 -0.98398542 -0.16545188 -0.066319436 0
-0.032251984 0.076403789 0.10271888 -0.01814579 0.91468692 -0.40375561 0
-0.027718641 0.07673154 0.10253969 -0.051444158 0.96674913 -0.25049883 0
-0.022792011 0.077131674 0.10225357 -0.15829447 0.97591537 -0.15010662 0
-0.017485617 0.07761763 0.10277339 -0.012925787 0.99884349 -0.046310227 0
-0.01281508 0.077678725 0.10283495 -0.013320239 0.99866581 -0.049891144 0
-0.0073003122 0.077710859 0.10193447 -0.015869405 0.99863845 -0.049693227 0
-0.0021272334 0.077847667 0.10262638 -0.020057054 0.99860525 -0.048838768 0
0.0020586199 0.077924401 0.10253629 -0.018720279 0.99866247 -0.048196871 0
0.0073638777 0.07803531 0.10282297 -0.017709728 0.99868417 -0.048128322 0
0.012339613 0.078054614 0.10169527 -0.010891253 0.9983291 -0.056748729 0
0.017454106 0.078189559 0.10272178 -0.020744318 0.99887449 -0.042655677 0
0.022080839 0.078265503 0.10248034 -0.0072533526 0.99993408 -0.0089044785 0
0.027260153 0.078245804 0.10261109 0.0061194617 0.99953187 0.029974727 0
0.032245383 0.078275688 0.10259654 -0.013034135 0.99903715 0.041889898 0
0.037835933 0.078326456 0.10240401 -0.0026048897 0.99993634 0.010978772 0
0.042190023 0.078338444 0.10338463 0.0028761672 0.99979579 0.020001998 0
0.04702143 0.078347042 0.1022881 -0.021914439 0.9995299 0.021440497 0
0.051866643 0.078429453 0.10291331 -0.01880328 0.99978662 0.0085534304 0
0.057450108 0.07851994 0.10262178 -0.018645423 0.99982464 -0.0017437056 0
0.062520362 0.078636549 0.10284513 -0.022740252 0.99962449 -0.015285517 0
0.06721472 0.078742817 0.102328 -0.029810911 0.99945474 -0.014200017 0
0.071625158 0.07891465 0.10269738 -0.052909646 0.99859273 0.0036416738 0
0.07729163 0.078274488 0.10244794 0.61349028 0.7894156 -0.021278325 0
-0.035899639 -0.060067579 0.10504531 -0.090277284 -0.99584544 0.011913356 0
-0.034699276 -0.060176793 0.10501217 -0.090277284 -0.99584544 0.011913356 0
-0.011708111 -0.060073294 0.10814925 -0.013352619 -0.99990386 -0.0037256815 0
-0.007602029 -0.060150594 0.10754441 -0.014053377 -0.9995566 -0.026249222 0
-0.0028609359 -0.060111564 0.1068724 0.009048501 -0.99910456 -0.041330591 0
0.0021907066 -0.060108643 0.1078752 -0.0059904451 -0.99987698 -0.014497643 0
0.007365251 -0.060170565 0.10748158 -0.0087945182 -0.99988723 -0.012173565 0
0.011763169 -0.060161863 0.10766038 0.03643265 -0.99871314 -0.035281394 0
0.03429269 -0.060049705 0.10745776 -0.059909292 -0.99745905 -0.038551677 0
0.03762554 -0.060229301 0.10799789 -0.044750873 -0.9979046 -0.046729766 0
0.040566981 -0.060168363 0.10636388 0.29971015 -0.95169854 -0.06666144 0
-0.041928574 -0.057436056 0.10538442 -0.38836253 -0.18124649 0.90350664 0
-0.037065256 -0.057723988 0.10544096 -0.022623863 -0.093957588 0.99531913 0
-0.032946758 -0.057217311 0.10568662 0.026349176 -0.14806376 0.98862684 0
-0.027426057 -0.05766473 0.10526952 0.058700379 -0.084107064 0.99472618 0
-0.021993674 -0.057252344 0.10521331 0.025656343 -0.061587442 0.99777186 0
-0.018747933 -0.057517968 0.10514637 -0.0014028641 -0.027995676 0.99960703 0
-0.012660529 -0.057338405 0.10737374 -0.98823094 -0.15118079 -0.023321295 0
0.013709828 -0.058638819 0.10683766 0.82704747 -0.5589453 -0.05977143 0
0.017452585 -0.058380641 0.10790347 -0.29494148 -0.95380908 -0.057077661 0
0.022246342 -0.059068777 0.10704739 -0.11059731 -0.99357194 -0.02414559 0
0.027395384 -0.059574224 0.10731038 -0.078144349 -0.99641663 -0.032363921 0
0.031590734 -0.059865348 0.10722078 -0.067536868 -0.99712402 -0.034387693 0
0.041499119 -0.056813374 0.10777292 0.99791092 -0.052793644 -0.037236977 0
-0.042018194 -0.052198701 0.10577209 -0.50503427 -0.04486151 0.86193264 0
-0.037461095 -0.052280556 0.10604797 0.054087084 -0.073276564 0.99584401 0
-0.032500897 -0.052054603 0.10591432 0.071616523 0.00098050514 0.99743176 0
-0.027111314 -0.052407242 0.10554459 0.088437416 0.023802178 0.99579728 0
-0.022210725 -0.051979404 0.10529731 -0.018337244 -0.061353188 0.99794757 0
-0.018207774 -0.053269338 0.1051776 0.11490498 -0.072817683 0.99070406 0
-0.012904164 -0.052094448 0.10712244 -0.97960687 0.010082139 0.2006709 0
0.042035811 -0.052203149 0.10743008 0.98235524 -0.18368208 -0.035202201 0
0.060451407 -0.054654524 0.10500441 -0.043138597 0.058020275 0.99738294 0
0.067072682 -0.051627088 0.10526796 0.40165535 0.68895411 0.60333669 0
0.072540179 -0.052679509 0.10516202 -0.022886705 0.02440598 0.99944007 0
0.076294914 -0.051858671 0.10512217 -0.034649223 -0.12701383 0.99129552 0
-0.041814335 -0.047967549 0.1059816 -0.46480241 -0.025968824 0.88503355 0
-0.037783146 -0.047591191 0.10613338 0.12438779 0.03743621 0.99152726 0
-0.032580126 -0.04787213 0.10577665 0.05643288 0.030173102 0.99795032 0
-0.02771155 -0.046977367 0.10546166 0.054287456 0.018515689 0.9983536 0
-0.022814164 -0.047241215 0.10525206 0.019562377 -0.0047333837 0.99979746 0
-0.018646622 -0.047415603 0.10524485 0.10143746 -0.010077865 0.99479085 0
-0.012404461 -0.047842525 0.10709188 -0.99500299 0.09345115 0.035156507 0
0.043102372 -0.047007132 0.1065944 0.76429021 -0.12360688 0.63291532 0
0.045770504 -0.048644178 0.10509225 0.049173094 0.012016146 0.99871802 0
0.07315661 -0.048469283 0.10509484 -0.05000319 0.085295722 0.99510014 0
0.078343093 -0.047415845 0.10516316 -0.14426252 0.030260088 0.98907667 0
0.081189372 -0.048596814 0.10553887 0.22943313 0.18547641 0.95548886 0
-0.041632567 -0.041484013 0.10644636 -0.44921023 -0.12479509 0.8846674 0
-0.037451468 -0.042361517 0.10621309 0.1119528 -0.047030795 0.99259996 0
-0.032563295 -0.042290315 0.10582891 0.067709483 -0.07782089 0.99466538 0
-0.027463103 -0.042394087 0.10555945 0.04306436 -0.075328454 0.99622846 0
-0.021733247 -0.042934168 0.10539261 -0.014050825 -0.048111938 0.99874312 0
-0.018612387 -0.042375203 0.10541942 0.11551321 -0.073120981 0.99061096 0
-0.012371422 -0.04276403 0.10808242 -0.98673809 -0.13903454 -0.08377023 0
0.042841285 -0.0433277 0.1075794 0.99725002 -0.0080410996 0.073673837 0
0.046954609 -0.044419568 0.10503298 0.009095314 -0.072504506 0.99732661 0
0.078889467 -0.042062927 0.1052562 -0.12137785 -0.036414493 0.99193817 0
0.082013942 -0.042243108 0.10546976 0.32825196 0.013446317 0.94449449 0
-0.041625541 -0.038100854 0.1065685 -0.34682816 0.039445158 0.93709886 0
-0.038283087 -0.036992759 0.10649367 0.1691694 -0.047950331 0.98441988 0
-0.032613307 -0.03767667 0.10591887 0.089922786 -0.01510293 0.99583423 0
-0.027707066 -0.037882596 0.10558941 0.030147796 0.018655831 0.99937141 0
-0.022136277 -0.03801737 0.10566971 -0.057266448 -0.018931076 0.99817944 0
-0.018080035 -0.037820082 0.10577592 0.024742251 -0.12359322 0.99202442 0
-0.013120854 -0.037359804 0.10737558 -0.99522358 -0.077887595 -0.05885081 0
0.044060953 -0.037420861 0.10806091 0.90892357 -0.26382241 0.32288659 0
0.045957774 -0.035948183 0.10623064 0.74024105 -0.51001173 0.43809953 0
0.07865487 -0.037863497 0.10532026 0.012675347 0.12063726 0.99261576 0
0.082319386 -0.037844803 0.10538728 -0.052877679 0.10616042 0.99294204 0
-0.045986068 -0.031550713 0.10633072 -0.76651978 -0.12927946 0.62907422 0
-0.042411342 -0.032669537 0.10688949 -0.26528633 -0.34754485 0.89935297 0
-0.03823759 -0.032198265 0.10714903 0.088910356 -0.15548071 0.98382956 0
-0.032981321 -0.032531735 0.10690726 0.0056283423 -0.26640391 0.96384507 0
-0.027399553 -0.032619547 0.10725493 -0.044165276 -0.19936289 0.97892994 0
-0.022175137 -0.0334953 0.107506 0.013516906 -0.39903513 0.91683602 0
-0.017373325 -0.03222695 0.10808377 -0.62441385 -0.17651619 0.76088721 0
-0.014171002 -0.034417547 0.10644352 0.16585536 -0.97576588 0.14273351 0
0.043816701 -0.033521421 0.10945769 0.54630411 -0.4069806 0.73206472 0
0.047502235 -0.033787962 0.10735393 0.20596245 -0.93306637 0.29490113 0
0.052851275 -0.034328677 0.10770155 -0.1903704 -0.98141783 0.02404706 0
0.057461914 -0.034884103 0.10710255 -0.0094299521 -0.99850154 0.053903978 0
0.06177555 -0.032777652 0.10733073 0.934012 -0.35685077 0.016706688 0
0.082873046 -0.032033745 0.10543835 0.28647423 0.041995138 0.95716709 0
-0.045964278 -0.028681409 0.10596645 -0.85049957 -0.029978024 0.52512074 0
-0.042586602 -0.027188119 0.10784315 -0.24881954 -0.11670137 0.96149349 0
-0.0378788 -0.027772494 0.10759732 0.14599094 -0.034160942 0.98869598 0
-0.033154555 -0.02720212 0.1073657 -0.01445206 -0.03465125 0.99929494 0
-0.027860496 -0.027125474 0.10749639 -0.040065546 -0.023169905 0.99892837 0
-0.022451527 -0.027670436 0.10771674 -0.014682518 -0.046055835 0.99883091 0
-0.017854653 -0.027691795 0.10754957 -0.3997772 -0.10667264 0.91038406 0
0.062102519 -0.027587634 0.10746037 0.99989021 -0.013574791 -0.0059458199 0
0.0705484 -0.028693154 0.10511145 -0.057446446 -0.061470352 0.9964543 0
0.083601601 -0.029104294 0.10586388 -0.20102915 0.481769 0.8529278 0
0.085749507 -0.02959805 0.10677791 0.97300047 0.17668837 0.14849693 0
-0.04573492 -0.023387652 0.10655747 -0.66175073 -0.0030314226 0.74971783 0
-0.042043604 -0.02229985 0.10836174 -0.34185752 -0.09934175 0.93448627 0
-0.038506981 -0.023126187 0.10788738 0.25142634 -0.026144562 0.96752322 0
-0.031730823 -0.022277819 0.10777795 -0.062623195 -0.065792754 0.9958663 0
-0.027454199 -0.022572592 0.1079702 -0.04495918 -0.079143688 0.99584889 0
-0.022528259 -0.022641448 0.10814777 0.059183255 -0.11197982 0.99194646 0
-0.017938554 -0.022469465 0.10782788 -0.2712605 -0.37873155 0.88486165 0
0.062188789 -0.02271961 0.10775527 0.99924159 -0.026692603 -0.028348982 0
-0.045708612 -0.017862894 0.1062555 -0.91366363 -0.0042058807 0.40644923 0
-0.042854819 -0.017541911 0.10807735 -0.057441771 0.22793479 0.97198063 0
-0.038267974 -0.01739536 0.10782662 0.17351237 -0.035169747 0.98420352 0
-0.032973867 -0.0173935 0.10777175 -0.058068279 -0.01044902 0.99825794 0
-0.027173603 -0.018238084 0.10826025 -0.095149837 -0.038517978 0.99471748 0
-0.022597289 -0.017191272 0.10861469 0.036150463 -0.049425755 0.99812335 0
-0.018379426 -0.017508656 0.10850827 -0.41918135 -0.1032797 0.90200907 0
0.062528446 -0.017396245 0.10747124 0.99118841 -0.13161726 0.01491409 0
0.083051957 -0.016608262 0.10506819 0.11220215 -0.13108897 0.98500067 0
0.087818593 -0.017666638 0.10501778 -0.069031402 -0.017854182 0.9974547 0
-0.045556437 -0.012816962 0.10697099 -0.77656221 -0.010633922 0.62995076 0
-0.042031061 -0.012259671 0.1081971 -0.23128778 -0.0088881794 0.97284484 0
-0.03732511 -0.013264231 0.10791562 0.023082867 0.00093201542 0.99973309 0
-0.032660652 -0.012710055 0.10791137 -0.07084848 0.0020235525 0.99748504 0
-0.026980894 -0.012771468 0.10840245 -0.030039789 0.049786594 0.99830806 0
-0.02216305 -0.012440282 0.10846055 0.036081757 0.11494412 0.99271643 0
-0.01861106 -0.012878803 0.10874216 -0.42195272 -0.30243027 0.85468811 0
0.063665085 -0.012118736 0.10675035 0.93795031 -0.15791593 0.30872607 0
0.067293748 -0.01283141 0.10509181 -0.055877458 -0.10431419 0.99297339 0
0.072283782 -0.012507047 0.10528153 0.053031947 -0.11235105 0.99225247 0
0.077637918 -0.011547563 0.1051756 -0.072131246 -0.043972887 0.99642533 0
0.082471475 -0.012941897 0.10543413 0.037448239 -0.057319056 0.99765331 0
0.086921886 -0.01196907 0.10521827 0.015292214 -0.05741353 0.99823338 0
-0.045390125 -0.0093590291 0.10676505 -0.77066779 0.4560394 0.44508344 0
-0.043218289 -0.0077721011 0.10673019 -0.44632819 0.76291615 0.46770713 0
-0.037500724 -0.0077730948 0.1072077 -0.062607758 0.42416951 0.90341598 0
-0.032688614 -0.0074766381 0.10759497 -0.15802349 0.06476219 0.98530936 0
-0.027542582 -0.0079495413 0.10843805 -0.17941931 -0.16768374 0.9693765 0
-0.022716921 -0.0083575351 0.10906199 -0.26461622 -0.69519234 0.66834569 0
-0.01906235 -0.0099814413 0.10902053 -0.57693893 -0.4961676 0.64881378 0
0.063548289 -0.0073700948 0.10732431 0.9499504 -0.18724756 0.25006524 0
0.067735858 -0.0076454249 0.10602843 -0.0079303822 -0.3081542 0.95130336 0
0.072432376 -0.00755759 0.1056314 0.095809914 -0.033826597 0.99482465 0
0.076437801 -0.0071003577 0.10527886 0.094603591 0.21596266 0.97180772 0
0.082696274 -0.0074635134 0.10557272 0.082929388 -0.15469141 0.98447615 0
0.087314807 -0.0076527507 0.10538139 0.21153143 -0.045024451 0.97633356 0
-0.036291964 -0.0048763752 0.10585634 -0.45344844 0.80157477 0.38969535 0
-0.031747501 -0.002772247 0.10656799 -0.54141885 0.44760454 0.71169919 0
-0.028456321 -0.0024004709 0.10905115 -0.70644945 -0.010264186 0.70768905 0
0.068227187 -0.0035417269 0.10847903 0.33194342 -0.53107488 0.779598 0
0.072399832 -0.0027093515 0.1076457 0.15434189 -0.33920822 0.92796361 0
0.077586718 -0.0027983692 0.10735182 -0.079945102 -0.34107953 0.9366287 0
0.08226683 -0.0028287426 0.10712261 0.19663016 -0.17240861 0.96520042 0
0.087375171 -0.0026117372 0.10602231 0.21561539 -0.10568462 0.97074246 0
-0.030492289 8.8248045e-05 0.10527921 -0.57648015 0.57899463 0.57657254 0
-0.028204409 0.0027372162 0.10725808 -0.87865436 0.34429222 0.33080116 0
0.068778008 0.002206401 0.10865676 0.64740461 0.15406132 0.74641305 0
0.072019234 0.0023900853 0.10783912 0.10645591 0.052533947 0.99292862 0
0.077172652 0.0026257494 0.10720989 0.11719238 -0.063460328 0.99107951 0
0.082672842 0.0027019123 0.10651858 0.11692746 0.079290926 0.98997015 0
0.087171152 0.0020734251 0.10604576 0.21290022 -0.046562321 0.97596383 0
-0.026303073 0.0076356549 0.10737049 -0.87310493 0.42202649 0.24409315 0
-0.024800006 0.0098434417 0.10943787 -0.83181655 0.53459394 0.14930008 0
0.068844385 0.0076625473 0.10917076 0.72523105 -0.26488611 0.63551188 0
0.072729863 0.0074007339 0.10768649 -0.047621544 -0.12181629 0.99140954 0
0.077346891 0.0074899294 0.10751051 0.18975995 -0.012019547 0.98175687 0
0.082253508 0.0073966859 0.10638379 0.10748657 0.0033304759 0.99420094 0
0.088024929 0.0077075907 0.10593079 0.21494153 0.013602225 0.9765321 0
-0.025047787 0.010580504 0.10604881 -0.8307997 0.47824705 0.28469557 0
-0.022881847 0.012773247 0.1072814 -0.68655872 0.71808273 0.11399212 0
-0.018305946 0.014482619 0.10631044 -0.12032707 0.96965474 -0.21281676 0
0.06815026 0.013037942 0.10926732 0.32419038 0.31266168 0.89282882 0
0.072394706 0.011963822 0.10806841 0.25966403 -0.14915755 0.95411038 0
0.07707864 0.012598543 0.10740129 0.13892189 -0.042941697 0.98937184 0
0.082324922 0.012649514 0.10642315 0.079377785 -0.025895286 0.99650818 0
0.087961972 0.012386278 0.10597207 0.25792423 -0.020359615 0.96595061 0
-0.017115699 0.017637195 0.10760056 -0.90364087 0.38601995 -0.18553129 0
0.064943291 0.016442679 0.10974792 0.9646129 0.17818597 0.19434936 0
0.067161329 0.01766937 0.10897145 0.15908664 -0.040612284 0.98642892 0
0.07256031 0.01754025 0.10798769 0.15826632 -0.035754438 0.98674887 0
0.077527232 0.017588094 0.1074626 -0.13452289 -0.028588688 0.99049795 0
0.082887337 0.017708592 0.10679491 0.1241982 0.030551327 0.99178696 0
0.08704444 0.017513774 0.10622206 0.15782025 0.017385446 0.98731476 0
-0.015572512 0.020850172 0.10657573 -0.8852492 0.43284303 0.17023723 0
-0.012361853 0.022600172 0.10768457 -0.44103393 0.88241899 -0.16378571 0
-0.0094722752 0.023233112 0.10628136 -0.90096408 0.42712206 -0.076357596 0
0.033322837 0.022718191 0.10603015 0.06190268 -0.38825542 0.91947037 0
0.037179835 0.023937576 0.10630284 -0.13748151 0.99017531 0.025529495 0
0.043141957 0.024445716 0.10654122 0.17182405 0.9426313 0.28622133 0
0.045813698 0.024042372 0.10560841 -0.022983011 0.60243702 0.79783541 0
0.067959055 0.022355979 0.10933426 0.33148292 -0.16167916 0.92950463 0
0.071919821 0.022332858 0.10822202 0.23738053 -0.20572348 0.94938308 0
0.077718712 0.022573154 0.10786457 -0.025809634 -0.25422192 0.96680152 0
0.082041956 0.022712693 0.10816801 -0.052887492 -0.3573319 0.9324789 0
0.087557726 0.022645468 0.10707471 0.40764251 -0.37003395 0.83480686 0
-0.027083742 0.028528543 0.10567445 -0.21865271 -0.45445868 0.86351502 0
-0.022809139 0.028296223 0.10641073 0.05934922 -0.46493071 0.88335562 0
-0.011447594 0.029099461 0.10514996 -0.16120751 -0.11827198 0.97980815 0
-0.0073558264 0.027327741 0.10723597 -0.59064192 0.66500103 0.45707297 0
-0.0016026639 0.028673913 0.10691127 0.27486011 0.96039253 -0.045804922 0
0.0025085392 0.028237239 0.10658818 -0.37736166 0.38290659 -0.84319675 0
0.0054746238 0.027705446 0.10623764 -0.78315604 0.58667141 -0.20611492 0
0.038177319 0.026823929 0.1071616 0.82351947 -0.091687433 -0.55982947 0
0.042034753 0.02730754 0.10705366 0.11452643 0.55595839 0.82328248 0
0.047180362 0.027769718 0.10729491 -0.85470217 0.48878738 0.17484541 0
0.063982233 0.027857333 0.10905277 0.60134274 0.43177482 0.67227775 0
0.066997372 0.026992045 0.10885637 0.1530778 0.38603136 0.9096961 0
0.072857551 0.027698083 0.10828318 0.051906887 0.11600838 0.99189097 0
0.077913038 0.027771201 0.10831854 -0.12551126 0.081386514 0.98874825 0
0.082549416 0.027499931 0.10886267 0.0070324545 0.086944096 0.9961884 0
0.087805316 0.026952973 0.1075883 0.6258803 0.089575849 0.77475798 0
-0.047391176 0.033454783 0.10559218 -0.13109 -0.43499485 0.89083946 0
-0.042539246 0.033017512 0.1057127 -0.079538599 -0.4329071 0.89792264 0
-0.03765608 0.033566833 0.10603106 0.010243696 -0.45176265 0.89207935 0
-0.032715365 0.032137528 0.10589312 -0.1844722 -0.44226149 0.87770998 0
-0.027398244 0.032087516 0.10715618 -0.25402191 -0.32521686 0.91088247 0
-0.02255917 0.032246921 0.10806109 0.14970486 -0.30312961 0.94111687 0
-0.018703151 0.03264337 0.1059582 0.69899029 -0.37550455 0.60861218 0
-0.010919333 0.031394608 0.10531942 -0.25988835 0.076240093 0.96262431 0
-0.0075922296 0.032150801 0.10562547 -0.11005745 -0.022368478 0.9936735 0
-0.0021530569 0.032358557 0.10685932 -0.25409842 0.12402507 0.95919329 0
0.0013512006 0.032278124 0.10712351 -0.88454348 0.45153573 -0.11703984 0
0.039664898 0.032058734 0.10774168 0.94482934 -0.27102146 0.18396997 0
0.041631255 0.032363452 0.10684054 0.36152095 -0.11950478 0.92467362 0
0.047599953 0.032267313 0.10693534 -0.25861686 0.015276738 0.96585917 0
0.052390426 0.034066651 0.10710735 -0.32551861 0.64249074 0.69371694 0
0.06297937 0.032347545 0.10889857 0.51472479 0.14887883 0.84433019 0
0.067045875 0.03272406 0.10806013 0.0086792354 0.0069434592 0.99993825 0
0.073005609 0.032214846 0.10799751 0.021803472 0.03949083 0.99898201 0
0.077567212 0.032300655 0.1081045 -0.079304524 0.0086016478 0.9968133 0
0.08229816 0.03299306 0.10869601 -0.11178017 -0.070802204 0.99120742 0
0.087757856 0.032369871 0.10731723 0.84497094 0.090219505 0.52714753 0
-0.050205279 0.037926283 0.10611513 -0.92617947 -0.095117457 0.36488923 0
-0.047352597 0.03728269 0.10732785 -0.14025977 -0.37685654 0.91559064 0
-0.042955536 0.037532434 0.10791679 -0.060871121 -0.4464615 0.89273012 0
-0.037381113 0.037491243 0.10784068 -0.077636197 -0.33813736 0.93788898 0
-0.033081207 0.037185919 0.10804523 -0.23737207 -0.22323917 0.94541991 0
-0.027497323 0.037746809 0.10892608 -0.18117808 -0.041092958 0.98259145 0
-0.022737822 0.037082352 0.10902026 0.30145648 0.032724164 0.95291817 0
-0.017234664 0.037490919 0.10623473 0.41278383 0.14019825 0.89997441 0
-0.013481668 0.038350865 0.10514459 0.20924236 0.023537107 0.97758055 0
-0.0073251054 0.035352621 0.10564033 -0.19551443 0.19287911 0.96154654 0
-0.0023955696 0.037278175 0.10557146 0.051549114 0.15867653 0.98598397 0
0.0031283365 0.037147403 0.10692567 -0.74700791 0.39672816 0.53346592 0
0.0053456542 0.038637966 0.10627171 -0.82306081 0.47453374 0.3120715 0
0.042420626 0.037615336 0.10748167 0.71255398 0.15425411 0.68445045 0
0.047518563 0.037998505 0.10653716 0.023161924 0.28113261 0.95938939 0
0.052911632 0.036541931 0.10630355 -0.2590808 0.079645455 0.9625662 0
0.057118382 0.03769758 0.10812941 -0.46330065 0.5095976 0.72502607 0
0.062235158 0.037449311 0.10874918 0.26893893 0.091856599 0.95876712 0
0.067782685 0.037631668 0.10813808 0.0032854669 -0.01720587 0.99984658 0
0.072612412 0.037256882 0.10808812 0.011353907 -0.042901199 0.99901485 0
0.077960484 0.037094377 0.10816275 -0.047251888 -0.0092822006 0.99883991 0
0.082565457 0.037630133 0.10889172 0.032990668 0.0037995919 0.99944842 0
0.087631039 0.037380338 0.10740497 0.80330628 0.066153117 0.59188086 0
-0.050108366 0.040849205 0.10599145 -0.9707489 0.077550523 0.22722778 0
-0.046804424 0.041774739 0.10731141 -0.30491966 0.71622413 0.62773156 0
-0.042798709 0.041906789 0.1078346 0.19120456 0.64667356 0.73841321 0
-0.037532639 0.041391153 0.10637842 0.21384159 0.74726146 0.62918359 0
-0.032434259 0.040908024 0.10643289 0.01448367 0.8640855 0.50313669 0
-0.02812016 0.040971931 0.10646591 -0.025254378 0.87230366 0.48831186 0
-0.022813551 0.040683899 0.106833 0.19794376 0.8409102 0.50367486 0
-0.016689882 0.040441886 0.10528336 0.059208173 0.50183177 0.86293638 0
-0.0078700902 0.042666204 0.10507893 0.031378042 0.0076677259 0.99947816 0
0.00087797624 0.040748309 0.105045 -0.0089308443 0.094065569 0.9955259 0
0.0075377193 0.041932642 0.10798355 -0.82877213 0.40622607 0.38485998 0
0.039989024 0.043717243 0.10707963 0.97147459 0.098364063 0.21578118 0
0.041421019 0.042523265 0.10700657 0.85057992 0.15416794 0.50273871 0
0.047788218 0.042810194 0.10551362 -0.061178379 0.077256747 0.99513251 0
0.052282833 0.041654725 0.10571548 0.046958145 0.16041185 0.98593253 0
0.057418458 0.041869931 0.10576431 -0.21691106 0.37181571 0.90260881 0
0.061869808 0.042488411 0.10796198 -0.41340867 0.11546776 0.90319455 0
0.067917921 0.041839633 0.10814463 -0.00081397203 0.027145978 0.99963111 0
0.072944805 0.042667419 0.10820147 -0.0042593125 -0.0056261127 0.99997514 0
0.077506311 0.042212233 0.10824616 -0.081679285 0.00094035931 0.99665827 0
0.082637005 0.042447943 0.10903435 0.14981994 -0.028712677 0.98829633 0
0.087377116 0.043097958 0.10756857 0.70719594 0.041854367 0.70577759 0
-0.011833416 0.049605262 0.10542801 0.0083518 -0.51770031 0.85552126 0
-0.0075602708 0.049546342 0.10519919 0.038611349 -0.58696342 0.80869222 0
-0.0013598661 0.049013209 0.10536674 -0.032381076 -0.31378767 0.94894081 0
0.0027430321 0.048579887 0.1053381 -0.010452369 -0.17765541 0.98403728 0
0.0074690739 0.047772828 0.10691784 -0.85254961 0.20097567 0.48246041 0
0.039900716 0.047325555 0.10658526 0.99652052 0.04740417 -0.068554588 0
0.042161465 0.047249433 0.10662411 0.63533115 0.19428231 0.74740136 0
0.04730301 0.04589542 0.10514845 -0.031255741 0.10644549 0.99382716 0
0.057989419 0.047392 0.10533594 -0.14201519 0.10046475 0.98475301 0
0.062512614 0.046988223 0.1070743 -0.30901146 0.56328154 0.76630664 0
0.067739137 0.047013741 0.10742164 0.022472767 0.38021877 0.92462349 0
0.072490916 0.047701202 0.10746023 -0.13007902 0.58321804 0.80183303 0
0.077547178 0.048248183 0.10759103 -0.15775354 0.4636068 0.87188447 0
0.082500771 0.047652449 0.10873617 -0.016713079 0.37269959 0.92780149 0
0.086789601 0.047489129 0.10745394 0.81912684 0.22485138 0.52770549 0
-0.012559097 0.052915845 0.10606298 -0.16478813 -0.058560338 0.98458904 0
-0.0068587447 0.052292585 0.10710929 -0.12309464 -0.3905589 0.91231108 0
-0.0022962857 0.052755315 0.10691844 0.1862547 -0.31964022 0.92905289 0
0.0028384996 0.052658092 0.10596228 0.046630148 -0.29018873 0.95583266 0
0.0076437211 0.051818505 0.10620342 -0.36317092 0.083767317 0.92794931 0
0.010371966 0.05364212 0.10748377 -0.98365825 0.17032364 0.058363102 0
0.039306585 0.052774217 0.10731857 0.97249633 0.21907827 -0.079092592 0
0.040032785 0.052419759 0.1099609 0.9483586 0.18643029 -0.2566317 0
0.07775078 0.054740038 0.10506947 -0.12216547 -0.019209793 0.99232382 0
0.082344487 0.051792733 0.10594609 0.027200123 0.31694043 0.94805539 0
0.085698336 0.050192676 0.10651864 0.39531735 0.85279226 0.34127629 0
-0.015525153 0.0573714 0.10556453 -0.10475457 0.055399779 0.99295384 0
-0.012673363 0.057551391 0.10590705 -0.16329046 0.051735923 0.98522061 0
-0.0076656942 0.057652231 0.1065098 0.039277043 0.39029187 0.91985297 0
-0.0022390217 0.057898775 0.10656541 -0.01784805 0.32711425 0.94481623 0
0.0024242119 0.057348222 0.10715034 -0.20860265 0.25091186 0.94526613 0
0.007463532 0.057566706 0.10777268 -0.047461342 -0.11195864 0.99257886 0
0.010795377 0.057342846 0.1088152 -0.92373002 0.017130574 0.3826609 0
0.034081005 0.059893839 0.10876222 0.18117006 0.97673905 0.11470886 0
0.037659355 0.057027422 0.10756074 0.84713233 0.52101898 0.10443195 0
0.04053805 0.055782989 0.10504811 0.22080898 0.51100022 0.83073598 0
0.078679085 0.057563458 0.1051459 -0.061200738 0.011366007 0.99806082 0
0.081864439 0.057776801 0.1053553 -0.061573092 -0.01305975 0.99801713 0
-0.015372893 0.064167172 0.10543129 -0.99803138 0.036851078 0.05074789 0
-0.013347158 0.062780626 0.10595088 -0.0055433591 -0.091593191 0.99578106 0
-0.0072980598 0.062629007 0.10575168 0.071884461 -0.043128144 0.99648005 0
-0.0027818356 0.0624029 0.1055975 -0.0021700533 0.02951234 0.99956203 0
0.0025200287 0.063193284 0.10581416 -0.056995217 -0.015659826 0.99825168 0
0.0069981352 0.062134054 0.10624272 -0.066140614 0.35956267 0.93077391 0
0.01206462 0.063637048 0.10801031 -0.65203226 0.60998833 0.45029789 0
0.01742636 0.063851632 0.1078993 0.17916183 0.90079147 0.3955701 0
0.022636583 0.062955305 0.10731743 0.22343799 0.73586923 0.63919634 0
0.02744158 0.062215518 0.10723422 0.26781684 0.73486644 0.62309343 0
0.031838451 0.061607633 0.10702942 0.13783281 0.7081542 0.69247365 0
0.035719421 0.060409773 0.10617717 0.36418474 0.82522351 0.43171242 0
0.079529814 0.064413525 0.10501502 -0.15452272 -0.46747452 0.87039667 0
0.081551887 0.062353779 0.10527857 -0.17668265 0.10049649 0.97912401 0
-0.015081745 0.067341343 0.10532022 -0.99755752 0.017871499 0.067524955 0
-0.012506715 0.067986287 0.10688519 -0.083119184 -0.17921583 0.98029226 0
-0.0072045554 0.067318171 0.10633413 0.049739767 -0.33238927 0.9418298 0
-0.0028195877 0.068041883 0.10608082 -0.043680117 -0.30098012 0.95262957 0
0.0023860061 0.06750574 0.10597416 0.059886828 -0.11877772 0.99111319 0
0.0077357632 0.067992121 0.10602918 0.068753362 -0.097791843 0.99282914 0
0.012534353 0.067900762 0.10745113 -0.56978917 -0.24750391 0.78363389 0
0.017349506 0.067719363 0.10868558 -0.12172275 -0.69063956 0.71288192 0
0.0217728 0.067071415 0.1086008 -0.072712503 -0.66545898 0.7428844 0
0.027736742 0.067422837 0.1088849 0.17056149 -0.71636355 0.67655891 0
0.032591578 0.067616358 0.10723387 0.4725163 -0.65452546 0.59019047 0
0.035567034 0.069835857 0.10717327 0.36213654 -0.87795252 0.31313974 0
0.048383042 0.06981203 0.10526273 -0.15036067 -0.71245629 0.68541783 0
0.051933255 0.069542862 0.1063055 0.15814327 -0.74068677 0.65297306 0
0.05867758 0.069597974 0.10501435 0.049491744 -0.16149242 0.98563218 0
0.062079191 0.068874955 0.10522635 -0.012405043 -0.11411685 0.9933899 0
0.06691251 0.069326974 0.10512531 0.0037846917 -0.19828135 0.98013788 0
0.078115545 0.068573043 0.10536208 -0.1205219 -0.13090803 0.98404145 0
0.080639936 0.067570679 0.10530736 0.092505887 -0.037576489 0.99500287 0
-0.035399828 0.074898392 0.10914771 -0.16873825 -0.98327702 -0.068510696 0
-0.032702815 0.074867576 0.1078467 -0.069775023 -0.99081558 -0.11582669 0
-0.026813356 0.073736995 0.10752621 -0.35463762 -0.89414418 -0.27338305 0
-0.022349605 0.072667211 0.10759442 -0.089661129 -0.97738743 -0.19150622 0
-0.017538922 0.072774373 0.10727371 -0.059509579 -0.98702419 -0.14913704 0
-0.01256812 0.072704308 0.10799886 -0.024788752 -0.81369126 0.58076859 0
-0.0071198656 0.072019815 0.10846422 -0.1910532 -0.57904106 0.79259717 0
-0.0025488394 0.071823396 0.10764617 0.25266209 -0.95237643 0.17070758 0
0.0017956489 0.071994856 0.10757945 -0.077096805 -0.98950815 0.12218724 0
0.0075032366 0.07219892 0.10762075 -0.0016935639 -0.97155565 0.23680547 0
0.011736085 0.071664296 0.10817593 -0.67300373 -0.72339094 -0.15417972 0
0.037339225 0.07053332 0.10811539 0.24901675 -0.94136935 0.22762758 0
0.042237159 0.071909942 0.10744874 0.19414744 -0.98052216 0.029715827 0
0.047770467 0.072207689 0.1073308 0.062301949 -0.95426339 0.29240352 0
0.052320641 0.072437212 0.10703772 0.0094837276 -0.91483277 0.40372157 0
0.057268932 0.073169984 0.1069877 0.06186958 -0.80452287 0.59069037 0
0.063024163 0.073308371 0.10690548 -0.048815299 -0.84646624 0.53019989 0
0.067587137 0.073238917 0.10643462 0.36150125 -0.70873994 0.60580897 0
0.073579349 0.074578628 0.10598973 -0.45071062 -0.79341602 0.40908554 0
0.077306584 0.073748812 0.10716192 0.10683972 -0.93292958 0.34384254 0
-0.036328096 0.076143533 0.10732005 -0.96361536 -0.26217532 0.052052796 0
-0.032138977 0.076958813 0.1070656 0.019743521 0.99862128 -0.048639189 0
-0.027582377 0.077637017 0.10705609 -0.0077170702 0.99965328 -0.02517627 0
-0.022299105 0.077790469 0.10712884 -0.0071039093 0.99917829 -0.039901242 0
-0.017599922 0.07785181 0.10773893 -0.012606218 0.99953461 -0.027779112 0
-0.012469052 0.077900112 0.10738977 -0.01162144 0.99966699 -0.023041593 0
-0.0080376286 0.077967465 0.10806064 -0.010836835 0.99987251 -0.011725246 0
-0.0019009045 0.078028753 0.10748298 -0.011793621 0.99976951 -0.017941847 0
0.0022937022 0.078094371 0.1074538 -0.015375379 0.99983156 -0.010025311 0
0.0076184985 0.07817664 0.10765672 -0.015114291 0.99986511 0.006429221 0
0.012311139 0.078240715 0.10748455 -0.012645337 0.99991608 0.0028102039 0
0.017940382 0.078243941 0.10741958 0.019434895 0.999807 0.0028646851 0
0.022532357 0.078101002 0.10780913 0.030727984 0.99940199 0.015854787 0
0.027273621 0.078011043 0.1069411 0.011804221 0.99866641 0.050260145 0
0.032346427 0.078011207 0.10729909 -0.01493575 0.99844205 0.053761307 0
0.037724942 0.078026675 0.10805424 -0.011257986 0.99761194 0.068144731 0
0.042556051 0.078064017 0.10829213 -0.011223027 0.9972468 0.073300064 0
0.047705691 0.07815773 0.10809899 -0.023535127 0.99853283 0.04876636 0
0.052274961 0.078283347 0.10813664 -0.033385508 0.99899727 0.029830806 0
0.057565119 0.078490011 0.10730513 -0.037903249 0.99916488 0.015258494 0
0.062780268 0.078651927 0.10699198 -0.030705515 0.99952447 -0.0028065352 0
0.068093933 0.078490399 0.10729051 -0.020163432 0.9988879 -0.04262089 0
0.0718778 0.077556342 0.10770088 -0.079877332 0.96397674 0.25370935 0
0.077906206 0.078087896 0.10734211 0.63589394 0.76636821 -0.091207653 0
-0.011699934 -0.060145553 0.11281899 -0.23897776 -0.97084671 -0.018611439 0
-0.0078575136 -0.060269836 0.1128055 0.0013629488 -0.99979198 -0.020349931 0
-0.0028217211 -0.060216423 0.11206453 0.013774554 -0.99971545 -0.019475725 0
0.0020760139 -0.060178675 0.11214659 -0.0072407732 -0.99963439 -0.026052192 0
0.0073415479 -0.060249258 0.11267563 0.0056640287 -0.99987692 -0.014629452 0
0.012179121 -0.060148325 0.11241028 0.16551894 -0.98591399 -0.024022017 0
0.033453073 -0.060137305 0.11214483 -0.083764791 -0.99605221 -0.029385686 0
0.037247676 -0.060399201 0.1123947 -0.055285789 -0.99787986 -0.034340955 0
0.040730115 -0.060538631 0.1119624 0.12135313 -0.99158198 -0.045151107 0
-0.012656786 -0.057400528 0.11319645 -0.99077815 -0.1354685 0.002621592 0
0.013855157 -0.058540929 0.11224284 0.90922576 -0.41622743 -0.0079460833 0
0.017215375 -0.058550458 0.11236721 -0.25033417 -0.96815133 0.0039814143 0
0.022877762 -0.059210349 0.11242215 -0.12351012 -0.99224967 -0.013634731 0
0.027727013 -0.059695087 0.11224532 -0.080406547 -0.99670386 -0.010775624 0
0.031034369 -0.059935294 0.11095653 -0.070913225 -0.99733073 -0.017395927 0
0.041573737 -0.057360467 0.11239737 0.99160862 -0.12728235 -0.022616711 0
-0.012764351 -0.052485038 0.11261909 -0.99956793 0.017721917 -0.023450671 0
0.043145183 -0.052257415 0.11253458 0.84718317 -0.45930922 -0.26705015 0
0.045576133 -0.05435428 0.11460304 0.87153327 0.39590383 -0.2892921 0
-0.012513896 -0.047079522 0.11239453 -0.99750197 -0.030826019 -0.063558049 0
0.04405053 -0.048040811 0.11259718 0.94202024 -0.0039289584 -0.33553299 0
-0.012831755 -0.042520516 0.11249696 -0.99467438 -0.096914485 -0.035076622 0
0.043423865 -0.041845478 0.11226787 0.98944837 -0.037563134 -0.13993202 0
-0.013649181 -0.037499614 0.1123752 -0.95820469 -0.25729069 0.12508096 0
0.043696262 -0.037700873 0.11257204 0.95070058 -0.22719014 -0.21107599 0
0.04559806 -0.035996713 0.1147107 0.70429444 -0.54596269 -0.45375559 0
0.056878552 -0.03509441 0.11172213 -0.014951966 -0.99957132 0.025171349 0
-0.015892819 -0.032518059 0.11227452 -0.86924052 -0.45533666 0.19258636 0
-0.014671134 -0.034428284 0.11359398 -0.78383946 -0.59481168 0.17831102 0
0.04438144 -0.033716425 0.11141369 0.42114711 -0.72119451 -0.55001241 0
0.047832798 -0.033809394 0.11261958 0.059519626 -0.97774899 -0.20115754 0
0.052369814 -0.034379333 0.11204422 -0.13355282 -0.9890334 -0.063059598 0
0.05738448 -0.034834214 0.11373466 0.051099226 -0.99572778 0.076909155 0
0.061611451 -0.032876465 0.11228611 0.9139055 -0.3627311 0.1822167 0
-0.017091736 -0.027610976 0.11245684 -0.98667115 -0.1626547 0.00483714 0
0.061953563 -0.027252745 0.11224756 0.9986577 -0.024577707 0.045593094 0
-0.017535929 -0.022442244 0.11272467 -0.99920243 -0.0064075366 -0.039414238 0
0.062499199 -0.021923121 0.11235438 0.99166214 -0.12785088 0.016136531 0
-0.017893013 -0.017106917 0.11280432 -0.97596139 -0.11111899 -0.18748872 0
0.062668018 -0.017298136 0.11288437 0.99201781 -0.046588399 0.11717628 0
-0.02012236 -0.010207715 0.11469083 -0.88376552 -0.38630077 -0.26406491 0
-0.018699676 -0.011896285 0.11269394 -0.88625133 -0.32753745 -0.3275328 0
0.063112132 -0.012942437 0.11269961 0.9925077 -0.12102501 0.016777802 0
-0.025910275 -0.0056479969 0.11005964 -0.26037103 -0.42367184 0.8675881 0
-0.022323068 -0.0072607384 0.11183546 -0.64588755 -0.7262519 0.23534542 0
-0.019456528 -0.0097434744 0.11188596 -0.82655454 -0.4976359 -0.26299447 0
0.063854113 -0.00775484 0.11183336 0.98654372 -0.16098632 -0.028546598 0
-0.026068179 -0.0023325945 0.1118573 -0.73842233 -0.25786775 0.62308651 0
-0.024258453 -0.0036202089 0.11414881 -0.86507952 -0.40956882 0.289639 0
0.064843923 -0.0045484877 0.1116536 0.68961966 -0.66263515 0.29212907 0
0.065717205 -0.0020589344 0.11248586 0.91984099 -0.29460502 0.25903729 0
-0.026158147 0.002357824 0.112499 -0.94035715 0.077083305 0.33134046 0
0.066370301 0.0023171483 0.11242648 0.94073969 -0.048138712 0.33569556 0
-0.025455045 0.0072119799 0.11147781 -0.93411535 0.28736097 0.2117835 0
-0.024627322 0.0086511085 0.11288833 -0.9215436 0.34771571 0.17277499 0
0.066754401 0.0075243772 0.11238851 0.90575677 -0.046498019 0.42123947 0
-0.022751996 0.012681937 0.1121235 -0.84086543 0.54120618 -0.0064247274 0
0.066232279 0.012320824 0.11217584 0.8827309 0.30639136 0.35624492 0
-0.021097945 0.016302176 0.11408785 -0.82926095 0.48607263 -0.27578902 0
-0.018465593 0.018477736 0.11151177 -0.71613616 0.5358234 -0.44726095 0
0.064297721 0.017661441 0.11236677 0.97822821 0.14811963 0.14536214 0
-0.016521404 0.022654954 0.11333908 -0.69799989 0.55951017 -0.44692788 0
-0.013467694 0.0238827 0.11124301 -0.50084227 0.65241808 -0.56877732 0
0.063850559 0.022486087 0.11290884 0.90482026 0.035208028 0.42433551 0
0.066218197 0.023166142 0.11052466 0.51462889 -0.077474043 0.85390568 0
-0.012491188 0.027019341 0.11377379 -0.52837622 0.61461759 -0.58571649 0
-0.0074289613 0.028973753 0.11193337 -0.45793155 0.66324079 -0.59195465 0
-0.0049416288 0.029597048 0.1109224 -0.43946543 0.56927985 -0.69483131 0
0.043046705 0.029208481 0.11036341 0.29050615 0.12960438 -0.94805533 0
0.045834381 0.029663885 0.11034656 -0.21276455 0.40179318 -0.89067024 0
0.062407237 0.027030772 0.11269562 0.79173911 0.4583663 0.40379387 0
0.066064782 0.025105787 0.11012261 0.32995725 0.58010614 0.74471813 0
-0.0067618978 0.031961937 0.11399552 -0.47301862 0.53809047 -0.69764751 0
-0.0029835748 0.032986388 0.11216243 -0.49095482 0.48926121 -0.72082371 0
0.04323899 0.03219264 0.11072394 0.37523454 0.12004134 -0.91912413 0
0.046673451 0.033309393 0.11165123 0.050824564 0.4357731 -0.89862049 0
0.052035078 0.033955581 0.11183108 -0.17001562 0.95748854 -0.23304611 0
0.057316471 0.033505537 0.1127233 0.37764764 0.79354298 0.4771497 0
0.061000675 0.031111391 0.1114971 0.75820434 0.40038836 0.51460212 0
-0.0018961999 0.037152957 0.11383163 -0.53580725 0.37146941 -0.75823545 0
0.001857762 0.038703319 0.11164485 -0.59922457 0.34235337 -0.72368783 0
0.043727409 0.038009793 0.11189031 0.71712434 0.16633669 -0.67680478 0
0.047027145 0.03713965 0.11391327 0.45954496 0.50476784 -0.73077214 0
0.05067791 0.035084598 0.11415498 0.19073406 0.81381881 -0.54892582 0
0.057576925 0.035082486 0.11057162 0.0030208875 0.55483145 0.83195734 0
0.080926269 0.039485425 0.11070628 -0.25225058 -0.37511185 -0.89199817 0
-0.00026394357 0.041525532 0.1144651 -0.57894313 0.25583395 -0.77419239 0
0.0029696124 0.042823635 0.11244474 -0.55353916 0.25787014 -0.79189479 0
0.0068004639 0.042602766 0.1109524 -0.13963506 0.35944578 -0.9226597 0
0.043314125 0.042884201 0.11279573 0.79389036 0.15454295 -0.588094 0
0.045269117 0.040863693 0.11454123 0.75234812 0.23625904 -0.61494237 0
0.080949038 0.04140817 0.11032787 0.96357602 0.23868975 0.12061656 0
0.0030292468 0.047257468 0.11369935 -0.586465 0.24638787 -0.77159041 0
0.0064636548 0.047715046 0.11124235 -0.56920147 0.17549755 -0.8032499 0
0.0421228 0.046688288 0.11197658 0.86029893 0.12903377 -0.4931896 0
0.0045758579 0.050380915 0.11386223 -0.56148189 0.47730166 -0.67595947 0
0.0077955662 0.05242452 0.11328354 -0.65230739 0.54343796 -0.52836561 0
0.010260588 0.054647304 0.11139384 -0.95474637 0.2799904 -0.10032285 0
0.038757246 0.05397702 0.11213572 0.58270442 0.79332548 -0.1763245 0
0.041430965 0.051318593 0.11353591 0.83699501 0.42481476 -0.34492284 0
0.0097656893 0.055344976 0.11449703 -0.78077996 0.38336977 -0.49336627 0
0.010959646 0.057102192 0.11211183 -0.94970965 0.25462729 -0.18225388 0
0.034170225 0.059792958 0.11350335 0.33512428 0.93238002 0.1354959 0
0.037167832 0.057369862 0.11235346 0.94120872 0.27521911 0.19590954 0
0.01230529 0.063317649 0.11262483 -0.71437675 0.6992541 -0.026637135 0
0.017577406 0.063687563 0.1124386 0.22260578 0.97400576 -0.041946743 0
0.022518812 0.06245444 0.11254919 0.21032985 0.9774943 -0.016320508 0
0.027678546 0.061360557 0.11255161 0.22570108 0.97288531 0.05052856 0
0.031115498 0.060601626 0.1113981 0.25152075 0.96784306 0.0041388874 0
0.017609524 0.069573626 0.11112586 -0.12108768 -0.86079484 0.49433804 0
0.022667227 0.069307044 0.11140598 -0.022187509 -0.8173508 0.57571286 0
0.027721221 0.069252118 0.11123443 0.060567699 -0.82548976 0.56115782 0
0.032048393 0.069604248 0.11083217 0.19461095 -0.85380137 0.48285574 0
-0.03555207 0.074834429 0.11188227 -0.41538596 -0.90867317 0.042043682 0
-0.033072427 0.074466862 0.11193429 -0.15429309 -0.98510671 -0.075884484 0
-0.027960561 0.073716074 0.11234994 -0.13874421 -0.97757059 0.15844813 0
-0.02181999 0.072777756 0.11228214 -0.16359776 -0.93403953 0.31749952 0
-0.017467646 0.072364792 0.11235417 0.0074513583 -0.99879462 0.048515897 0
-0.012171785 0.072502233 0.11260119 0.050927229 -0.95263231 -0.29983005 0
-0.0076806913 0.072664492 0.11247985 -0.065297067 -0.91561025 -0.39672929 0
-0.0025888688 0.070930757 0.11273695 -0.099116497 -0.98973399 0.10296884 0
0.0024569992 0.070957392 0.11261561 0.045399532 -0.99656999 -0.069188878 0
0.0073705525 0.07127016 0.1126099 0.057321928 -0.99491864 -0.082771093 0
0.012094556 0.071175665 0.11286085 -0.10020148 -0.95184326 0.28974819 0
0.017485397 0.070907936 0.11340828 -0.044596683 -0.83974671 0.54114383 0
0.023224806 0.071113162 0.11376173 0.010158784 -0.78807282 0.61549819 0
0.027819948 0.071388662 0.11404121 0.0096166655 -0.78811944 0.61544722 0
0.032754034 0.071105614 0.11330009 0.074560478 -0.84434664 0.5305841 0
