# .PCD v0.7 - Point Cloud Data file format
VERSION 0.7
FIELDS x y z normal_x normal_y normal_z curvature
SIZE 4 4 4 4 4 4 4
TYPE F F F F F F F
COUNT 1 1 1 1 1 1 1
WIDTH 286
HEIGHT 1
VIEWPOINT 0 0 0 1 0 0 0
POINTS 286
DATA ascii
-0.022261787 -0.016332747 -2.2148108e-05 -0.0022181936 -0.0072118128 -0.99997151 0
-0.016863015 -0.018285628 -2.5832162e-05 -0.010096687 0.0018805462 -0.99994725 0
-0.012754236 -0.017812191 -2.0321315e-05 0.0069854283 0.0028886241 -0.99997139 0
-0.009515306 -0.016227311 -2.5234954e-06 0.0064901989 -0.0045497469 -0.99996865 0
-0.025244484 -0.012672815 -7.5732004e-07 -0.0071059666 -0.00069008581 -0.99997449 0
-0.023815239 -0.013819721 -9.0466147e-06 0.00054412719 0.0088362563 -0.99996078 0
-0.0067083393 -0.014619788 -4.6623372e-06 -0.0038232945 -0.0061311875 -0.99997389 0
-0.022174332 -0.021182613 0.0022331325 -0.43544823 -0.86269045 -0.25719646 0
-0.017576482 -0.022268942 0.0018387439 -0.13935669 -0.87787271 -0.45816943 0
-0.012504452 -0.022169884 0.0019242006 0.19516668 -0.88582462 -0.4209806 0
-0.0083654216 -0.020997951 0.0024499034 0.46900028 -0.85822535 -0.20853782 0
-0.026906524 -0.01730614 0.0020357887 -0.71969664 -0.6013909 -0.34693757 0
-0.022145374 -0.017427353 0.0013544332 0.33872262 0.013936871 -0.94078302 0
-0.017673168 -0.016964968 0.0020004367 -0.20891845 0.94860661 -0.23769428 0
-0.012716196 -0.01679131 0.00056172803 -0.082932189 0.24017848 -0.96717966 0
-0.0070877629 -0.018070782 0.00082931778 0.25195259 -0.31740007 -0.91420841 0
-0.0035699974 -0.016801376 0.0022406064 0.77230191 -0.58834213 -0.23958986 0
-0.03035122 -0.01129067 0.0027091254 -0.97162759 -0.22526947 -0.072065845 0
-0.028135018 -0.012836603 0.0010940692 -0.49209294 -0.2110941 -0.84456128 0
-0.022026321 -0.012504252 0.0016511258 0.81362325 0.29837155 -0.49899065 0
-0.012125215 -0.014247334 0.0023830009 -0.35233277 0.91950125 -0.17429586 0
-0.0072637736 -0.01252666 0.0019470798 -0.61234426 0.73438334 -0.29277235 0
-0.0020726675 -0.012397322 0.0015876332 0.74479872 -0.25531209 -0.61651486 0
-0.030741928 -0.0075409259 0.002529799 -0.98725379 -0.011407982 -0.15874462 0
-0.027493853 -0.0074004713 0.00038195463 -0.010797119 0.031646878 -0.99944073 0
-0.023681527 -0.0076401276 0.002113037 0.87274706 0.42816564 -0.23449233 0
-0.0069973986 -0.0075146356 0.0020972323 -0.8581605 -0.39535457 -0.32749853 0
-0.0015155954 -0.0076227793 0.0014877651 0.75011587 0.0011247891 -0.66130549 0
-0.030343218 -0.0038990586 0.0026895036 -0.96158928 0.26617831 -0.067045398 0
-0.027790206 -0.0023209848 0.0015269457 -0.41358498 0.2308605 -0.88071048 0
-0.022900643 -0.0021571119 0.0019958413 0.49278054 -0.83782822 -0.23497088 0
-0.018278493 -0.00065496669 0.0025858525 0.36710939 -0.91672933 -0.15760076 0
-0.010150111 -0.00043870811 0.0014145571 -0.93580288 -0.34704155 -0.061928865 0
-0.0081853541 -0.0025319562 0.0014505656 -0.71423399 -0.20535257 -0.66910404 0
-0.0020461525 -0.0024974141 0.001671196 0.76593137 0.28835341 -0.57463175 0
-0.026723491 0.0021800976 0.0020920464 -0.70748782 0.61554027 -0.34723368 0
-0.02286691 0.0027100733 0.000634811 -0.14629665 0.21552718 -0.96547675 0
-0.017162608 0.0020592022 0.00070913014 0.13059056 -0.27594087 -0.95226192 0
-0.012512179 0.0022118033 0.0017359125 0.062976182 -0.86823189 -0.49214572 0
-0.0073587704 0.0026806111 0.001312583 0.16688298 0.37655288 -0.9112398 0
-0.0036927245 0.001651574 0.0022517352 0.75881243 0.60246038 -0.24747773 0
-0.022110244 0.0059758816 0.0024711161 -0.42823482 0.88567001 -0.17945391 0
-0.017463723 0.0070428601 0.0019392072 -0.11945935 0.89840716 -0.42260396 0
-0.012410158 0.0068435832 0.0018835336 0.19594628 0.88543445 -0.42143911 0
-0.0085785016 0.0057844697 0.002360384 0.46697912 0.87301326 -0.14063545 0
-0.022357261 -0.021220298 0.0075144111 -0.45323172 -0.89128578 0.013810547 0
-0.017473504 -0.022747116 0.0074562947 -0.1450749 -0.98936534 0.010465059 0
-0.0125464 -0.022600537 0.0074488944 0.20359176 -0.97903931 0.0056973365 0
-0.0082540521 -0.021033227 0.0074479748 0.48770678 -0.87295091 0.0099381786 0
-0.027140507 -0.017390495 0.0074818158 -0.76846457 -0.63964176 0.017906237 0
-0.021779809 -0.017680191 0.0075492081 0.92623699 0.33818895 0.16647321 0
-0.017226014 -0.017791305 0.0074878004 -0.59388727 0.7952041 0.12226338 0
-0.014682839 -0.015132747 0.0075746668 -0.33918527 0.94060391 0.014752594 0
-0.0057961657 -0.019389717 0.0074634855 0.63012457 -0.7764712 0.0059588137 0
-0.003406049 -0.016841143 0.0075438307 0.79737663 -0.60347229 0.0034301195 0
-0.030319534 -0.011225403 0.0073682154 -0.97272682 -0.23110962 0.019770406 0
-0.02950041 -0.013662159 0.0075169438 -0.91844648 -0.3947953 0.024346685 0
-0.021575365 -0.012470052 0.0075167911 0.9881314 0.15238219 -0.019393377 0
-0.01208923 -0.014137682 0.007313753 -0.33590055 0.94179618 -0.013813458 0
-0.0073525934 -0.013973398 0.0075510754 0.011115395 0.98808479 0.15350868 0
-0.0025213582 -0.012357562 0.0076744584 0.78830379 -0.18617681 0.58644289 0
-0.030716849 -0.0074900575 0.0074661393 -0.9998436 0.0030879043 0.017409926 0
-0.026439648 -0.0059195114 0.0076904735 0.53699476 0.82853317 0.15864874 0
-0.023518139 -0.008010596 0.0074999337 0.78644854 0.61762238 -0.0064262482 0
-0.0071493182 -0.0075538834 0.0075209667 -0.76084816 -0.64838862 -0.026498072 0
-0.0013016812 -0.0080710026 0.0074787685 0.95557296 -0.2907328 0.048526343 0
-0.030312927 -0.0040600877 0.0074558826 -0.96891785 0.24677384 0.017344723 0
-0.027484965 -0.0022051055 0.0075041838 0.69844502 -0.48544031 0.52585381 0
-0.022508183 -0.0014636951 0.0075398725 -0.13680041 -0.9902221 0.027308045 0
-0.018064793 -0.00076730025 0.0075217588 0.36701089 -0.92896408 -0.048256237 0
-0.0091898041 -0.0022577834 0.0074827601 -0.99814582 -0.054242022 -0.027616674 0
-0.0012750467 -0.0025399087 0.0074284384 0.93920624 0.34327677 0.0072574513 0
-0.026967835 0.0022400517 0.0074518048 -0.76026511 0.64941633 0.01598157 0
-0.024514589 0.0046616965 0.0075081321 -0.59111816 0.8064453 0.01501159 0
-0.01554239 0.00036906725 0.007244342 0.56128466 -0.82727224 -0.024084127 0
-0.012893121 0.0032813654 0.0074050245 0.43912065 -0.88211656 0.17042124 0
-0.0077431845 0.0028846038 0.007652543 -0.71753377 0.6232515 0.31097087 0
-0.0035668395 0.0016584159 0.0075188242 0.78518105 0.61914629 0.012192378 0
-0.022044275 0.006055247 0.0074214088 -0.42775026 0.9037798 0.014551184 0
-0.017591497 0.0074015153 0.0074649481 -0.12619042 0.99199623 0.0044140592 0
-0.012513691 0.0071702478 0.0075556007 0.20240572 0.97927058 0.0078095482 0
-0.0085150599 0.0057537379 0.0075222077 0.46859962 0.88336492 0.0089844754 0
-0.022286417 -0.021203633 0.012398506 -0.44074723 -0.89757508 0.010045321 0
-0.017483227 -0.022715926 0.012545243 -0.1505706 -0.98855752 0.0090897456 0
-0.012423906 -0.022552038 0.012572591 0.21535373 -0.9765169 0.0061089275 0
-0.0081354594 -0.020940216 0.012442056 0.48191771 -0.87620282 0.0048973747 0
-0.02710251 -0.017369391 0.012472278 -0.77674246 -0.62979633 0.0052656322 0
-0.021638775 -0.017621474 0.012421854 0.94597441 0.040794969 -0.3216646 0
-0.017938212 -0.017780161 0.012435699 -0.74148017 0.40509331 -0.53488928 0
-0.014667416 -0.015094593 0.010306321 -0.35281825 0.91281432 -0.20564386 0
-0.0057487516 -0.019345216 0.01245736 0.64671981 -0.76272249 0.0028047205 0
-0.003443721 -0.01688171 0.012317382 0.79272658 -0.60957205 0.0025204413 0
-0.030266646 -0.011089117 0.012284453 -0.97480279 -0.22278447 0.011254445 0
-0.029452307 -0.013561443 0.012390416 -0.92047447 -0.39072487 0.0078000561 0
-0.020895716 -0.012523963 0.011083929 0.78166234 -0.0051348349 -0.62368071 0
-0.017498737 -0.012488859 0.011957364 -0.0091864858 -0.006355776 -0.99993759 0
-0.012596913 -0.012355165 0.011548391 -0.13246916 0.37900919 -0.91586238 0
-0.0071683051 -0.012993011 0.012481868 0.54151446 0.50318474 -0.67347401 0
-0.0024079783 -0.012361635 0.012538672 0.94552541 -0.31491092 -0.082540259 0
-0.030646855 -0.0074793687 0.012439327 -0.99992865 0.0043379115 0.011128147 0
-0.026520433 -0.0057402374 0.012303343 0.20694353 0.94546503 -0.25153571 0
-0.022360099 -0.0072394614 0.011474401 0.29066631 0.38287595 -0.87688035 0
-0.017516181 -0.0074791219 0.011907223 0.013685096 -0.0098806396 -0.99985754 0
-0.012469055 -0.0075561455 0.011919784 -0.025610426 -0.013643913 -0.99957889 0
-0.0078240903 -0.0081838993 0.011410346 -0.3584089 -0.56322902 -0.74452412 0
-0.0013397645 -0.0080142887 0.012448478 0.95797163 -0.28556556 -0.027251033 0
-0.030261628 -0.0040756888 0.012262046 -0.96725363 0.25358143 0.010816137 0
-0.027401771 -0.0023546547 0.012576731 0.3173123 -0.41928944 -0.85059351 0
-0.022994442 -0.0024768903 0.012044504 -0.51656729 -0.45551929 -0.72502446 0
-0.017278669 -0.0025504578 0.011473121 0.1173766 -0.35965213 -0.92567432 0
-0.012466175 -0.0024767609 0.011697445 -0.099365294 -0.03610285 -0.99439585 0
-0.009556476 -0.0026433053 0.010576636 -0.87165964 -0.078558601 -0.48377472 0
-0.0013173799 -0.0024678882 0.012508542 0.9361406 0.35162488 -0.00081451418 0
-0.026919866 0.0022069565 0.012509453 -0.76290256 0.64643526 0.010058893 0
-0.02445701 0.0046304916 0.0126562 -0.5813899 0.81358713 0.007850023 0
-0.01531377 0.0001273168 0.010365609 0.43824175 -0.78813285 -0.43219298 0
-0.012347873 0.0028740235 0.012507242 0.62475681 -0.46342051 -0.62842691 0
-0.0078565283 0.0028420754 0.012381905 -0.4535456 0.84252316 -0.29060465 0
-0.0036886709 0.0017851483 0.012441644 0.77656305 0.63002861 0.0037191107 0
-0.021980688 0.0060227495 0.012631902 -0.42604253 0.90465015 0.0097943665 0
-0.01744123 0.007367854 0.012471979 -0.12367465 0.99226356 0.010844132 0
-0.012453486 0.0071342904 0.012425615 0.2071532 0.97830313 0.0032550788 0
-0.0085833753 0.0057808491 0.012498366 0.46694741 0.88428402 0.0013952352 0
-0.022019118 -0.021052672 0.017301207 -0.42070496 -0.86930168 0.25946465 0
-0.017501649 -0.022104647 0.017757876 -0.13544177 -0.88671499 0.44203168 0
-0.012548814 -0.021934137 0.017752055 0.19102375 -0.86023372 0.47276616 0
-0.00849564 -0.020919355 0.016982187 0.46327901 -0.86099768 0.20989433 0
-0.026707185 -0.017094893 0.017600661 -0.71666062 -0.57937354 0.38823161 0
-0.022575635 -0.017773228 0.019074269 -0.16009875 -0.27049243 0.94931668 0
-0.017938865 -0.018009361 0.018946556 -0.034493595 -0.064406998 0.99732739 0
-0.012236061 -0.017681388 0.019708408 0.038005911 -0.050733846 0.99798882 0
-0.0072449176 -0.017915353 0.018819777 0.29724616 -0.37809712 0.87674814 0
-0.0036647278 -0.01669492 0.01730437 0.76809788 -0.56183177 0.30719832 0
-0.030241452 -0.010965331 0.016495956 -0.97361237 -0.21362352 0.08027339 0
-0.028010715 -0.012632514 0.018781515 -0.56375706 -0.22358114 0.79510337 0
-0.023444515 -0.01299474 0.019856121 -0.06206328 -0.044330485 0.99708724 0
-0.010435405 -0.014757648 0.019846696 0.31290835 -0.52493382 0.79153836 0
-0.0064498447 -0.012757001 0.01834831 0.42556578 -0.059827559 0.90294766 0
-0.0026308724 -0.012235396 0.017757308 0.70421213 -0.26377279 0.65917307 0
-0.030529788 -0.0074594887 0.016919786 -0.9864549 0.0063535268 0.16390949 0
-0.027756155 -0.0074159363 0.019604471 -0.24891247 0.0089869127 0.96848428 0
-0.024553856 -0.0074537499 0.019895848 -0.10757746 -0.0063354829 0.99417651 0
-0.0060885777 -0.0074439012 0.019734304 0.14850847 0.0044392133 0.9889012 0
-0.0018110781 -0.0075350772 0.018101718 0.72418231 -0.025266876 0.68914562 0
-0.030243009 -0.0042719692 0.016615937 -0.96473926 0.24171345 0.10417621 0
-0.027970167 -0.0022845599 0.018510664 -0.61602968 0.27903774 0.73664463 0
-0.023447676 -0.0019577818 0.019877728 -0.041498959 0.027305452 0.99876535 0
-0.019887254 -8.3065999e-05 0.019966647 -0.12489125 0.1966518 0.97248656 0
-0.010484392 -0.00050045631 0.019807924 0.1698575 0.27988887 0.94488657 0
-0.0070540211 -0.0022306822 0.019732919 0.068675324 0.044824392 0.99663156 0
-0.0021957911 -0.0026533322 0.0178863 0.7794686 0.29115343 0.55466956 0
-0.026530767 0.0020426153 0.017480008 -0.72154826 0.61137366 0.32494664 0
-0.022776354 0.0028425711 0.019196762 -0.21833663 0.33464113 0.91670299 0
-0.017722592 0.0027302855 0.019838884 -0.0072095986 0.058284689 0.99827397 0
-0.012354494 0.0029382526 0.018717725 0.056079704 0.031002574 0.99794483 0
-0.0074998527 0.0029248595 0.018304884 0.36123055 0.49177173 0.7922582 0
-0.0037879834 0.0015272353 0.017153611 0.76289588 0.58943349 0.26562753 0
-0.021814702 0.0058652759 0.01707967 -0.40846819 0.88473248 0.2245044 0
-0.017401535 0.0067846384 0.017695464 -0.11980885 0.89604139 0.42749938 0
-0.012452077 0.006660162 0.017523825 0.19899678 0.89855307 0.39115563 0
-0.0087016793 0.0056863399 0.01688985 0.45234993 0.87281835 0.18321472 0
-0.017137285 -0.015647896 0.022344364 -0.22345658 -0.97016662 0.094041608 0
-0.013235798 -0.015539791 0.022473419 0.28240246 -0.95839846 0.041486848 0
-0.021942893 -0.012444373 0.022421991 -0.80787504 -0.58454818 0.075108908 0
-0.01959567 -0.014745557 0.022748761 -0.49906749 -0.86625135 0.0232416 0
-0.010801895 -0.01441199 0.022542005 0.56240577 -0.82506102 0.054535285 0
-0.0085446751 -0.012056072 0.022254949 0.8500728 -0.52230775 0.067607887 0
-0.023522988 -0.0076495837 0.022446398 -0.99528819 -0.0016113146 0.096947789 0
-0.0073622949 -0.0073529095 0.022536071 0.99888003 0.027299358 0.038644113 0
-0.02172946 -0.0026495573 0.022482311 -0.79538947 0.6008749 0.079403698 0
-0.019141555 -0.00036725766 0.022726584 -0.41878802 0.90720618 0.039918903 0
-0.011327304 -0.00070612907 0.022552406 0.49209806 0.86957353 0.041004691 0
-0.008727097 -0.0031243146 0.022522107 0.82770681 0.5595476 0.042521019 0
-0.0167556 0.0003883396 0.022379616 -0.17020889 0.98145932 0.088128768 0
-0.013892152 0.00034712281 0.022429237 0.24652436 0.96747363 0.05674912 0
-0.017145349 -0.015670665 0.027522266 -0.25160518 -0.96769816 -0.015971949 0
-0.013291444 -0.015627792 0.027424496 0.30912369 -0.9509204 -0.013893209 0
-0.021894941 -0.01252021 0.027415141 -0.81007868 -0.58623981 0.0097652292 0
-0.019574011 -0.014791158 0.027623847 -0.49928001 -0.86641067 0.0072144344 0
-0.01072352 -0.014385635 0.027321259 0.5729177 -0.81886822 -0.034931246 0
-0.0084993746 -0.012116352 0.027596623 0.84678817 -0.53170836 -0.015366944 0
-0.023502301 -0.0073458799 0.027572114 -0.9988541 0.047623169 0.0047363993 0
-0.0072659287 -0.0074696131 0.027517611 0.99915481 0.030627068 -0.027416313 0
-0.021754742 -0.0027091724 0.02750862 -0.80326533 0.59551251 0.011386727 0
-0.019141003 -0.00037166016 0.027395271 -0.40312904 0.91512644 0.0055214688 0
-0.011321979 -0.00066756218 0.027628371 0.4890396 0.8722533 -0.0038014122 0
-0.0086911684 -0.0030657751 0.027530838 0.82754982 0.5611977 -0.014783126 0
-0.016603742 0.00037593485 0.027404705 -0.19045405 0.98168886 -0.0037682489 0
-0.013823004 0.00037949655 0.02762297 0.24720831 0.9689517 -0.0045412788 0
-0.016969077 -0.01571426 0.03248835 -0.2652778 -0.96414357 0.0074037481 0
-0.013199257 -0.015645541 0.032469679 0.32912728 -0.944269 -0.0055975788 0
-0.021864237 -0.012487511 0.032400668 -0.80688989 -0.59065372 0.0075437096 0
-0.019603522 -0.014720236 0.032587688 -0.5014993 -0.86511171 0.0089512821 0
-0.01085158 -0.014497972 0.032584108 0.56328011 -0.82626605 -3.2466323e-05 0
-0.0085472437 -0.012228997 0.032606013 0.82954454 -0.55841702 -0.0051252958 0
-0.023452338 -0.0073207351 0.032533109 -0.99873084 0.049561881 0.0089585343 0
-0.0072293147 -0.0074436809 0.032449812 0.99951822 0.030955402 -0.0022564819 0
-0.021727003 -0.0027766505 0.03242499 -0.80590349 0.59183997 0.015657112 0
-0.019146232 -0.00040157873 0.03243725 -0.41634145 0.90916514 0.008865213 0
-0.011335204 -0.00067702826 0.032476552 0.48781988 0.87294012 -0.0027018024 0
-0.0086488901 -0.0031096672 0.032476619 0.8259173 0.56378359 -0.0029607951 0
-0.016553106 0.00034987304 0.032640666 -0.1779961 0.98399258 0.0087234853 0
-0.013789773 0.00034198794 0.032579392 0.23701441 0.97149754 0.0041017993 0
-0.017039536 -0.015672959 0.037563112 -0.28469691 -0.95855784 0.010701596 0
-0.013234348 -0.015665842 0.037570268 0.33027673 -0.94388312 0.0014001776 0
-0.021738714 -0.012544197 0.037508205 -0.83530658 -0.54811817 0.042770591 0
-0.01948672 -0.014742791 0.037544642 -0.48508704 -0.87442851 0.0080907308 0
-0.010814419 -0.014474771 0.0375381 0.56830043 -0.8228209 -0.00068823609 0
-0.0084264046 -0.012077766 0.037536506 0.84932119 -0.52786326 -0.003738679 0
-0.023135277 -0.0075389026 0.037572101 -0.98577088 -0.032920919 0.16483924 0
-0.0075162421 -0.0074635521 0.037591856 0.98279774 0.089861393 0.1613494 0
-0.021758063 -0.0029191354 0.037508603 -0.81921005 0.57315624 0.019669874 0
-0.019033071 -0.00042005372 0.037472188 -0.41633585 0.90917647 0.0079145599 0
-0.011265652 -0.00070261263 0.037436761 0.48044059 0.87702721 7.2058152e-05 0
-0.008734161 -0.0030761438 0.037426312 0.85709012 0.51229191 0.054346289 0
-0.016563946 0.00029723969 0.037476212 -0.18443534 0.98281109 0.0081289196 0
-0.013798514 0.00033382478 0.037319969 0.21719918 0.97612399 0.0025491603 0
-0.016953269 -0.015647225 0.04254517 -0.24188945 -0.97026992 -0.0081078308 0
-0.013305637 -0.015639784 0.042538352 0.28389865 -0.95885098 0.0025381465 0
-0.021234455 -0.012374391 0.042432457 -0.92185396 -0.33938661 0.18708846 0
-0.019566925 -0.014723377 0.042723157 -0.50263482 -0.86443734 -0.010313373 0
-0.010792363 -0.014502992 0.0425472 0.54819441 -0.83590215 -0.027395155 0
-0.008655386 -0.012203614 0.04240603 0.90378064 -0.42115614 0.07621032 0
-0.022005616 -0.0073554725 0.042429082 -0.96111524 -0.10857121 0.25390905 0
-0.0086442828 -0.0074368692 0.04262159 0.95853007 0.1632255 0.2336183 0
-0.0215011 -0.0028259826 0.04251039 -0.86681265 0.49487445 0.061115641 0
-0.018965797 -0.00044481966 0.04261943 -0.42444533 0.90545309 0.00090715947 0
-0.01125603 -0.00071367132 0.042486999 0.52341586 0.85206228 -0.005069817 0
-0.0093431659 -0.0031564047 0.04223885 0.93909425 0.28618795 0.19025916 0
-0.016504511 0.00029309024 0.042579174 -0.18085468 0.98349506 -0.0053836536 0
-0.013827797 0.00031850379 0.042556059 0.20439263 0.97888863 -0.00080555992 0
-0.017577237 -0.016293788 0.047402062 -0.37821391 -0.90877718 -0.17629021 0
-0.012562147 -0.016303679 0.04756527 0.2844806 -0.94512928 -0.16062818 0
-0.0096651083 -0.015278486 0.048220161 0.62369746 -0.77867299 -0.068335652 0
-0.020371491 -0.011946567 0.046544142 -0.96089107 -0.14648502 0.23501161 0
-0.019701276 -0.013033918 0.04857732 -0.96240151 -0.15029596 0.22626196 0
-0.010439426 -0.01473756 0.045586348 0.45091221 -0.75517541 -0.47580278 0
-0.0091509884 -0.012572919 0.047553744 0.99291563 -0.022080319 0.11675163 0
-0.020674635 -0.0075456141 0.047408037 -0.96088755 -0.11599175 0.25147763 0
-0.01990553 -0.0091284253 0.049621537 -0.95964777 -0.11599974 0.25616467 0
-0.010287406 -0.0065508839 0.048715077 0.95938087 0.15766379 0.23394522 0
-0.0095599573 -0.0081581492 0.0468513 0.95804173 0.16298231 0.23578119 0
-0.021049211 -0.0025095227 0.047500607 -0.98314965 0.12131198 0.13674906 0
-0.019191697 -0.00030220635 0.045623597 -0.39604712 0.840958 -0.36869532 0
-0.01074627 -0.00230532 0.047478843 0.9540723 0.22876386 0.19342482 0
-0.0098989215 -0.0040655029 0.045527194 0.9613145 0.14824751 0.23215738 0
-0.020332651 0.00017889214 0.048370305 -0.55374199 0.8301059 -0.065527596 0
-0.017332371 0.00099349697 0.04763196 -0.23410462 0.95660979 -0.17347284 0
-0.013082244 0.0010030129 0.047556888 0.33079672 0.92438769 -0.18994948 0
-0.01694881 -0.016071243 0.052236214 -0.34958676 -0.8984412 0.26569265 0
-0.012802499 -0.015925113 0.052204244 0.26312777 -0.93868637 0.22278148 0
-0.0098554976 -0.015158564 0.050525349 0.64387542 -0.72488958 0.24486613 0
-0.018778339 -0.012625221 0.052481268 -0.96286231 -0.11310145 0.24516141 0
-0.010488642 -0.012480014 0.053269677 0.96762782 -0.023779305 0.25125864 0
-0.0097703561 -0.013244846 0.051052537 0.96753883 0.02530963 0.25145185 0
-0.020060442 -0.0060078693 0.050415169 -0.96395558 -0.10724976 0.24348968 0
-0.019297041 -0.0076061389 0.052637346 -0.96192324 -0.11336921 0.24869862 0
-0.01103354 -0.0075091906 0.052420884 0.95850712 0.16339228 0.23359597 0
-0.020287136 -0.0021209973 0.051169459 -0.96569002 0.013070741 0.25936839 0
-0.01940682 -0.0021354628 0.053526223 -0.92274517 0.25388741 0.28996986 0
-0.011902192 -0.00246829 0.052604705 0.95433062 0.18733524 0.23271962 0
-0.020164987 9.3327384e-05 0.050182842 -0.604913 0.76392156 0.22473097 0
-0.017049806 0.00057113339 0.052125163 -0.19764213 0.95062006 0.23928887 0
-0.013549282 0.0007059807 0.052114934 0.30654117 0.91366303 0.26693141 0
-0.016130522 -0.015358424 0.056465253 -0.24208647 -0.9351936 0.25847062 0
-0.013820591 -0.015305892 0.056232035 0.2094083 -0.95207959 0.22291827 0
-0.017343821 -0.012710819 0.057570457 -0.92221677 -0.27792826 0.26883471 0
-0.011975597 -0.012924241 0.05769382 0.90356708 -0.31454939 0.29090428 0
-0.018081518 -0.0075276531 0.057437252 -0.96244907 -0.11663734 0.24512768 0
-0.012273508 -0.0075260499 0.057519373 0.95838696 0.15940425 0.2368225 0
-0.017757954 -0.0019125356 0.057451617 -0.76701105 0.55711061 0.31831083 0
-0.013267103 -0.0022254759 0.057284817 0.86653042 0.41470867 0.277744 0
-0.01574689 9.6330186e-05 0.055337042 -0.077505462 0.97179705 0.22271842 0
-0.014405985 9.6222837e-05 0.055456616 0.074666955 0.97028995 0.2301356 0
-0.016154243 -0.012360136 0.062266894 -0.8917616 -0.35645095 0.27875435 0
-0.013174103 -0.012545337 0.062286533 0.8625595 -0.40586749 0.30209705 0
-0.01681398 -0.0074710534 0.062499136 -0.96299338 -0.1140992 0.24418268 0
-0.013460115 -0.0074719931 0.062576488 0.96503109 0.16023976 0.20745645 0
-0.016756507 -0.0027380597 0.06228241 -0.78478938 0.52156401 0.33477837 0
-0.014142328 -0.0031444929 0.062194772 0.91767848 0.31763628 0.23869081 0
-0.015412855 -0.011396718 0.065368131 -0.7112093 -0.13726969 0.68944788 0
-0.014054555 -0.011560393 0.065525912 0.42566308 -0.095879138 0.89978778 0
-0.015642699 -0.0074814125 0.065532312 -0.56305647 -0.075686164 0.8229453 0
-0.014380812 -0.0076381555 0.065539651 0.62510061 0.11619511 0.77184713 0
-0.01579736 -0.0034496069 0.065656424 -0.33546695 0.27459559 0.90114325 0
-0.014731787 -0.0038820405 0.065423161 0.85612547 0.084815368 0.50976026 0
