# .PCD v0.7 - Point Cloud Data file format
VERSION 0.7
FIELDS x y z normal_x normal_y normal_z curvature
SIZE 4 4 4 4 4 4 4
TYPE F F F F F F F
COUNT 1 1 1 1 1 1 1
WIDTH 650
HEIGHT 1
VIEWPOINT 0 0 0 1 0 0 0
POINTS 650
DATA ascii
0.083064079 0.087542467 0.039114386 0.56313998 -0.23401147 0.79253525 0
0.088361949 0.087134339 0.037917055 0.0080740908 -0.13048495 0.99141741 0
0.091390781 0.087776586 0.03669088 0.96433055 0.048875537 0.26014951 0
-0.020943671 0.092136733 0.03753094 -0.83476382 -0.022823805 0.55013484 0
-0.019543823 0.09177275 0.039372012 -0.75116998 0.028727997 0.65948343 0
-0.0071502686 0.09460514 0.036054526 -0.013162208 0.97451162 -0.22395046 0
0.0042383093 0.092449509 0.037433006 0.85018402 -0.51694 -0.099800333 0
0.0071217157 0.093867682 0.037561253 0.027191462 -0.98776799 -0.153542 0
0.012174356 0.094084635 0.037947316 0.33536234 -0.92719871 -0.16683686 0
0.059900112 0.093707308 0.037662432 -0.99760848 -0.068361074 -0.010198928 0
0.060135178 0.090529919 0.036619365 -0.99681133 -0.078571282 -0.01391551 0
0.083784357 0.092807502 0.039119966 0.71745229 0.071153328 0.69296432 0
0.087051213 0.092942253 0.036991995 0.048837218 0.58179665 0.81186676 0
0.090898305 0.092156336 0.036494788 0.90301251 0.2234174 0.36695081 0
-0.030767735 0.099875584 0.039415635 -0.90614927 -0.15690847 -0.39277637 0
-0.027407363 0.099273793 0.038412072 -0.14819445 -0.87733245 -0.4564276 0
-0.02277052 0.09761212 0.037205566 -0.78466958 -0.58937985 0.19215906 0
-0.0074676657 0.097219691 0.037460867 0.79219627 -0.062934138 -0.60701269 0
-0.0025620703 0.098253615 0.037715469 0.15355949 0.77560943 -0.61224943 0
0.0025104876 0.096592501 0.03777891 0.26910493 0.95455086 0.12812187 0
0.0070830588 0.096371971 0.037825357 -0.021099741 0.98904628 0.14608993 0
0.012148931 0.096354663 0.037144274 0.38266304 0.91805089 0.10369007 0
0.049803611 0.097040534 0.038529523 -0.70609087 -0.6907326 -0.15596229 0
0.052171156 0.097838745 0.037628807 -0.6448608 -0.74554414 -0.16828144 0
0.057705786 0.097825162 0.037502352 -0.95771104 0.28394958 0.046499167 0
0.061343994 0.099716656 0.038220026 -0.097713441 0.99519467 0.0062938454 0
0.08429601 0.097455896 0.036924694 0.95582426 -0.019716287 0.2932767 0
0.087729782 0.095039025 0.035103928 0.28597519 0.765643 0.57620221 0
-0.030878125 0.10203242 0.037009008 -0.9625119 -0.26262054 -0.067832693 0
-0.028141385 0.10022031 0.03585298 -0.12252933 -0.98042101 -0.15414698 0
-0.0058396487 0.10040955 0.036733348 -0.15266134 -0.88140702 -0.44700801 0
-0.0021982039 0.10182983 0.036974151 0.76643699 -0.43189037 -0.47544199 0
0.062435415 0.10203183 0.036857981 -0.84811264 0.52570111 0.065904237 0
0.084587812 0.10120016 0.038784642 0.63346142 -0.50997984 0.58193403 0
0.086782835 0.10312722 0.038240369 0.63780475 -0.73380226 0.23396444 0
-0.030716565 0.1071941 0.037537504 -0.96317422 0.25814375 0.075213209 0
-0.027501946 0.10933204 0.036846373 -0.23856461 0.93403155 0.26584217 0
-0.022632955 0.10933053 0.039044674 -0.034130912 0.94462144 0.32638237 0
-0.017201142 0.10964261 0.039285693 -0.063788459 0.94776964 0.31251201 0
-0.014458835 0.10973722 0.039576914 -0.028367938 0.96676707 0.25408024 0
-0.00087016338 0.1067464 0.03765535 0.99997073 0.0076537803 0.00011984246 0
0.062939592 0.10755308 0.037240259 -0.98687541 -0.15618825 -0.041014489 0
0.089507885 0.10558335 0.037022747 0.72165364 -0.69154334 0.031365439 0
0.092026182 0.10727277 0.038594268 0.63597423 -0.63083786 -0.44449994 0
-0.025697185 0.1100005 0.035925213 -0.1927567 0.94432753 0.26662776 0
-0.022822464 0.11021981 0.035884038 0.020134825 0.96113044 0.27535951 0
-0.01725173 0.11033452 0.036860012 -0.0076593636 0.97496569 0.222223 0
-0.011819868 0.11073324 0.036874615 -0.071244538 0.96834141 0.23924707 0
-0.0076719355 0.11081773 0.037329718 -0.0024907959 0.97298747 0.23084451 0
-0.0025937138 0.11094804 0.036874831 0.19467716 0.94399613 0.26640582 0
0.062644571 0.11269353 0.037649911 -0.96892494 0.22648603 0.099441253 0
0.068022288 0.11493608 0.039594311 -0.058382399 0.93498999 0.34983602 0
0.092231013 0.11306588 0.037044786 0.95491564 0.29383492 0.04239323 0
0.063428275 0.11522388 0.037299793 -0.68945748 0.68727624 0.22869144 0
0.0677009 0.11562865 0.037232917 -0.053932294 0.97494334 0.21581659 0
0.072021395 0.11566665 0.037964139 -0.042963352 0.96309841 0.26569828 0
0.077754714 0.11585549 0.038175244 -0.048292607 0.95284027 0.29960528 0
0.082533628 0.11619435 0.037699565 -0.068100519 0.95192635 0.29866141 0
0.088051692 0.11644837 0.037051391 0.17747624 0.93993181 0.29159972 0
0.090793587 0.11579379 0.036842447 0.60089803 0.76548135 0.23012979 0
0.037024014 -0.097396269 0.042022012 -0.61258882 -0.77811611 -0.13881716 0
0.042664528 -0.097867712 0.041948956 0.071931809 -0.97799379 -0.19584155 0
0.047498591 -0.097373195 0.041661177 0.21232195 -0.95844537 -0.19053026 0
0.05044654 -0.09582369 0.04294778 0.87705845 -0.46519306 -0.11984907 0
0.03546048 -0.092267275 0.042129774 -0.99718815 -0.074238874 -0.010218444 0
0.050734509 -0.092286617 0.042745672 0.99519897 -0.080115855 0.05621963 0
0.034954309 -0.085726678 0.041901674 -0.9954595 -0.095145136 0.0027986586 0
0.03518118 -0.08856041 0.042257033 -0.99576944 -0.091884412 0.00067116995 0
0.051457006 -0.08714892 0.042489108 0.91510165 -0.22247967 0.33629125 0
0.03482122 -0.082768314 0.042192407 -0.99794114 -0.052124407 0.037370138 0
0.052624524 -0.082467854 0.042291097 0.83593869 -0.11145035 0.53738743 0
0.034423981 -0.076960012 0.042152479 -0.99755418 -0.063079834 -0.030110558 0
0.052446563 -0.077488266 0.042265151 0.7297157 0.22861846 0.64439785 0
0.056170326 -0.07708548 0.040094394 0.066148564 0.018978773 0.99762928 0
0.034572061 -0.072986603 0.042429853 -0.98364347 0.17241694 0.052133113 0
0.037529673 -0.070661679 0.042856976 -0.29749605 0.94163966 0.15751465 0
0.041977774 -0.07034874 0.043932114 -0.062568359 0.97740358 0.20190939 0
0.04890478 -0.07188037 0.042705715 0.74666047 0.64804119 0.15013605 0
0.050378758 -0.073765762 0.042467538 0.75552726 0.58995223 0.28484216 0
0.038635738 -0.069898538 0.040083956 -0.044296406 0.98636729 0.1584847 0
0.042720582 -0.069900341 0.041690655 -0.059781261 0.98856086 0.1384685 0
0.045472048 -0.06983415 0.04190255 0.066405527 0.98305172 0.17087871 0
-0.025722837 0.059760243 0.041281 -0.23353769 -0.82204354 0.51933092 0
-0.023337232 0.059179466 0.04057366 0.0060894499 -0.8100037 0.58639324 0
-0.019116558 0.059715338 0.040158629 0.2179583 -0.71939087 0.65952331 0
-0.027562128 0.062395494 0.042214107 -0.91692394 -0.33979002 0.20926814 0
-0.02189569 0.061828215 0.043114144 0.4466722 -0.6126402 0.65203977 0
-0.018671246 0.06248264 0.040724341 0.44195881 0.54525018 0.71230233 0
-0.027009754 0.065814652 0.044002209 -0.35533896 0.6410681 -0.68026906 0
-0.022902479 0.065849803 0.043363892 0.028164804 0.7797913 -0.62540573 0
-0.01836141 0.06691812 0.044881769 0.56728446 -0.27093127 -0.77767897 0
-0.010402858 0.069682583 0.042985477 -0.64787865 -0.74224925 0.17122869 0
-0.0075157536 0.067656614 0.042094026 -0.50873816 -0.84600151 0.15958379 0
-0.0021018926 0.065898411 0.042987008 -0.221946 -0.97429645 0.038554408 0
0.002558474 0.065771721 0.042614393 0.045542233 -0.99247032 -0.11370453 0
0.0073940693 0.06717813 0.042782616 0.84003514 0.53059375 0.11318686 0
0.012342402 0.067333385 0.042406604 0.88203692 -0.42291126 -0.20774268 0
0.015551074 0.067029946 0.042563744 0.93338001 -0.34164667 -0.10990561 0
0.05273195 0.068900615 0.042718839 -0.12699996 -0.97980541 -0.15444209 0
0.057429094 0.068957746 0.042611886 0.039795525 -0.98820245 -0.14789242 0
0.062849991 0.069169715 0.042712294 0.053860269 -0.98943704 -0.13458614 0
0.066409066 0.06957148 0.042107858 0.17759973 -0.98161447 -0.069938757 0
0.083774507 0.069489568 0.040438786 -0.47953585 0.49372089 0.72545505 0
0.087833583 0.068796448 0.043477684 -0.23089929 -0.79706788 0.55800396 0
0.092751689 0.068129815 0.04235927 0.34203684 -0.76509857 0.54555929 0
0.095512778 0.069447584 0.040001415 0.64749724 0.71517622 -0.26319256 0
-0.012595226 0.072679356 0.042460743 -0.84274143 -0.51189971 0.16657023 0
0.0048374338 0.072456941 0.042839214 0.99935508 0.031242983 -0.017701732 0
0.052124582 0.070966043 0.042000055 -0.46962354 0.87627184 0.10770988 0
0.056715406 0.071290657 0.0428975 -0.045911465 0.98884171 0.14171851 0
0.060966026 0.073242836 0.042033896 -0.96644026 0.2524761 0.047424391 0
0.06908001 0.0704211 0.042802893 0.38894296 -0.92000169 0.04816908 0
0.072740383 0.071849033 0.041667871 0.41036862 -0.89662874 0.16629614 0
0.076135613 0.073918849 0.041607145 0.72143704 -0.64262789 0.25798827 0
0.083741553 0.072876319 0.044183075 -0.85045332 -0.20522751 -0.4843663 0
0.087501474 0.072192945 0.042207699 -0.082213268 0.75838608 -0.64659995 0
0.092210963 0.072668619 0.042501669 -0.010961837 0.76668519 -0.64192975 0
0.095279284 0.072710328 0.043280449 0.73690724 0.47842419 -0.47757521 0
-0.015384864 0.077939928 0.04134769 -0.79976797 -0.37326589 0.47015294 0
-0.014320848 0.07656303 0.042754449 -0.90424615 -0.34540716 0.2510632 0
0.0046227565 0.077955216 0.042785093 0.99894363 0.043392453 -0.015125875 0
0.061019696 0.07698451 0.042567372 -0.99751598 -0.06948556 -0.011561519 0
0.077580556 0.076155484 0.042465515 0.80272651 -0.58652586 0.10778455 0
0.08522784 0.075014941 0.044830617 -0.011563761 0.62058008 -0.78405786 0
-0.017307559 0.083252855 0.041769914 -0.79271156 -0.24514133 0.5581345 0
0.0044536679 0.082153119 0.04226543 0.99941981 0.031585317 -0.012746785 0
0.060679 0.081919536 0.042403068 -0.99747413 -0.070356809 -0.0097630247 0
0.079490773 0.082045712 0.042913184 0.96245426 -0.24932742 0.10732097 0
0.080166332 0.083127387 0.041007977 0.90573233 -0.24968646 0.34249914 0
-0.017708026 0.087587997 0.042383734 -0.90570939 -0.088484377 0.41456118 0
0.0042529646 0.087860361 0.042260144 0.99898183 0.044804636 -0.005275568 0
0.060285375 0.087534636 0.042450845 -0.99742186 -0.070864521 -0.011311104 0
0.080883995 0.087655917 0.043114547 0.9554047 -0.23047224 0.18461937 0
-0.029253716 0.094533011 0.044988301 -0.27294037 -0.35158005 -0.895486 0
-0.022919908 0.094528042 0.04385205 -0.23996551 -0.76465195 -0.59810019 0
-0.018150492 0.092876166 0.041967303 -0.9757002 -0.14326304 0.16578548 0
0.0042030071 0.092457213 0.041844372 0.80545133 -0.58241606 -0.10972517 0
0.0075757108 0.092963181 0.04356505 0.028845351 -0.9881562 -0.15071608 0
0.012544747 0.093639985 0.042321138 0.34991202 -0.92238253 -0.1636218 0
0.059890423 0.093332916 0.042688623 -0.99645311 -0.083936587 -0.0059848092 0
0.060045045 0.091022983 0.042200845 -0.99791181 -0.064406142 -0.0048982785 0
0.082361877 0.092556842 0.041938901 0.95023692 -0.17437842 0.25815117 0
-0.030789677 0.098003149 0.043378659 -0.8453089 -0.41481113 -0.33672613 0
-0.027265487 0.097060561 0.042026971 0.0035301177 -0.81181252 -0.58390743 0
-0.02336584 0.096549779 0.041815139 -0.17791288 -0.72501206 -0.66536027 0
-0.019662727 0.096320167 0.041289695 -0.4945913 -0.86239612 -0.10794549 0
-0.00032117852 0.098755218 0.041437726 0.8513096 0.50858045 -0.12891065 0
0.0016036211 0.096684583 0.042486195 0.69459718 0.71792251 -0.046066739 0
0.0078260442 0.095649906 0.042758074 -0.021029275 0.98873597 0.14818504 0
0.012531332 0.095563665 0.043350324 0.12346842 0.98318708 0.13453135 0
0.049648263 0.097003981 0.042653061 -0.9967317 0.075546719 -0.028613525 0
0.052064195 0.096766651 0.042551365 -0.11070775 -0.98044366 -0.16270842 0
0.057618342 0.097244553 0.042383876 -0.45797065 -0.88056284 -0.12195132 0
0.060889918 0.099278763 0.042557992 -0.53594929 0.82952535 0.15699039 0
0.083024055 0.097122066 0.042404816 0.99302465 -0.11465217 -0.027510799 0
-0.030942421 0.10289122 0.042595867 -0.99092877 0.10761698 0.080491491 0
-0.00064029376 0.10227857 0.042760387 0.99608523 0.00051150919 -0.088396654 0
0.062933527 0.10240199 0.042014908 -0.95898157 0.27712354 -0.059640177 0
0.083260074 0.10162994 0.041734084 0.8536703 -0.51594669 -0.071035728 0
0.086848877 0.10248709 0.042703088 0.13791569 -0.80904436 -0.57133734 0
0.092190832 0.10396297 0.042845469 0.47245571 -0.65574014 -0.58888912 0
-0.030544354 0.10680106 0.040835116 -0.5405038 0.81024528 0.22662382 0
-0.027714118 0.10722876 0.042363614 -0.18931215 0.88761258 0.4198868 0
-0.022827554 0.10791527 0.042464934 -0.085028879 0.89836627 0.43093878 0
-0.017655917 0.10853549 0.04205722 -0.070405461 0.9143219 0.39882144 0
-0.011646927 0.10883608 0.042341612 -0.057007309 0.90245885 0.42698738 0
-0.0079103271 0.10895183 0.042625636 -0.076707222 0.89933681 0.43047556 0
-0.0023219958 0.10777317 0.042584199 0.63680971 0.69586068 0.332041 0
0.062767886 0.1079191 0.042832606 -0.99561399 -0.087736681 0.032483067 0
0.092580125 0.10784252 0.04220039 0.98977989 -0.059857115 -0.12943335 0
-0.0045019477 0.11010504 0.040607784 -0.11439746 0.93847895 0.32583821 0
0.063266166 0.11245194 0.042409323 -0.74910235 0.58419043 0.31235746 0
0.06746988 0.11342778 0.042945914 -0.035196684 0.89407682 0.44652855 0
0.072475664 0.11387634 0.042615399 -0.040437162 0.89754438 0.43906599 0
0.077097088 0.11396051 0.042927571 -0.035571657 0.89059013 0.45341349 0
0.082619168 0.11379141 0.043467898 -0.015919112 0.8719781 0.48928612 0
0.087742575 0.11399933 0.043023448 0.12206487 0.88006359 0.45889899 0
0.09186516 0.11200724 0.042180907 0.82942182 0.5181331 0.2088003 0
0.074734934 0.115034 0.040464327 -0.10161487 0.91517675 0.39003336 0
0.077588335 0.11514425 0.040354729 -0.047113393 0.93153381 0.3605898 0
0.083102427 0.1152509 0.040607944 -0.03613697 0.91900545 0.39258501 0
0.086051233 0.11539903 0.040497176 -0.037377693 0.90874654 0.41567144 0
0.037488151 -0.098168403 0.047084976 -0.46797442 -0.86608446 -0.17577709 0
0.042664632 -0.098862171 0.046930183 0.062938429 -0.97811824 -0.19830139 0
0.048022326 -0.098457284 0.047354568 0.22056004 -0.95594388 -0.19371283 0
0.050666176 -0.096327201 0.047968116 0.97411162 -0.21342924 -0.074528456 0
0.035489298 -0.093009904 0.046641074 -0.99997079 -0.00659665 0.0038773294 0
0.050646417 -0.092321359 0.047504306 0.99841285 0.053049512 -0.018909093 0
0.034934402 -0.085373744 0.047446392 -0.98807651 -0.14522713 -0.051125273 0
0.035271477 -0.087653682 0.04749665 -0.99595523 -0.087032698 0.022326771 0
0.050569411 -0.087513775 0.047883362 0.99757218 -0.058722034 0.037435748 0
0.034843262 -0.082278803 0.047272708 -0.99891979 -0.04117541 0.021536501 0
0.035056163 -0.084894046 0.048448913 -0.96849626 -0.18319666 -0.16868311 0
0.050863221 -0.082712688 0.047428329 0.9911716 0.016643805 0.1315361 0
0.034599409 -0.078105755 0.047644731 -0.99651265 -0.083440736 0.00034355308 0
0.04986129 -0.076127991 0.048891544 0.97432137 0.19836523 0.10653217 0
0.050458517 -0.077833854 0.046951424 0.97334856 0.17462201 0.14865954 0
0.034669276 -0.073202431 0.046868991 -0.99126989 0.13178942 0.003941841 0
0.037043002 -0.071573205 0.048111424 -0.20404845 0.96098763 0.18672752 0
0.042206693 -0.071070269 0.047367729 -0.064236373 0.9755708 0.21008413 0
0.047563676 -0.07184124 0.047167268 0.47786021 0.86247039 0.16671652 0
0.05006168 -0.074862882 0.045504183 0.97062016 0.19342756 0.14311649 0
-0.026550345 0.063646942 0.045769326 -0.4059945 -0.65185171 0.6405136 0
-0.02288994 0.064131111 0.0464257 0.21660052 -0.78884804 0.57515466 0
0.0038354865 0.064700529 0.048484191 -0.028204985 -0.98914695 -0.14419663 0
0.0069233072 0.064749487 0.049148142 0.06761504 -0.98734665 -0.14343943 0
-0.027589865 0.067392915 0.046973955 -0.99770194 -0.015747249 0.065900691 0
-0.022635072 0.068462349 0.046959169 -0.075049877 0.55381143 -0.8292529 0
-0.018176658 0.068006322 0.047603525 0.7610569 -0.61708164 0.20000651 0
-0.0072411066 0.068405934 0.04725099 -0.42992666 -0.88318974 0.18745354 0
-0.0027150146 0.06632144 0.04750704 -0.37585804 -0.92102265 0.10221585 0
0.0027810622 0.065997861 0.046500459 0.17322108 -0.97574359 -0.13386169 0
0.0065832413 0.067078792 0.047547869 0.90106833 0.43176153 -0.040716365 0
0.013104361 0.066769749 0.047426634 0.74077886 0.66506797 -0.094504938 0
0.015612272 0.06691739 0.047442768 0.94958091 0.3109155 -0.040344663 0
0.052235346 0.068368688 0.047051683 -0.26992825 -0.95167524 -0.14646873 0
0.057105735 0.068228059 0.047406103 0.042883746 -0.9881829 -0.14715818 0
0.062675253 0.068528287 0.047605734 0.10565318 -0.98534685 -0.13389935 0
0.066681288 0.06957715 0.047585219 0.40895528 -0.91231185 -0.021040784 0
-0.02720494 0.072614253 0.048448961 -0.2833105 0.35970294 -0.88901579 0
-0.022782037 0.071823053 0.047721226 0.07969702 0.49278945 -0.8664912 0
-0.017519038 0.07225614 0.048250269 0.081355251 0.1864835 -0.9790839 0
-0.012076598 0.071115464 0.047211695 -0.57168573 -0.80666953 -0.14986564 0
-0.0097159045 0.070191316 0.049802728 -0.39109659 -0.89363492 0.22013658 0
0.0048918831 0.073000126 0.046894569 0.99935055 0.029942194 -0.020050939 0
0.0050006509 0.070473932 0.049786825 0.99968827 0.013535743 -0.020980341 0
0.052682098 0.070353262 0.047644395 -0.11519969 0.98184234 0.15071347 0
0.057238877 0.070571981 0.047460411 -0.01237722 0.98937953 0.14482746 0
0.061252967 0.072833858 0.047663711 -0.99634361 0.084481537 0.012737636 0
0.069198139 0.070735335 0.047278151 0.41731232 -0.90641075 0.065344468 0
0.072543412 0.072682276 0.047448661 0.51070309 -0.83651644 0.19855131 0
0.075084619 0.074229069 0.047436252 0.51355141 -0.83554482 0.19526851 0
0.083299205 0.072966225 0.046374191 -0.75518572 -0.65301859 0.057108436 0
0.087581329 0.072283864 0.047909025 -0.029967917 -0.74504209 0.66634387 0
0.092692249 0.073057406 0.047639623 0.36428624 -0.63247007 0.68357664 0
-0.026895445 0.077702366 0.049732652 -0.07214357 0.15922992 -0.98460197 0
-0.022820596 0.077445708 0.049425848 -0.074103206 0.1926221 -0.97847098 0
-0.017422406 0.077386118 0.04855964 -0.42053965 0.11714344 -0.89967984 0
-0.014199671 0.076669022 0.045810752 -0.91887945 -0.25645557 -0.29981849 0
0.0047412212 0.07678844 0.047051113 0.99885392 0.04475325 -0.016967576 0
0.060900278 0.077834934 0.04819753 -0.99797589 -0.062452152 -0.011998748 0
0.078122571 0.076112516 0.046959337 0.44934133 -0.88811493 -0.096665591 0
0.082774609 0.077297084 0.047588713 -0.095658563 0.19779159 -0.97556543 0
0.087667793 0.077391177 0.046658996 -0.064889103 0.52138942 -0.85084808 0
0.092205219 0.077159286 0.047107492 0.24455793 0.5015676 -0.82983208 0
-0.026175082 0.08263927 0.049890459 -0.024424549 -0.061770968 -0.99779141 0
-0.022232551 0.081957154 0.049747795 -0.060206208 -0.02682915 -0.99782538 0
-0.017156143 0.082581654 0.048070312 -0.73396844 -0.19196753 -0.65148968 0
0.0045336843 0.082006469 0.048030976 0.99901861 0.042636111 -0.012000477 0
0.060607146 0.082576163 0.047639787 -0.99774927 -0.066804476 -0.0057907491 0
0.079711705 0.081820726 0.045847949 0.93787557 -0.023891317 -0.34614813 0
0.082032755 0.082642749 0.048419762 0.47324669 -0.020967864 -0.88068032 0
0.08734782 0.082634017 0.048741627 -0.029314028 0.12528321 -0.99168783 0
0.092819557 0.082082689 0.04877723 0.23868521 0.19103901 -0.9521206 0
0.095025241 0.081207223 0.049182825 0.83301163 0.29363155 -0.46890533 0
-0.030278195 0.087027051 0.049445756 -0.89668596 -0.094706699 -0.43241748 0
-0.02726808 0.087144151 0.048940938 -0.051690787 -0.35193893 -0.93459457 0
-0.022852182 0.087945603 0.048516456 -0.078351885 -0.38988391 -0.9175247 0
-0.017773043 0.086855307 0.046854425 -0.81997681 -0.31302869 -0.4792192 0
0.0043124454 0.087436713 0.047753308 0.99904275 0.042684224 -0.0095711742 0
0.060222242 0.088141516 0.047153503 -0.99784338 -0.065638758 -0.00039859765 0
0.081846669 0.087101318 0.047765478 0.72154844 -0.11587837 -0.68259811 0
0.087356672 0.087919876 0.049479134 0.064663231 -0.0076626455 -0.99787772 0
0.092736952 0.087745205 0.0497244 0.11658397 0.044785179 -0.99217057 0
-0.030711059 0.092899442 0.047605284 -0.87320155 -0.26407719 -0.40961242 0
-0.027724996 0.09255711 0.046232104 -0.018287543 -0.58819556 -0.80851197 0
-0.02232993 0.092132412 0.046276312 -0.080579698 -0.55373973 -0.82878172 0
-0.018596273 0.091510952 0.045907885 -0.48513874 -0.4170031 -0.76860183 0
0.0043854038 0.092727356 0.04695024 0.84605479 0.52907473 0.065355197 0
0.0072719059 0.093150251 0.047904816 0.029785566 -0.98817068 -0.15043767 0
0.012646693 0.093177997 0.047350887 0.51143175 -0.84372979 -0.16296555 0
0.051410645 0.094869368 0.048758376 -0.10385827 -0.98081011 -0.16499992 0
0.059474971 0.093633361 0.047478363 -0.96197832 -0.26962382 -0.04359746 0
0.060046494 0.090878241 0.047729369 -0.99801731 -0.062939532 0.00023602812 0
0.082906008 0.092219993 0.047367591 0.75272298 -0.39848441 -0.52404028 0
0.087533906 0.092066735 0.048976939 0.070781566 -0.21500665 -0.97404414 0
0.092257783 0.092490904 0.04918259 0.075212277 -0.20862967 -0.97509837 0
-0.030937325 0.098064654 0.047435831 -0.99767441 0.019168144 0.065409318 0
-0.00041185378 0.099422991 0.04966151 0.98724443 0.14969262 0.054227266 0
0.0013666734 0.096598931 0.046879593 0.75251162 0.64266366 0.14390835 0
0.007856098 0.095102876 0.046411991 -0.020961475 0.98873413 0.14820762 0
0.011893265 0.095185198 0.046294037 0.093022943 0.98440325 0.14932197 0
0.049755558 0.095963262 0.045915831 -0.73807102 -0.63488078 -0.228424 0
0.051917046 0.096366279 0.046781767 -0.057485659 -0.98550737 -0.15959537 0
0.05739985 0.097005174 0.047085378 -0.25900561 0.95308846 0.15664774 0
0.061428625 0.09890791 0.047166806 -0.61020821 0.77948081 0.14161769 0
0.084120631 0.097539179 0.045660269 0.4057124 -0.63846189 -0.65403658 0
0.087349534 0.097662449 0.046750192 0.096656621 -0.48655945 -0.86828417 0
0.092482917 0.097673021 0.048038486 0.69740164 -0.28607026 -0.65711099 0
-0.030633435 0.10250152 0.04596943 -0.95773154 0.19447768 0.21196425 0
-0.028371112 0.10357996 0.04783427 -0.28017938 0.7279017 0.62582636 0
-0.023827434 0.10378232 0.048796218 -0.10152063 0.73128134 0.67447853 0
-0.017630015 0.10446385 0.048501275 -0.041739333 0.77473384 0.63090825 0
-0.011491709 0.10434666 0.04940604 -0.066760466 0.77897745 0.62348789 0
-0.0086336248 0.10441254 0.049561698 -0.048739959 0.77163464 0.6341958 0
-0.0010586351 0.10277896 0.047283906 0.94904774 0.25830796 0.18051431 0
0.063078351 0.10252526 0.047809314 -0.98098969 0.17353474 0.086861327 0
0.08796563 0.10034566 0.04519156 0.20046139 -0.65478414 -0.72874749 0
0.093233645 0.10286016 0.047437958 0.9950186 0.028994329 -0.095379628 0
-0.02749061 0.10564443 0.045577925 -0.21648729 0.81842887 0.53226638 0
-0.022989774 0.10600016 0.045968074 -0.054695353 0.84449053 0.53277034 0
-0.017199071 0.10608178 0.046468806 -0.064006574 0.80087137 0.595406 0
-0.012792431 0.10611983 0.047016136 -0.065612681 0.81205189 0.57988501 0
-0.0078409156 0.10675506 0.046512999 -0.059689693 0.82886803 0.55625075 0
-0.0025396498 0.10631081 0.047227282 0.47880405 0.71528882 0.50902718 0
0.063051179 0.10763557 0.046982624 -0.99208915 0.014332366 0.12471463 0
0.066694245 0.10942446 0.048840221 -0.039483301 0.75539291 0.65408146 0
0.072904564 0.10950551 0.04925362 -0.046196435 0.787678 0.6143527 0
0.077220336 0.10949703 0.049424905 -0.021191925 0.76461548 0.64413834 0
0.082518242 0.10940019 0.049587008 -0.02394253 0.72544813 0.68786031 0
0.087227769 0.10966089 0.049391638 -0.0070397211 0.74351406 0.66868323 0
0.092333749 0.10838064 0.047395211 0.88110882 0.33827615 0.33047912 0
0.064168178 0.11142048 0.046010178 -0.41173536 0.75346786 0.51260144 0
0.067671977 0.11122575 0.046674918 -0.03496214 0.8137641 0.58014274 0
0.072191305 0.11152978 0.04652134 -0.03376893 0.80887806 0.58700597 0
0.076993205 0.11128227 0.047100507 -0.029115902 0.80184352 0.59682423 0
0.082141943 0.11130478 0.047267795 -0.018551322 0.79754078 0.60297978 0
0.087422296 0.11151448 0.047093734 0.086651407 0.79918516 0.59480637 0
0.091669217 0.11097091 0.04652442 0.57368964 0.71083903 0.40692496 0
0.038529105 -0.10648596 0.05451503 -0.20522943 -0.47282156 -0.85692513 0
0.042457264 -0.1067488 0.054083508 0.0014666064 -0.49237627 -0.87038118 0
0.04619943 -0.1060114 0.053827818 0.090260506 -0.50248152 -0.85986364 0
0.050905451 -0.10541457 0.054696407 0.33059964 -0.41068035 -0.8497327 0
0.033708695 -0.10226188 0.054161012 -0.35235742 -0.32265377 -0.87848663 0
0.037351828 -0.10265131 0.053091001 -0.2693564 -0.42020434 -0.86653066 0
0.042878881 -0.10250809 0.052132525 -0.019837767 -0.33531389 -0.94189757 0
0.048324019 -0.1030795 0.052898932 0.21837084 -0.34647495 -0.91228795 0
0.052320484 -0.10243277 0.053934198 0.34876534 -0.34082058 -0.87304306 0
0.03294538 -0.097415321 0.053457588 -0.45272341 -0.11358934 -0.88438624 0
0.036381647 -0.097920768 0.051484216 -0.52334082 -0.53252929 -0.66522688 0
0.043111742 -0.099676214 0.050669774 0.073646724 -0.96388489 -0.25593364 0
0.047864214 -0.099393621 0.051364373 0.15207843 -0.88903075 -0.43185228 0
0.051562823 -0.097322956 0.052179731 0.63136506 -0.14381078 -0.76203448 0
0.055740971 -0.097527683 0.054403108 0.48099372 -0.12421945 -0.86787939 0
0.032328334 -0.093225993 0.053581215 -0.49042967 0.049741227 -0.87006009 0
0.035311781 -0.091891684 0.051547538 -0.70299357 0.05499202 -0.70906693 0
0.052215815 -0.09220358 0.05231313 0.67522049 0.077213041 -0.73356354 0
0.056200549 -0.093328603 0.05450746 0.54433125 0.0490265 -0.83743656 0
0.03320989 -0.087709889 0.053238209 -0.5200848 -0.010216905 -0.85405356 0
0.035296071 -0.088553652 0.050803311 -0.98664993 -0.13192031 -0.095493354 0
0.052169416 -0.087325066 0.052724671 0.67797184 -0.085230649 -0.73013008 0
0.055680547 -0.088407263 0.054723144 0.50897038 0.10449608 -0.85441774 0
0.033493593 -0.082351871 0.052750055 -0.81392914 0.089393757 -0.5740453 0
0.052681748 -0.082387842 0.053341188 0.66604424 0.17418176 -0.72529012 0
0.033794332 -0.077968597 0.053376541 -0.79476088 0.039062455 -0.60566425 0
0.04969931 -0.076201715 0.052262139 0.99272233 0.11926355 0.016691556 0
0.051253352 -0.077492565 0.053286694 0.74001044 0.27814251 -0.61238986 0
0.034242354 -0.07298746 0.053465668 -0.76901776 0.23092997 -0.59605634 0
0.037227273 -0.071860157 0.051947836 -0.12101293 0.9911648 -0.054297626 0
0.042921837 -0.071212821 0.051791869 -0.055200294 0.78700739 -0.61446917 0
0.04801425 -0.071808048 0.052608728 0.54769206 0.65716517 -0.51784879 0
0.051215708 -0.073194675 0.054487262 0.40601751 0.11212441 -0.90696084 0
0.034562699 -0.068114504 0.054611281 -0.29481357 0.085390434 -0.95173186 0
0.03760023 -0.067731902 0.053929657 -0.18989685 0.090473182 -0.97762662 0
0.042385299 -0.067409538 0.05360416 0.053524181 0.10582551 -0.99294323 0
0.047504839 -0.067309909 0.054243922 0.18274826 0.11098171 -0.97687572 0
0.050480794 -0.06852334 0.054878835 0.29591924 0.11895093 -0.94777769 0
0.037754919 -0.061916057 0.054438591 -0.16364373 0.089991957 -0.98240638 0
0.042544506 -0.061682902 0.054239281 0.053146586 0.10279413 -0.99328184 0
0.046693195 -0.062779181 0.054564353 0.18410483 0.10677487 -0.97708982 0
0.037434984 -0.057987452 0.054867286 -0.17247362 0.099831112 -0.97994214 0
0.041661799 -0.057505012 0.054621276 0.065130353 0.13534302 -0.98865581 0
0.046526399 -0.059322078 0.054902066 0.16312765 0.11158808 -0.9802742 0
0.0029475372 0.064389229 0.053276651 -0.32434729 -0.94417971 -0.057649668 0
0.0080133937 0.064324543 0.052805558 0.068063661 -0.98893148 -0.13184032 0
0.012423509 0.064742833 0.051943779 0.067842342 -0.98893106 -0.13195701 0
0.016640415 0.064816445 0.054962881 0.83004624 -0.52948475 -0.1751263 0
-0.026107073 0.068954647 0.05036309 -0.31562704 -0.53572142 0.78318721 0
-0.021932984 0.069537736 0.051141102 0.15202186 -0.58646059 0.79558367 0
-0.0062608132 0.068687305 0.050275505 -0.44602662 -0.86449558 0.23174925 0
-0.0024436258 0.067121029 0.0525272 -0.52983838 -0.78769571 0.31433547 0
0.00055320526 0.065266326 0.052030645 -0.448798 -0.88692647 0.10927883 0
0.0061500552 0.067342706 0.052373748 0.5636059 0.82021618 0.097947873 0
0.012310482 0.067245148 0.052391063 0.10538916 0.9876498 0.11593562 0
0.015977329 0.06647785 0.053037465 0.83258969 0.55382681 0.0083874632 0
0.052330986 0.068108015 0.052728646 -0.57682127 -0.80019695 -0.16420121 0
0.057400409 0.068708099 0.052300643 0.96261865 -0.03898197 -0.2680406 0
0.061544936 0.068013392 0.05267258 0.10885282 -0.98735839 -0.11521505 0
0.066208847 0.069476426 0.052338731 0.53931206 -0.83494812 0.10956338 0
-0.027793486 0.073003091 0.051753979 -0.5895496 -0.41120058 0.69523042 0
-0.022190506 0.072002985 0.053449135 -0.16250215 -0.6911782 0.70417738 0
-0.017191958 0.071576506 0.05300289 0.046254519 -0.90581453 0.42114198 0
-0.012728959 0.071498446 0.052720774 -0.12975436 -0.96541119 0.22615251 0
-0.0085730571 0.070492119 0.052822541 -0.32909584 -0.89860469 0.29018191 0
0.0049706157 0.073573098 0.051933147 0.99901819 0.039783031 -0.019490644 0
0.0050383359 0.071308911 0.052284334 0.99961931 0.018223349 -0.020715395 0
0.057500169 0.070110783 0.050438583 -0.0065353909 0.98756701 0.15706274 0
0.061186004 0.071882956 0.05256835 -0.95916247 0.28146052 0.028060457 0
0.068479702 0.071242772 0.052507613 0.62896293 -0.74792129 0.21217757 0
0.072244689 0.073714145 0.051565032 0.53013945 -0.80477029 0.26701486 0
0.088085264 0.074790426 0.050361432 0.099928305 -0.51819813 0.84940273 0
-0.028770715 0.077177659 0.05217931 -0.90649807 -0.15975139 0.39082077 0
0.0048701745 0.07638339 0.052935101 0.99874276 0.046340555 -0.019116117 0
0.060884506 0.077427723 0.051643331 -0.99777782 -0.065469585 -0.012373734 0
0.073644832 0.075581476 0.053930499 0.49459335 -0.7853545 0.37228447 0
0.077659555 0.076745272 0.052132025 0.28107348 -0.89021152 0.35849833 0
0.082335062 0.07720793 0.0519641 0.011844229 -0.76410353 0.6449849 0
0.087207079 0.07781107 0.052392766 0.092588134 -0.61445403 0.78350091 0
0.092270873 0.077992313 0.051168829 0.45305908 -0.38445848 0.80431908 0
-0.03019092 0.083447024 0.051345933 -0.94034857 -0.094792329 -0.32674003 0
-0.028874749 0.081712902 0.052064408 -0.93334877 -0.29576659 -0.20342621 0
0.0045694257 0.082501307 0.052371483 0.99892545 0.044573333 -0.012692104 0
0.060588591 0.082314998 0.05246187 -0.99816775 -0.060483493 -0.0017008667 0
0.088477731 0.080748059 0.054289024 0.28923836 -0.58251554 0.7596162 0
0.093475424 0.08272972 0.051984947 0.82596457 -0.15888099 0.540869 0
0.0950469 0.082349598 0.050031871 0.91286105 -0.053469982 0.40475395 0
-0.030593054 0.087351419 0.052772969 -0.99561477 -0.090917431 -0.022026854 0
0.0043480666 0.087708049 0.051825766 0.99910754 0.040542141 -0.011853229 0
0.060262512 0.087587468 0.052136324 -0.9979198 -0.064249694 0.0052978508 0
0.093644373 0.087885417 0.052343942 0.9392038 -0.0050525218 0.34332287 0
-0.030778896 0.092237398 0.052497886 -0.97396398 0.082530715 0.2111463 0
-0.02984417 0.093060166 0.054468095 -0.8085885 0.054558221 0.58583969 0
0.0033149514 0.093576439 0.052613892 0.32590684 0.92783648 0.18139531 0
0.0069039622 0.09256503 0.0524849 0.036794174 -0.98726642 -0.1547616 0
0.012791355 0.093054816 0.052411105 0.99328059 -0.062699288 -0.097275488 0
0.049436491 0.094457477 0.052722294 -0.42083359 -0.89025873 -0.17417961 0
0.052623354 0.094266608 0.052824169 0.041285332 -0.98613662 -0.16071741 0
0.058668442 0.093516923 0.052949149 -0.7864337 -0.61093462 -0.090999931 0
0.06003977 0.091040574 0.052631009 -0.99805486 -0.062333416 0.0009801056 0
0.093886204 0.092204191 0.05233993 0.97328001 -0.076994039 0.21632843 0
-0.030710597 0.096135147 0.051059656 -0.92120081 0.23578987 0.30950305 0
-0.027258784 0.097620629 0.053738169 -0.19655296 0.57853919 0.79161811 0
-0.022390103 0.098939098 0.053503513 -0.066089131 0.62640017 0.77669495 0
-0.017080333 0.098580666 0.05414803 -0.079097763 0.588799 0.80440003 0
-0.013014533 0.098681726 0.054344781 -0.057528004 0.56443357 0.82347149 0
-0.0079714246 0.098939896 0.054570161 -0.05790798 0.5015595 0.8631829 0
-0.0015749373 0.098365404 0.053373396 0.66980439 0.26672736 0.69297802 0
0.00095302641 0.095894516 0.050133467 0.7637105 0.63133395 0.13477284 0
0.049169824 0.096057825 0.052622098 -0.77870893 0.62308997 0.073288716 0
0.052100964 0.096676186 0.052940443 -0.06941954 0.98544002 0.15520608 0
0.058301788 0.097156063 0.052648187 -0.067172974 0.98456526 0.16161413 0
0.06218335 0.098371446 0.052652773 -0.68225712 0.70544755 0.19201289 0
0.093837306 0.097429574 0.052207343 0.99435526 0.095102765 0.047043279 0
-0.030019104 0.10050146 0.050306555 -0.92762119 0.26058894 0.26760495 0
-0.028137509 0.10082547 0.051003642 -0.22798587 0.68361485 0.69332039 0
-0.022242088 0.10143431 0.051425327 -0.085336648 0.68898934 0.71973002 0
-0.01758666 0.10130742 0.051902149 -0.056637339 0.66387749 0.74569362 0
-0.012978003 0.10215418 0.051511619 -0.06185611 0.6815508 0.72915184 0
-0.0081143649 0.1022471 0.051797416 -0.026618991 0.66040909 0.7504341 0
-0.002645775 0.1022517 0.051576387 0.39754945 0.64943999 0.64821452 0
0.063810341 0.10250287 0.0525443 -0.96127087 0.088732772 0.26093063 0
0.069031514 0.10356409 0.054358143 -0.01101313 0.55962312 0.82867408 0
0.071656398 0.10421055 0.053927083 -0.030291704 0.56287163 0.82598907 0
0.07697466 0.10438253 0.053837575 0.041874662 0.57620126 0.81623441 0
0.083708398 0.10420205 0.054008227 0.020993112 0.59101355 0.80638844 0
0.087786198 0.10352122 0.054363042 0.080397569 0.561867 0.82331145 0
0.092721283 0.10251419 0.052225035 0.86160642 0.31106961 0.40108597 0
0.063946128 0.10651378 0.051686324 -0.54052037 0.54770702 0.63863516 0
0.067429319 0.10681509 0.051686957 -0.037927032 0.68947154 0.72331917 0
0.072745636 0.10708138 0.051609706 -0.0093224971 0.64186943 0.76675731 0
0.077866271 0.10680018 0.051920503 -0.011476367 0.63983512 0.76842654 0
0.082730278 0.10714665 0.05172215 -0.013794045 0.64514887 0.76393235 0
0.087296739 0.10706188 0.051751107 0.033521563 0.63682806 0.77027678 0
0.091216922 0.10635121 0.051518597 0.49530536 0.55284667 0.67009938 0
0.033977769 -0.11087912 0.059736833 -0.4187527 -0.62758487 -0.65634096 0
0.037904438 -0.11174016 0.058726851 -0.2291386 -0.70350927 -0.67273337 0
0.042584833 -0.11199723 0.058210015 -0.013968889 -0.72477996 -0.68883878 0
0.047513042 -0.11210938 0.058747213 0.18122254 -0.70571274 -0.68492907 0
0.051541787 -0.11101604 0.059082493 0.34563392 -0.68356484 -0.6428656 0
0.029547196 -0.1053988 0.058149435 -0.54134297 -0.4913699 -0.6822781 0
0.033260074 -0.10809335 0.05778252 -0.414424 -0.56754631 -0.711438 0
0.036862019 -0.10847772 0.056320641 -0.29157668 -0.57098705 -0.76743525 0
0.04312472 -0.1091733 0.055602808 0.036676437 -0.61779886 -0.78548038 0
0.047643017 -0.10932212 0.056266751 0.16260377 -0.58753115 -0.79269618 0
0.052775793 -0.10805606 0.057233896 0.38025317 -0.54650432 -0.74615043 0
0.056138925 -0.10646692 0.0581812 0.53269911 -0.49429211 -0.68695492 0
0.027377471 -0.10214833 0.058728684 -0.67322534 -0.29602376 -0.67759687 0
0.031343766 -0.10317431 0.055851053 -0.51926708 -0.37035057 -0.7701962 0
0.054930154 -0.10496397 0.05621231 0.45447832 -0.51487583 -0.72687846 0
0.056975175 -0.10277601 0.056731183 0.5816443 -0.33264574 -0.74231845 0
0.060668997 -0.10199204 0.059672698 0.71654558 -0.30181298 -0.62886512 0
0.027861895 -0.097886682 0.057003442 -0.64628512 -0.15023884 -0.7481603 0
0.058399554 -0.098358169 0.056465216 0.62137568 -0.17829119 -0.76295775 0
0.061192457 -0.0968979 0.058838937 0.72821993 -0.08291927 -0.68030888 0
0.024620254 -0.094218984 0.059804488 -0.8014223 -0.018533209 -0.59781176 0
0.026562281 -0.092496537 0.057757005 -0.6838845 0.019685699 -0.72932458 0
0.058711961 -0.092299238 0.056388769 0.63529187 0.055270478 -0.77029181 0
0.060965855 -0.092557833 0.058424719 0.73701733 0.048403662 -0.67413837 0
0.02754057 -0.087509878 0.057112288 -0.62564594 0.033080824 -0.77940547 0
0.03009673 -0.085335813 0.05537935 -0.52588302 0.047371671 -0.84923673 0
0.058322266 -0.087026589 0.056686845 0.61852312 0.10536627 -0.77867007 0
0.060977817 -0.088518478 0.058959611 0.72647882 0.093213618 -0.68083745 0
0.0248664 -0.081940845 0.059596583 -0.6752975 0.022885466 -0.73719037 0
0.027320238 -0.082482018 0.057474673 -0.61751842 0.036924437 -0.78568923 0
0.030441647 -0.082303315 0.05533585 -0.52408195 0.048921231 -0.85026163 0
0.057280641 -0.083038814 0.056515846 0.57352698 0.11516155 -0.81105161 0
0.060784459 -0.083622143 0.059447177 0.72575498 0.096895143 -0.68109542 0
0.024761904 -0.077185228 0.05986578 -0.65378743 0.02652722 -0.75621313 0
0.027028004 -0.078017876 0.057948202 -0.61776054 0.034481011 -0.78560996 0
0.030474745 -0.075750239 0.055702519 -0.49134874 0.059295654 -0.8689422 0
0.053999364 -0.07675527 0.055281911 0.47432095 0.11661093 -0.87259477 0
0.057776611 -0.077207394 0.057698172 0.591461 0.10680781 -0.79922831 0
0.024874456 -0.072924852 0.059879366 -0.65669292 0.015348038 -0.75400186 0
0.026714049 -0.072450802 0.058385506 -0.60185057 0.03270372 -0.79793882 0
0.031145914 -0.072309569 0.055641122 -0.43348584 0.068427801 -0.89855874 0
0.053729314 -0.072843134 0.055678852 0.45964614 0.11630868 -0.88045311 0
0.057830676 -0.073434502 0.058210306 0.6203416 0.091981173 -0.77891964 0
0.027179005 -0.067050248 0.058339722 -0.5569253 0.047177084 -0.82922173 0
0.031864952 -0.067191839 0.055740494 -0.42872861 0.074651115 -0.90034378 0
0.053419068 -0.06762027 0.056211576 0.46486709 0.11685587 -0.87763506 0
0.056883864 -0.067162611 0.058258131 0.55961001 0.10881229 -0.82158172 0
0.024987223 -0.064197294 0.059977774 -0.60622597 0.078153692 -0.79144305 0
0.027259877 -0.062828451 0.05850799 -0.53724867 0.061861102 -0.84115225 0
0.032623332 -0.062102508 0.055850472 -0.37047532 0.06690722 -0.92642939 0
0.03516271 -0.061015546 0.055072233 -0.23161738 0.076924019 -0.96976089 0
0.048611939 -0.06157922 0.055145659 0.30220541 0.11114389 -0.94674122 0
0.052822046 -0.063100085 0.056546532 0.40832555 0.11662973 -0.90535504 0
0.056783721 -0.062565982 0.058790036 0.55340284 0.10912547 -0.82573426 0
0.028230382 -0.057146199 0.058262546 -0.48744211 0.048788685 -0.87179118 0
0.03258178 -0.057489831 0.056193393 -0.34848702 0.074136354 -0.93437713 0
0.035748083 -0.057126682 0.055247739 -0.20954338 0.08555416 -0.97404927 0
0.041683737 -0.055030361 0.055007022 0.075808242 0.29979497 -0.95098692 0
0.047262665 -0.056771107 0.055376675 0.20726314 0.11041342 -0.97203439 0
0.05226111 -0.057028007 0.057016861 0.41067588 0.10887558 -0.90525764 0
0.056342956 -0.058228079 0.059058249 0.51044238 0.11343389 -0.85239744 0
0.027223434 -0.051967751 0.059141167 -0.51926792 0.049334068 -0.85318637 0
0.033235297 -0.052005053 0.056786433 0.10469747 0.2316564 -0.96714723 0
0.037277233 -0.053308882 0.057155415 0.34843028 0.86699969 -0.35624123 0
0.042300049 -0.05386794 0.057068683 -0.1764279 0.94865578 -0.26253667 0
0.047480099 -0.052455608 0.056858249 -0.062939383 0.39631173 -0.91595614 0
0.05248642 -0.05312255 0.057595123 0.42566705 0.10930114 -0.89825439 0
0.056233868 -0.052122671 0.059774164 0.48502254 0.11411281 -0.86702448 0
0.028046992 -0.047099121 0.059006289 -0.47065642 0.064722523 -0.8799395 0
0.032644507 -0.04757126 0.057576705 0.3556655 0.029291855 -0.93415415 0
0.047996368 -0.04754366 0.057513483 -0.65146887 0.015914245 -0.75850838 0
0.052729066 -0.047266144 0.058476951 0.41865164 0.1140221 -0.90096045 0
0.055584289 -0.049346067 0.059734955 0.50597221 0.10882579 -0.85565716 0
0.028484643 -0.04277559 0.059142973 -0.41558769 0.081356414 -0.90590727 0
0.0320631 -0.043323353 0.057735529 -0.22106536 -0.0090671135 -0.97521687 0
0.036994442 -0.042180996 0.0583984 0.47859207 -0.73083186 -0.4866564 0
0.042443231 -0.0412958 0.058310762 -0.25681666 -0.86626136 -0.42852813 0
0.046608891 -0.041635059 0.057719409 -0.10085136 -0.14737488 -0.9839257 0
0.052435026 -0.042748492 0.058912635 0.42133373 0.11768445 -0.89923757 0
0.028321024 -0.037190124 0.059794527 -0.4200879 0.17296299 -0.89084792 0
0.033260871 -0.03790608 0.057764672 -0.20339118 0.12165993 -0.97150964 0
0.037887994 -0.037000444 0.057112537 -0.092851229 0.12743089 -0.98749179 0
0.042120293 -0.037868138 0.05692929 0.061681684 0.11543812 -0.99139768 0
0.047358945 -0.03730819 0.05784186 0.24061763 0.13337159 -0.96141315 0
0.051788077 -0.037673458 0.059261162 0.39375398 0.11980651 -0.91137493 0
0.029394375 -0.034035932 0.059835427 -0.39507771 0.02472092 -0.91831505 0
0.032953467 -0.032810599 0.058758419 -0.25555512 0.10771973 -0.96077472 0
0.037030488 -0.032731209 0.05798367 -0.08912503 0.16712043 -0.98189998 0
0.042506725 -0.032112256 0.058083083 0.087474778 0.26018411 -0.96158844 0
0.047091924 -0.032374855 0.058881514 0.23935966 0.21211483 -0.94747788 0
0.050711617 -0.034590233 0.059339553 0.32660243 0.43099785 -0.84117287 0
0.03232998 -0.02766961 0.059433598 -0.26069638 0.096020386 -0.96063381 0
0.037327353 -0.027545856 0.058607485 -0.064651787 0.11706134 -0.99101812 0
0.042170089 -0.027909292 0.058587231 0.080797471 0.11887985 -0.9896158 0
0.047272921 -0.028721668 0.059461102 0.27616221 0.12984855 -0.95229912 0
0.033501074 -0.023436332 0.059584171 -0.17921774 0.096558683 -0.97905946 0
0.03718074 -0.022588976 0.059206516 -0.053815503 0.11460444 -0.99195248 0
0.04244962 -0.022809295 0.059242729 0.14692074 0.12914486 -0.98068142 0
0.045987181 -0.023378391 0.059824161 0.28405917 0.13337237 -0.94948524 0
0.033763476 -0.019463006 0.059886277 -0.24328136 0.10581525 -0.9641667 0
0.037003033 -0.017192751 0.059800215 -0.039355524 0.11243774 -0.99287903 0
0.042721789 -0.01880566 0.059763771 0.16111556 0.10875736 -0.9809249 0
-0.065718405 -0.0006385569 0.058745582 -0.2150199 -0.923971 -0.3162975 0
-0.06264215 -0.0011169341 0.058807489 -0.11563797 -0.93958002 -0.3222068 0
-0.057209488 -0.001000538 0.058293067 0.039245203 -0.93423349 -0.35449633 0
-0.052530728 -0.00078310678 0.058479615 0.074957736 -0.93279558 -0.35252458 0
-0.048344672 -0.00066974486 0.059021261 0.050280537 -0.94541252 -0.32197356 0
-0.044096947 -0.00042175534 0.058815699 0.051530387 -0.97584045 -0.21232049 0
-0.037135959 -0.00010337638 0.059107684 0.061846491 -0.97590244 -0.20925923 0
-0.075665139 0.0048161647 0.059315626 -0.65005553 -0.70673907 -0.27919111 0
-0.072361223 0.0029111982 0.058183741 -0.46202058 -0.70705169 -0.53536433 0
-0.067918576 0.0020582222 0.057190564 -0.2461201 -0.51138544 -0.82335275 0
-0.062596761 0.0021443933 0.05616343 -0.043343987 -0.26997 -0.96189266 0
-0.057050705 0.0020454535 0.056179106 0.011312546 -0.18620561 -0.98244566 0
-0.052486386 0.0029284821 0.056123082 0.015955783 -0.12728181 -0.99173826 0
-0.047972962 0.0027739317 0.056119304 0.007245224 -0.21405335 -0.97679502 0
-0.04224759 0.0027843474 0.056314763 0.014681453 -0.27739793 -0.96064293 0
-0.037816681 0.0024392558 0.056541052 0.019128764 -0.38080183 -0.9244588 0
-0.032401614 0.0017902909 0.057214011 0.038909659 -0.67142123 -0.74005377 0
-0.027490428 0.0019878489 0.057392385 0.037538517 -0.6817981 -0.73057663 0
-0.021734338 0.0017549383 0.057641931 0.034027386 -0.78751516 -0.61535513 0
-0.017989052 0.0025116538 0.057312425 0.03569128 -0.70056999 -0.71269053 0
-0.0118078 0.0019281431 0.057630252 0.035109349 -0.81386048 -0.57999867 0
-0.0079084979 0.0025451137 0.057471663 0.042503625 -0.74786711 -0.66248637 0
-0.002411294 0.0030858605 0.057358496 0.034571465 -0.71911013 -0.69403565 0
0.0023636841 0.0031581724 0.057549298 0.047150448 -0.77602845 -0.62893301 0
0.0073215133 0.0032692708 0.05764946 0.043645136 -0.79983979 -0.59862453 0
0.012446763 0.0031729508 0.05827222 0.054545444 -0.91554868 -0.3984915 0
0.017587535 0.0036102026 0.05797312 0.049957756 -0.87527895 -0.48103118 0
0.022440111 0.0037788004 0.058125898 0.048663754 -0.89366007 -0.44609806 0
0.028062399 0.0039794552 0.058412932 0.053648628 -0.90929312 -0.41268384 0
0.033441629 0.0041803461 0.058671724 0.049496971 -0.92662847 -0.37270585 0
0.037447538 0.0045046113 0.058402121 0.059143137 -0.89915413 -0.43361729 0
0.041920766 0.0045860438 0.058861867 0.05510905 -0.96967471 -0.23810489 0
0.047630142 0.0048048091 0.059375491 0.068311699 -0.9704622 -0.23137978 0
0.050496254 0.0049430546 0.059690472 0.053014588 -0.97901297 -0.19678189 0
-0.077260189 0.008236357 0.058257818 -0.61792946 -0.38234282 -0.687006 0
-0.072637625 0.0078188851 0.056597836 -0.14168574 -0.035765968 -0.98926532 0
-0.067125291 0.0079511059 0.056324139 0.0031640534 0.095351957 -0.99543864 0
-0.062244102 0.0071671335 0.056261998 0.00079583586 0.094506852 -0.99552387 0
-0.057689264 0.0069750329 0.056240287 -3.3086722e-05 0.096237913 -0.99535835 0
-0.051417381 0.0070018363 0.056257557 0.00038308653 0.10180869 -0.99480397 0
-0.047107901 0.0074783727 0.056276515 -0.0078381905 0.098847911 -0.99507177 0
-0.042153187 0.0064083673 0.056135625 -0.0066607194 0.098104246 -0.99515378 0
-0.037345849 0.0072050393 0.056181792 -0.0067403689 0.098049171 -0.99515873 0
-0.033032447 0.0076489956 0.056197654 -0.0060775122 0.097168565 -0.99524933 0
-0.027852679 0.007862539 0.056189783 -0.0053957016 0.096509732 -0.9953174 0
-0.022568772 0.0071653724 0.05607162 -0.011481516 0.095281526 -0.9953841 0
-0.017494472 0.0075143068 0.056051742 -0.0092563815 0.10041619 -0.99490249 0
-0.012853133 0.0077140559 0.056053206 0.00054959214 0.10658847 -0.99430311 0
-0.0077961111 0.0066506192 0.05598563 0.011575214 -0.0076533603 -0.99990374 0
-0.0020436111 0.0074528255 0.055991054 -0.011570958 0.050632671 -0.99865037 0
0.0022511128 0.007769126 0.055961907 -0.010947279 0.051868264 -0.99859393 0
0.0070099356 0.0080716005 0.055908836 -0.012761903 0.087768637 -0.99605912 0
0.012537022 0.0082580009 0.055900544 -0.0069493521 0.046242163 -0.99890608 0
0.017778084 0.0071621337 0.055807762 -0.0017528402 -0.026920548 -0.99963605 0
0.022517309 0.0074959821 0.055825345 -0.00037946252 -0.079586595 -0.9968279 0
0.027193412 0.0077722785 0.055822115 0.0065553207 -0.15372418 -0.98809206 0
0.031703606 0.0066290842 0.056045257 0.013231948 -0.255193 -0.96679956 0
0.037473325 0.0072128484 0.056021191 0.018104313 -0.31350875 -0.9494127 0
0.042133901 0.0076277331 0.056105126 0.015012105 -0.28430161 -0.95861727 0
0.047196425 0.0071078106 0.056416389 0.028880278 -0.45362747 -0.89072329 0
0.053006489 0.0069634882 0.056709297 0.039064273 -0.60389006 -0.7961098 0
0.057401016 0.0070807282 0.057284229 0.035860352 -0.63535923 -0.77138364 0
0.062374182 0.0079195723 0.056285977 0.030858561 -0.45483959 -0.89003855 0
0.068051808 0.0071607595 0.057432581 0.041060224 -0.77097595 -0.63553923 0
0.072610117 0.0072772237 0.057644915 0.046864532 -0.79619366 -0.60322416 0
0.07736139 0.0074636671 0.057757802 0.052169658 -0.78383833 -0.61876953 0
0.081907742 0.0079358825 0.05752822 0.031749453 -0.72072017 -0.69249868 0
0.088119105 0.0078411782 0.057850514 0.042021181 -0.81229079 -0.58173698 0
0.092758805 0.0080138957 0.057811629 0.049359132 -0.80237204 -0.59477961 0
0.097583964 0.0082330508 0.058018234 0.060378768 -0.84753215 -0.52729845 0
0.10233898 0.0087094875 0.057682212 0.039634835 -0.78913426 -0.61294067 0
0.10764182 0.0088275652 0.057874706 0.05452865 -0.8325454 -0.55126661 0
0.11345286 0.0090864515 0.058018334 0.047394957 -0.82823056 -0.55837971 0
0.11672249 0.0091538178 0.058152463 0.053630866 -0.89820677 -0.43628931 0
0.12259563 0.0092175379 0.05872741 0.057276256 -0.92881459 -0.36609146 0
0.12690674 0.0093474118 0.058910191 0.055512786 -0.95696449 -0.28484595 0
0.1323431 0.0096378746 0.059013147 0.052598201 -0.96315706 -0.26374605 0
0.13528405 0.0096278982 0.059638515 0.24401282 -0.93951541 -0.24035083 0
-0.080625944 0.013364561 0.059107482 -0.75996375 -0.24401313 -0.60242242 0
-0.077437766 0.012908719 0.057393122 -0.35969153 -0.078563049 -0.92975801 0
-0.072817326 0.012527784 0.056761038 0.00095480069 0.098453782 -0.99514121 0
-0.067331985 0.012803651 0.056795508 0.0013747611 0.097863831 -0.99519885 0
-0.062423315 0.011824913 0.05670755 0.0012345628 0.097017691 -0.99528199 0
-0.05797755 0.012989227 0.056845732 0.005463229 0.10227722 -0.9947409 0
-0.052669611 0.012492829 0.056815997 -0.0013686344 0.10143328 -0.99484134 0
-0.047260717 0.012603395 0.056789953 -0.0089071589 0.10057773 -0.99488932 0
-0.042494364 0.012768876 0.056769874 -0.0061646658 0.10246698 -0.9947173 0
-0.038256813 0.012540469 0.056724053 -0.0055924528 0.1029695 -0.99466878 0
-0.032955669 0.012061259 0.056643471 -0.0051990147 0.1051235 -0.99444556 0
-0.027354816 0.012586615 0.056667488 -0.0066587487 0.10648637 -0.99429178 0
-0.022527451 0.012410227 0.056614142 -0.0073746196 0.10697638 -0.9942342 0
-0.017330544 0.012915406 0.056631945 -0.0053447993 0.10750125 -0.99419051 0
-0.013117318 0.012092951 0.05652776 -0.0017925586 0.10841867 -0.99410367 0
-0.0076035024 0.012750886 0.056588434 -0.0080213826 0.10554899 -0.99438179 0
