# .PCD v0.7 - Point Cloud Data file format
VERSION 0.7
FIELDS x y z normal_x normal_y normal_z curvature
SIZE 4 4 4 4 4 4 4
TYPE F F F F F F F
COUNT 1 1 1 1 1 1 1
WIDTH 495
HEIGHT 1
VIEWPOINT 0 0 0 1 0 0 0
POINTS 495
DATA ascii
-0.045791831 -0.025023062 -5.8726808e-05 0.0079085175 -0.6287685 -0.77755231 0
-0.042584296 -0.025036026 -3.5427583e-05 -0.0022661197 -0.49727842 -0.86758804 0
-0.037282757 -0.025057185 -4.3142216e-05 -0.0098819192 -0.57322019 -0.81934178 0
-0.032052971 -0.02510426 -5.3859359e-05 -0.015629983 -0.52598828 -0.85034817 0
-0.027310606 -0.025109386 -0.00010684363 -0.010606491 -0.45139974 -0.89225876 0
-0.022696821 -0.025179001 -9.8748671e-05 -0.0045549846 -0.42910603 -0.90324259 0
-0.017594216 -0.025229387 -0.00011951559 -0.0196649 -0.55087382 -0.83435678 0
-0.012794729 -0.025203133 -0.00015649463 0.007140758 -0.49016079 -0.87160277 0
-0.0078050662 -0.025233179 -0.00011365375 -0.0093915397 -0.45258233 -0.89167315 0
-0.0025423376 -0.025237633 -0.00013335688 0.0080202529 -0.42437026 -0.90545321 0
0.0023136309 -0.025274334 -0.00011923663 0.0032150666 -0.47198346 -0.88160151 0
0.0076758531 -0.025243133 -0.00014146497 -0.0038632907 -0.43674561 -0.89957672 0
0.011943164 -0.025238363 -0.00016960192 -0.0012772792 -0.3851046 -0.92287207 0
-0.047211997 -0.022796003 -0.00013326194 0.025073744 -0.030234311 -0.9992283 0
-0.042248294 -0.024405379 -0.0001457757 -0.00024903184 0.0443822 -0.99901456 0
-0.037286051 -0.024399873 -0.00015224855 -0.0074817375 0.056792509 -0.99835801 0
-0.032423638 -0.024327593 -0.00021800426 0.0042918669 0.15548994 -0.9878282 0
-0.027219346 -0.024420172 -0.00017204584 -0.0032887659 0.092580639 -0.9956997 0
-0.022216948 -0.024347376 -0.00021708323 0.0024776505 0.29611439 -0.95514923 0
-0.017436799 -0.024454426 -0.00025940945 -0.031634003 0.24681418 -0.96854633 0
-0.012693262 -0.024449887 -0.00024201404 0.015276072 0.33263609 -0.94293159 0
-0.0074619683 -0.024399702 -0.00020393643 0.013015684 0.15221593 -0.98826158 0
-0.0024930618 -0.0244867 -0.00025900855 -0.019549083 0.15549207 -0.98764366 0
0.0029082429 -0.024465477 -0.000234892 0.02185306 0.23987867 -0.97055686 0
0.0077876463 -0.024399942 -0.00019761514 0.0050254301 0.16318607 -0.98658252 0
0.013021274 -0.02323458 -0.00018509569 -0.075136021 0.13659135 -0.98777395 0
-0.047499329 -0.017170141 -0.00013045051 0.049579278 0.0077459863 -0.99874014 0
0.014281064 -0.017621601 -0.00018813642 0.061228242 -0.0016679467 -0.99812239 0
-0.047576785 -0.012461708 -0.00017460645 -0.016641853 -0.01526851 -0.99974489 0
0.014347618 -0.012401448 -0.00021818625 0.042003229 -0.01604134 -0.99898869 0
0.015040455 -0.01063375 -3.8825965e-05 0.85860693 -0.0093355039 -0.51254952 0
-0.047555778 -0.0077091455 -0.00019352668 -0.05146629 0.019293437 -0.99848837 0
0.014336279 -0.0074192504 -0.00022609888 -0.061081231 0.0066078394 -0.99811095 0
0.015008395 -0.0056042667 -2.4653442e-05 0.75556928 -0.034417156 -0.65416414 0
-0.047444038 -0.0025761609 -0.00014198852 0.041385815 -0.0041196723 -0.99913472 0
0.014214719 -0.0025855524 -0.00021066479 -0.10142882 0.0066343858 -0.99482077 0
0.015035155 -0.0031701603 -4.7133886e-05 0.54385269 -0.016406346 -0.83902031 0
-0.047493566 0.0025925462 -0.00015583749 -0.0047994521 -0.028988784 -0.99956822 0
-0.041694749 0.0048479494 -0.00010259078 -0.035514589 -0.49950191 -0.86558455 0
-0.037234072 0.0048556039 -7.7709912e-05 0.0051847692 -0.6257723 -0.77998859 0
-0.032166839 0.0048109032 -0.00011819004 -0.0051546758 -0.56887829 -0.82240564 0
-0.026930837 0.0048537627 -0.00014205361 -0.0013179645 -0.47537675 -0.87978125 0
-0.023050411 0.0047823098 -0.00012784735 0.062416989 -0.49685371 -0.86558682 0
-0.017528551 0.0048323483 -0.00013665629 -0.0011579136 -0.7026664 -0.71151853 0
-0.012535569 0.0047823014 -0.00014211086 0.0013013277 -0.63965493 -0.76866102 0
-0.0081409216 0.0045575202 -0.00013231851 -0.0012471698 -0.40032008 -0.91637456 0
-0.0021482739 0.0047404668 -0.00017698487 -0.0093790609 -0.51233512 -0.85873437 0
0.0025453146 0.0047099786 -0.00022000184 -0.012777878 -0.5486812 -0.83593404 0
0.0072347382 0.0045354501 -0.00016994918 0.0083364025 -0.46748215 -0.88396329 0
0.013647765 0.0029752059 -0.00022513919 -0.062286548 -0.13364235 -0.9890703 0
0.015063006 0.0021058065 -8.1115315e-05 0.60237908 0.020862881 -0.79793745 0
-0.046570875 0.0055169296 -0.00016409886 -0.072549105 0.033823401 -0.99679118 0
-0.042550966 0.005551971 -0.00017955892 -0.012170235 0.13047245 -0.99137729 0
-0.037795145 0.0055041187 -0.00018379514 -0.0026941905 0.092206895 -0.99573624 0
-0.032655917 0.0055763931 -0.00022613615 -0.0026620785 0.2370934 -0.97148323 0
-0.027200928 0.0056286599 -0.00020196155 0.0067858752 0.24199574 -0.97025359 0
-0.022512488 0.0055826907 -0.00020174336 0.0039025387 0.20767403 -0.97819036 0
-0.017634651 0.0056080287 -0.00027347344 -0.011488354 0.22535837 -0.97420818 0
-0.01247125 0.0055865962 -0.00024926933 0.021580653 0.24056348 -0.97039342 0
-0.0075750137 0.005578958 -0.00022027396 0.0063906596 0.273004 -0.96199167 0
-0.0020471781 0.005537462 -0.00023015383 -0.00044821613 0.23035604 -0.97310627 0
0.0025472629 0.0055253101 -0.00025208836 0.0028625019 0.32085443 -0.94712418 0
0.0071510915 0.0055051725 -0.00024733832 0.0015640261 0.29637665 -0.9550699 0
0.012438943 0.0054687811 -0.00026070006 0.075772084 0.27196613 -0.95931906 0
0.015041884 0.0051970747 -1.9449021e-06 0.85959506 0.20926276 -0.46616042 0
-0.046555225 -0.025346227 0.0023825213 -0.11543394 -0.99265361 -0.036245838 0
-0.042525992 -0.025367932 0.002471162 0.002865731 -0.9987725 -0.049449876 0
-0.037657641 -0.025377065 0.0024505358 -0.0042372192 -0.99848622 -0.054839533 0
-0.032608781 -0.025417577 0.0024918485 -0.011581607 -0.99932623 -0.034829099 0
-0.027467748 -0.025485303 0.0026392171 -0.016530581 -0.99910051 -0.039048716 0
-0.02262787 -0.025561821 0.0026182358 -0.015097524 -0.99905574 -0.040739227 0
-0.017444273 -0.025622178 0.0024302138 -0.0049694083 -0.99846661 -0.055133056 0
-0.012303169 -0.025646651 0.0025441716 -0.00012519278 -0.99889731 -0.046949022 0
-0.0075441413 -0.025636401 0.0024255037 -0.00018323369 -0.99867737 -0.051414695 0
-0.0025895555 -0.025634067 0.002510678 0.00055184972 -0.99891335 -0.04660257 0
0.0025533941 -0.025649464 0.0024579733 -0.0055535925 -0.9993934 -0.034379758 0
0.0073432317 -0.025682732 0.0024311261 -0.012263992 -0.99831992 -0.056630488 0
0.012686523 -0.025702795 0.0024239176 0.13904555 -0.98888475 -0.052662693 0
0.015103509 -0.025167225 0.0013997508 0.83649844 -0.54739261 0.02513204 0
-0.047399003 -0.022388998 0.0023742625 -0.71832526 0.62905866 -0.29714316 0
-0.042421721 -0.023259649 0.0023622809 -0.16580166 0.97837472 -0.12366372 0
-0.037467156 -0.023528401 0.0023367375 0.1195127 0.99034256 -0.070273437 0
-0.032629747 -0.023640672 0.0023641847 0.010233904 0.99897301 -0.044138826 0
-0.027324192 -0.023534063 0.0023561616 -0.21127258 0.97454816 -0.074964896 0
-0.022707913 -0.02341599 0.0023871509 0.23994523 0.96685112 -0.087322384 0
-0.017428074 -0.02335557 0.0030529543 0.035009786 0.96563125 -0.25754741 0
-0.012529681 -0.0238121 0.0023177376 -0.036674961 0.99798763 -0.051726252 0
-0.007524088 -0.023381472 0.0025911506 0.056278955 0.99450004 -0.088330656 0
-0.0023396516 -0.023805028 0.0024192296 -0.0030597139 0.99938935 -0.034807134 0
0.0025263703 -0.023810953 0.0024984702 0.0021258509 0.9990977 -0.042417265 0
0.0075105065 -0.023445465 0.0024200724 0.054662291 0.9918403 -0.11517312 0
0.012929469 -0.022697167 0.0027180675 -0.62232774 0.77263141 -0.12549496 0
0.015182362 -0.022674607 0.0016721979 0.99996024 -0.0087583642 -0.0016804583 0
-0.047284741 -0.017636778 0.0025277091 -0.53038585 -0.30242726 -0.79197752 0
-0.035878733 -0.015414415 0.0035096563 -0.48191151 -0.86897093 -0.11247618 0
-0.032263357 -0.015945533 0.0030678187 0.065068953 -0.92187703 -0.38198003 0
-0.029323779 -0.015368847 0.003444202 0.49689171 -0.86015648 -0.11501918 0
-0.020329637 -0.015244808 0.0030708341 -0.51008475 -0.8496244 -0.1339853 0
-0.017241929 -0.016591657 0.0033470909 -0.11914362 -0.77340603 -0.62261385 0
-0.013830831 -0.015676165 0.003266877 0.42593861 -0.88312429 -0.1966415 0
-0.0022804197 -0.015937366 0.0029011208 -0.28654099 -0.88914627 -0.35680979 0
0.0018544474 -0.015816538 0.0031354674 0.37001979 -0.89282531 -0.25680414 0
0.01332104 -0.017480982 0.0028588898 -0.98778719 0.03171657 -0.1525472 0
0.015167183 -0.017443953 0.0017034041 0.99992228 -0.0011406115 -0.012412943 0
-0.047443092 -0.012382094 0.0024083783 0.18555288 0.0057816398 -0.98261726 0
-0.037444539 -0.012730884 0.003181115 -0.066212222 0.044997867 -0.99679047 0
-0.032450017 -0.014564073 0.0032766915 -0.041135684 0.9883821 -0.14631666 0
-0.027550049 -0.012591947 0.0031980667 0.48190644 -0.25561351 -0.83810967 0
-0.021868065 -0.012395347 0.0032402412 -0.15303874 -0.31014723 -0.93828988 0
-0.017581709 -0.014533675 0.0033987982 0.17711309 0.97569847 -0.12900938 0
-0.011892329 -0.012832111 0.0030358599 -0.2052381 0.23050539 -0.95118064 0
-0.0066622491 -0.01196435 0.0033121044 -0.3443794 -0.64231068 -0.68471879 0
-0.0030168016 -0.014214712 0.003263941 0.41183683 0.88858187 -0.20202127 0
0.0032312027 -0.013484946 0.0031897034 -0.58739227 0.65092069 -0.48090807 0
0.0056944299 -0.011627463 0.003265776 0.93337506 -0.30866063 -0.18313801 0
0.013646537 -0.012340107 0.002922701 -0.98925787 0.0029370477 -0.14615197 0
0.015171133 -0.012446417 0.0018014385 0.99997741 -0.0049894401 0.0045003206 0
-0.04737252 -0.0075513585 0.0024700782 0.65474713 -0.0241645 -0.75546163 0
-0.037904784 -0.0072088023 0.0031517795 -0.25045115 -0.20673944 -0.9457975 0
-0.030088449 -0.0050417418 0.0041496069 -0.50518376 -0.86300999 -0.0017276257 0
-0.02737386 -0.0072512398 0.003131028 -0.13049331 -0.23820625 -0.96240807 0
-0.022137308 -0.0076195467 0.0031683124 0.19116534 -0.040066056 -0.98073983 0
-0.019484397 -0.0053794771 0.0033967858 0.54150683 -0.83854228 -0.060143597 0
-0.011722216 -0.0070907413 0.0031015545 -0.7280066 -0.48190805 -0.48761767 0
-0.00679118 -0.0078498228 0.0031446624 -0.1871305 0.44265905 -0.87694651 0
-0.0040326337 -0.0058073299 0.0032215335 0.62541646 -0.7520175 -0.20814398 0
0.0038966497 -0.0068884213 0.0031104856 -0.82030666 -0.45392603 -0.34791979 0
0.005696754 -0.0080311121 0.0031154165 0.92197514 0.28072685 -0.26674765 0
0.013566719 -0.0074761114 0.0027737585 -0.98703116 0.0059308014 -0.16041934 0
0.015198231 -0.0074498886 0.0016538181 0.99909961 -0.0067985696 -0.041877702 0
-0.046972945 -0.0024955149 0.0025440175 0.82754147 -0.10683622 -0.55114537 0
-0.036256 -0.0041000936 0.0032143916 -0.56066424 0.80064553 -0.21123987 0
-0.032540742 -0.0037357514 0.0031212654 0.020551255 0.022138048 -0.99954367 0
-0.028847076 -0.0041775727 0.0030527976 0.55906069 0.78079498 -0.27894503 0
-0.020763842 -0.004376628 0.0031779364 -0.59435058 0.78541064 -0.1728511 0
-0.017204592 -0.0035207875 0.0031510382 -0.055055417 0.033496972 -0.99792129 0
-0.01363682 -0.004093193 0.003282123 0.50659209 0.7958371 -0.3316741 0
-0.0052533206 -0.0048030778 0.00346136 -0.65018857 0.75347066 -0.097656801 0
-0.0021839463 -0.0039318777 0.0029767435 -0.34640756 0.56687695 -0.74743056 0
0.0018804786 -0.0040157274 0.0030415708 0.45510644 0.77190387 -0.44389483 0
0.013282675 -0.0024607254 0.0028281386 -0.98713708 0.054311022 -0.15036842 0
0.015228899 -0.002473312 0.0019552761 0.99963814 -0.007293547 0.02589188 0
-0.047189608 0.0026959591 0.0024806149 -0.21967958 -0.90950066 -0.35291547 0
-0.042241964 0.0043025613 0.0023295269 -0.17496876 -0.98104364 -0.083301999 0
-0.037481833 0.0044924691 0.0023976204 0.12936008 -0.98991531 -0.057737458 0
-0.032286257 0.0045560305 0.0025071979 -0.0036536015 -0.99964452 -0.026409874 0
-0.027326943 0.0044277376 0.0024626194 -0.181343 -0.98222953 -0.04837238 0
-0.02261861 0.0041751857 0.002583018 0.21616663 -0.97368097 -0.072231524 0
-0.017211642 0.0038720735 0.0029508199 -0.061659291 -0.95303845 -0.29650614 0
-0.012546428 0.0044775703 0.0024528534 -0.038145572 -0.99879718 -0.030807383 0
-0.0075753932 0.0039739446 0.0024201842 0.018273883 -0.99432814 -0.1047743 0
-0.002582991 0.0043488862 0.0025000041 -0.012647545 -0.99890035 -0.045145866 0
0.0024516003 0.0042920508 0.0025048212 -0.0089508295 -0.99965101 -0.024854233 0
0.0075326506 0.003768177 0.0024028176 0.010450703 -0.99281788 -0.11917867 0
0.012836131 0.0028998398 0.002578595 -0.72413069 -0.67580956 -0.13753593 0
0.015259159 0.0024649687 0.0020819518 0.99906427 -0.015095548 0.04052984 0
-0.046944596 0.0062280991 0.0025325567 -0.41023836 0.91196847 0.0042279586 0
-0.042563334 0.0064711142 0.0022741011 0.015105183 0.99630523 -0.084543847 0
-0.037354387 0.0064167362 0.0024087336 0.007200595 0.99755126 -0.069567248 0
-0.032454859 0.0064027249 0.0023770886 -0.0015016274 0.99806732 -0.062124252 0
-0.027371263 0.0064203893 0.0026600033 -0.0013286285 0.99894786 -0.045841638 0
-0.022281937 0.0064271875 0.0023437019 -0.0021904437 0.99768919 -0.06790749 0
-0.017512325 0.0064352178 0.0025248781 0.004403173 0.99866694 -0.051429275 0
-0.012538685 0.0063879029 0.0023792626 0.011425917 0.99773991 -0.066215515 0
-0.0075778812 0.0063260151 0.0024849062 0.01323097 0.99836987 -0.055520657 0
-0.0022614982 0.00626283 0.0027074127 0.011700847 0.99924541 -0.037036248 0
0.0024060658 0.0062143016 0.0024291479 0.0073990216 0.99903244 -0.043353062 0
0.0075680036 0.006184936 0.0025201121 0.0022955327 0.99911898 -0.041903745 0
0.012669959 0.0061313775 0.002453571 0.13305067 0.99083644 -0.023253962 0
0.015177448 0.0054326216 0.0019981975 0.92295873 0.38441852 0.019226646 0
-0.045982171 -0.025222152 0.0068259127 -0.18509535 -0.97837478 0.092316829 0
-0.042280219 -0.025325622 0.0073582996 -0.0051423358 -0.99995226 0.0083143562 0
-0.037511118 -0.025345985 0.0074929148 -0.0061078444 -0.99996877 0.0050122607 0
-0.032457933 -0.02538467 0.0074739875 -0.011474807 -0.99992216 0.0048938533 0
-0.027510827 -0.025455441 0.0074352007 -0.014919197 -0.99986017 0.0075550224 0
-0.022390287 -0.025537396 0.0074121067 -0.017328097 -0.99982804 0.0066004829 0
-0.017455082 -0.025601692 0.0075047831 -0.0090871165 -0.99994087 0.005971177 0
-0.012621345 -0.025626959 0.0077346619 -0.0023157354 -0.99997383 0.0068505458 0
-0.0074522574 -0.025630975 0.007485054 0.00053235603 -0.99999225 0.0039073625 0
-0.0024021643 -0.025632355 0.007517525 -0.00081082009 -0.9999994 0.00072504359 0
0.0026254072 -0.025645733 0.0075561712 -0.0059172185 -0.99998224 0.00072898413 0
0.0075272699 -0.025692709 0.007551787 -0.014011587 -0.99990141 -0.00087836466 0
0.01187175 -0.025643693 0.0074673886 0.18835637 -0.97760946 0.093816236 0
-0.046639148 -0.022362869 0.0072056553 -0.91676205 -0.031467546 0.39819232 0
-0.04278636 -0.022799181 0.0076596378 0.11156419 0.97655332 -0.18411137 0
-0.037606984 -0.023442458 0.0073465519 0.1522252 0.98554027 -0.074416958 0
-0.032570325 -0.023578495 0.0076142759 0.0087667378 0.99956334 -0.028217865 0
-0.027205694 -0.023367969 0.0075915731 -0.27818429 0.95895255 -0.054986414 0
-0.022614041 -0.023269001 0.0075531052 0.27886432 0.95529699 -0.098195426 0
-0.01701892 -0.022312071 0.007538008 0.14959867 0.98851281 -0.021512298 0
-0.012511236 -0.023731036 0.0076428303 -0.048235428 0.99783069 -0.044801567 0
-0.0076428219 -0.023133133 0.007682059 0.06039818 0.9901495 -0.12631688 0
-0.0025756964 -0.023749737 0.0075357142 -0.0035362167 0.99973631 -0.022688629 0
0.0024614101 -0.023725754 0.007550552 -0.0076469001 0.99716377 -0.074873105 0
0.0074361381 -0.023240749 0.0073839151 -0.0043209298 0.99822068 -0.059471209 0
0.01248181 -0.022421569 0.0074935141 0.3673355 0.9300797 -0.0040482441 0
-0.046429649 -0.017562373 0.0072143362 -0.85567451 0.016620541 0.51724738 0
-0.044536512 -0.017264629 0.0089781526 0.88012475 0.0093842549 -0.47464985 0
-0.03602726 -0.015624683 0.007845073 -0.54764086 -0.81943136 -0.16917975 0
-0.032521516 -0.016535465 0.0074854284 0.0050999792 -0.96903926 -0.2468541 0
-0.029101722 -0.015554516 0.0077069206 0.56528556 -0.80214876 -0.19237894 0
-0.020604456 -0.015304625 0.0077124713 -0.58410835 -0.80383533 -0.1125442 0
-0.017140999 -0.017707404 0.0075501902 -0.28653175 -0.94573224 -0.15326476 0
-0.013523373 -0.01578315 0.0075262235 0.46346989 -0.87921739 -0.11032885 0
-0.0051553594 -0.015068789 0.0086763659 -0.62076217 -0.77062982 -0.14416678 0
-0.0025959662 -0.016411187 0.0077105789 -0.33617535 -0.91355634 -0.22891244 0
0.0020094556 -0.01618572 0.0075760484 0.42433113 -0.88611525 -0.18639432 0
0.012677782 -0.017616386 0.0074259792 -0.93988729 -0.30526376 0.15305512 0
-0.046401363 -0.012532461 0.0072346358 -0.87795687 0.019004997 0.47836235 0
-0.044449121 -0.012482058 0.0089254631 0.85146481 0.028795192 -0.52362055 0
-0.037692212 -0.012496273 0.0074972576 -0.9451589 0.24977539 -0.21044439 0
-0.032496084 -0.014544549 0.0075156754 -0.042413939 0.99886388 0.021727249 0
-0.027482508 -0.012501916 0.0074779941 0.55749154 -0.82555348 -0.087548226 0
-0.022155423 -0.012182126 0.0075948415 -0.15164807 -0.9828245 -0.10516161 0
-0.017626539 -0.01445909 0.0074663297 0.22093058 0.97528279 0.0036241252 0
-0.012071078 -0.013001959 0.0075582066 -0.60454965 0.78293997 -0.14671335 0
-0.0070015532 -0.011913381 0.007512494 -0.1711638 -0.98518115 0.010998711 0
-0.0028643487 -0.014085251 0.0073821349 0.45867148 0.88859779 0.0038057789 0
0.0031190813 -0.013282561 0.00739579 -0.69784182 0.71624517 0.0030878526 0
0.0058788718 -0.011910362 0.007528381 0.9457134 -0.31789055 -0.067613818 0
0.012688392 -0.012515776 0.0074838316 -0.6716066 0.096558213 -0.7345891 0
-0.046464685 -0.0074936519 0.0071132453 -0.9004246 -0.0062938752 0.43496656 0
-0.044386663 -0.0073437104 0.008947337 0.84981084 -0.063935451 -0.52319556 0
-0.03793117 -0.0073686093 0.0075446377 0.32979903 -0.94265085 0.051400825 0
-0.030042401 -0.0050207982 0.006848041 -0.43321469 -0.90128607 0.002916432 0
-0.027383693 -0.0071242419 0.0075711301 -0.99459594 0.014411395 -0.10281685 0
-0.022193983 -0.00746678 0.0074668881 0.77171707 0.63596034 0.0027073503 0
-0.01939836 -0.0053396826 0.0076956931 0.57459021 -0.81827718 -0.016388848 0
-0.011810531 -0.0069399066 0.0074106441 -0.85099262 -0.51858693 -0.082940981 0
-0.0070306417 -0.0076981816 0.0075345924 -0.089194179 0.9956103 0.028365834 0
-0.0040634293 -0.0060025165 0.0074414993 0.68318725 -0.73002684 -0.017776674 0
0.0036836637 -0.0068693147 0.0072858701 -0.84098148 -0.54105473 0.0031484771 0
0.005901963 -0.0078939842 0.0075456323 0.95972383 0.27349022 -0.064290278 0
0.012727597 -0.0075745778 0.0077261096 0.97257233 -0.20615372 -0.10772034 0
-0.046373282 -0.0025352738 0.0071625616 -0.85770547 -0.029490259 0.51329488 0
-0.044423677 -0.0025133817 0.0088952389 0.88628089 -0.022352401 -0.46260849 0
-0.036358062 -0.0037943705 0.0073994999 -0.59706008 0.78384352 -0.17061219 0
-0.032521617 -0.0034294093 0.0075759171 0.034409352 0.20165907 -0.97885114 0
-0.028711278 -0.0037147638 0.0078301979 0.61140203 0.74786299 -0.25862825 0
-0.020970382 -0.004231283 0.0075285817 -0.62224746 0.76830465 -0.15005337 0
-0.017113786 -0.0028078451 0.0074398792 -0.1299594 -0.79017884 -0.59893888 0
-0.013438872 -0.0039331992 0.0075322464 0.52794904 0.83976799 -0.1267259 0
-0.0053274855 -0.0044557834 0.0080811409 -0.70535171 0.64750034 -0.28848258 0
-0.0021799181 -0.0034833786 0.0077243643 -0.4104555 0.72143984 -0.55771935 0
0.0019771834 -0.00375228 0.0077379039 0.56185448 0.76365423 -0.31804368 0
0.012796192 -0.0024818026 0.0075332946 0.7920692 0.0086148046 0.61037064 0
-0.046390969 0.0024922809 0.0071733193 -0.90377134 -0.084602065 0.41957107 0
-0.042955987 0.0035136321 0.0078299306 0.21883851 -0.92714328 -0.30416274 0
-0.037636429 0.0043680179 0.0074843853 0.20567279 -0.97542012 -0.079084821 0
-0.03234525 0.0045062946 0.0074762143 -0.0049139247 -0.9997924 -0.01977597 0
-0.027315993 0.0043185451 0.007371854 -0.23532833 -0.97121227 -0.036975648 0
-0.022648174 0.0040260227 0.0073891771 0.22041818 -0.97316676 -0.066048168 0
-0.016999263 0.0027504517 0.0074419919 -0.075854681 -0.99594599 -0.048350208 0
-0.012573353 0.0044181044 0.0073629334 -0.011741695 -0.9996838 -0.022236848 0
-0.0076444698 0.0038147173 0.0075388351 0.038115818 -0.99773616 -0.055405512 0
-0.0026580293 0.0042923968 0.0074789128 -0.010392816 -0.99966627 -0.023650238 0
0.002514747 0.0042348625 0.0075556459 -0.01316982 -0.99864554 -0.050335888 0
0.0073690442 0.0036514795 0.0075013856 -0.11868733 -0.99169356 -0.049571175 0
0.012605268 0.0025945331 0.0073504816 0.17636922 -0.97994101 -0.092787109 0
-0.046298359 0.0059567667 0.0073803351 -0.67159939 0.6783551 0.29797441 0
-0.042452756 0.0064674965 0.0075301393 0.019238994 0.99981087 0.0028286471 0
-0.037539769 0.0063989772 0.0075704497 0.0084905867 0.99993873 0.0070932475 0
-0.032501787 0.0063755303 0.0076013831 -0.00092591933 0.99997836 0.0065135616 0
-0.027593702 0.0063918959 0.0074125356 -0.00380193 0.99996221 0.0078170123 0
-0.022607615 0.0064135375 0.0075829597 -0.005567342 0.99995559 0.0076027876 0
-0.017469758 0.006425105 0.0075235716 0.0022241217 0.99997389 0.0068782982 0
-0.012504379 0.0063945316 0.0075420332 0.0101961 0.99993443 0.0052089766 0
-0.007327931 0.0063307155 0.0074779061 0.012685842 0.99991488 0.0030652757 0
-0.0024244767 0.006271888 0.0076235761 0.010647431 0.99994326 0.00036179626 0
0.0025706636 0.0062248707 0.0076115308 0.0076416847 0.99997056 -0.00069769967 0
0.0074711242 0.0062094834 0.0076954807 -0.00023525952 0.99999541 -0.0030450509 0
0.012276073 0.0059999065 0.0072032115 0.30313125 0.94415081 0.12919225 0
-0.045053348 -0.025107084 0.01027469 -0.58493698 -0.71711344 0.37894192 0
-0.041758675 -0.025299592 0.012074016 -0.051286012 -0.99753541 0.047885362 0
-0.037273355 -0.025329215 0.01245535 -0.0039405222 -0.99999028 -0.0019944778 0
-0.032404508 -0.025371509 0.012518206 -0.011833034 -0.99992996 0.00023766053 0
-0.027627338 -0.025428679 0.012507704 -0.01281625 -0.99991626 0.0018168177 0
-0.022523088 -0.025504028 0.012448057 -0.015855035 -0.99986577 0.0041181063 0
-0.017468961 -0.025564712 0.012591045 -0.0094712628 -0.99992156 0.0081965178 0
-0.012406908 -0.025596343 0.012667011 -0.0030019728 -0.99998152 0.0052877152 0
-0.0075376621 -0.02560905 0.012502676 -0.0029066328 -0.99999303 0.0023414579 0
-0.0026283204 -0.025625186 0.012472223 -0.0037043244 -0.99999285 0.0007553855 0
0.0024842031 -0.025647789 0.012607319 -0.0054863719 -0.99997956 -0.0032820276 0
0.0075529814 -0.025634047 0.012575747 0.065489478 -0.99347764 0.093344867 0
0.010955065 -0.025469208 0.011107698 0.43855938 -0.84655058 0.30169162 0
-0.045480069 -0.02244284 0.010521411 -0.82947528 -0.072522119 0.55381519 0
-0.042748019 -0.02218391 0.012458342 -0.7967068 0.36101174 0.48469439 0
-0.037176691 -0.021937385 0.011624285 0.20456298 0.62548965 -0.75293863 0
-0.032617591 -0.022524182 0.012202404 -0.0560362 0.53989655 -0.83986402 0
-0.027869258 -0.022006812 0.011198415 -0.29496136 0.3647224 -0.88316208 0
-0.022061991 -0.021922316 0.011381269 0.42901358 0.44873342 -0.78395516 0
-0.017414631 -0.022110604 0.012073739 0.031615697 0.59063637 -0.80631822 0
-0.012960773 -0.02223623 0.011749304 -0.38878822 0.40958989 -0.8252756 0
-0.0071573625 -0.021777337 0.010838431 0.22998492 0.41196516 -0.88169819 0
-0.0022972012 -0.022441512 0.012115658 0.20201696 0.27904919 -0.93878686 0
0.0023061286 -0.022163689 0.011537543 -0.22430782 0.52946848 -0.81813765 0
0.0079611819 -0.021992583 0.012509204 0.41209909 0.85399985 -0.31758255 0
0.011269531 -0.022554474 0.011523284 0.79367137 -0.0071867164 0.60830426 0
-0.045415603 -0.017570825 0.010602338 -0.83447462 0.0039639007 0.55103213 0
-0.042557068 -0.017564666 0.012443135 -0.13977119 -0.16797082 -0.97583288 0
-0.037643526 -0.017801361 0.01263067 -0.48154506 -0.36989206 -0.79454023 0
-0.032738898 -0.018586382 0.01105448 -0.11133701 -0.60503602 -0.78837526 0
-0.027333284 -0.017542318 0.011113501 0.22366361 -0.11643107 -0.96768719 0
-0.02259858 -0.017597562 0.011417968 -0.0045639384 -0.12113113 -0.99262607 0
-0.017506791 -0.018304117 0.011590356 0.035278376 -0.68344772 -0.72914654 0
-0.012568435 -0.01770512 0.01129222 0.0022365153 -0.3647306 -0.93111044 0
-0.0074457871 -0.017428908 0.011287777 -0.13395812 0.060463686 -0.98914075 0
-0.0028164713 -0.018516826 0.010890494 -0.089730337 -0.50927746 -0.85591173 0
0.0031041109 -0.018197767 0.012002015 0.57857513 -0.40584734 -0.70748758 0
0.0077971094 -0.017536169 0.012933659 -0.18360922 -0.20736031 -0.96087945 0
0.011231023 -0.017394496 0.011430818 0.79598993 -0.0034354918 0.60530007 0
-0.045396332 -0.01249108 0.010582217 -0.83944142 0.0094855316 0.54336739 0
-0.042548522 -0.012461996 0.012508902 -0.67892867 0.093202025 -0.72826457 0
-0.037847012 -0.012202761 0.011492273 -0.29474324 0.24718249 -0.92305326 0
-0.032415472 -0.012801571 0.011861149 -0.077756129 0.46432289 -0.88224614 0
-0.027264901 -0.012130152 0.011405452 0.20644882 0.058512218 -0.97670627 0
-0.023138724 -0.012218596 0.011547291 -0.49703291 -0.25116214 -0.83058774 0
-0.017459506 -0.012606793 0.011298443 0.12887092 0.30824894 -0.94253635 0
-0.012459126 -0.012440691 0.011099125 0.046030641 0.244142 -0.96864641 0
-0.0078328978 -0.012314004 0.011633518 -0.23384561 -0.38499773 -0.89280063 0
-0.0024160487 -0.012603795 0.01161143 0.35627985 0.3911286 -0.84857714 0
0.0024004381 -0.012474094 0.011598076 -0.41376126 0.48702088 -0.76916343 0
0.0078261737 -0.012521347 0.012347374 0.81108958 -0.21010634 -0.54588372 0
0.011197422 -0.012491895 0.011503902 0.79090744 0.00092625676 0.61193508 0
-0.045414612 -0.0074741147 0.01049992 -0.83947194 0.0017129953 0.54340041 0
-0.042801362 -0.0075166933 0.012429775 -0.9435308 -0.033381011 0.3295987 0
-0.03780983 -0.0077248891 0.01155338 -0.12691101 -0.26540297 -0.95574838 0
-0.032434907 -0.0075917402 0.012432879 -0.055839598 -0.093270324 -0.99407375 0
-0.027471371 -0.007424619 0.011260124 -0.04213858 -0.089926541 -0.99505657 0
-0.022699857 -0.0073268353 0.011157196 -0.33011949 0.097029679 -0.93893898 0
-0.017479392 -0.0073811281 0.011499583 0.12175842 -0.12725843 -0.98436791 0
-0.012775785 -0.0072930544 0.011205417 -0.11171906 -0.22237387 -0.96853954 0
-0.0078595728 -0.0074920389 0.011312643 -0.11311885 0.40771288 -0.90607631 0
-0.0025018302 -0.0073835719 0.011868228 0.35269853 -0.23803672 -0.90495431 0
0.0026724194 -0.0074883853 0.011817759 -0.52772683 -0.39086989 -0.75413871 0
0.0079588369 -0.0073557571 0.012307488 0.71041316 0.21124211 -0.67133445 0
0.011186603 -0.0075101648 0.011573206 0.78708512 -0.010725023 0.61675119 0
-0.045358963 -0.0025347886 0.010542768 -0.84112698 0.0073568686 0.54078758 0
-0.042573281 -0.0023991631 0.01237052 -0.86265212 0.09719824 -0.49637049 0
-0.037942916 -0.0019818246 0.012217755 -0.56751847 0.30439886 -0.76502556 0
-0.032709382 -0.0028332067 0.010837635 -0.098026864 -0.34829444 -0.93224555 0
-0.027058635 -0.0022466984 0.010838425 0.30622175 0.14246163 -0.94124013 0
-0.022717269 -0.0023414474 0.011167279 -0.077529252 0.15651926 -0.98462725 0
-0.017244235 -0.0020109171 0.011602968 0.27102992 0.36595157 -0.89029336 0
-0.012572894 -0.0021880553 0.01143979 -0.019449143 0.48417309 -0.87475604 0
-0.0075720134 -0.0022416892 0.011116924 -0.17986825 0.031353101 -0.98319095 0
-0.002119527 -0.0022708059 0.010763793 -0.018151404 0.049553208 -0.99860656 0
0.0028387816 -0.002154049 0.011146034 0.47361279 0.29587275 -0.82954818 0
0.007979922 -0.0021999462 0.01279329 0.052031465 0.20737365 -0.97687715 0
0.011230775 -0.0024543474 0.011526645 0.79251391 0.0019624718 0.6098507 0
-0.045356382 0.0025477619 0.010479119 -0.84462136 0.0026048906 0.53535777 0
-0.042593624 0.0023403463 0.012378978 -0.83289891 -0.44950408 0.32283971 0
-0.037231881 0.0022687337 0.011443142 0.16702828 -0.41662148 -0.89360398 0
-0.032793485 0.0030906433 0.012199436 -0.10721858 -0.22947644 -0.96739066 0
-0.027673081 0.0025731088 0.011131586 -0.22524709 -0.26167938 -0.93850285 0
-0.02213621 0.0022620033 0.011458818 0.3732014 -0.29495844 -0.87961358 0
-0.017367763 0.0024086037 0.012149812 -0.018735509 -0.56827432 -0.82262582 0
-0.012711116 0.002737208 0.011905989 -0.35498926 -0.50043267 -0.78965163 0
-0.0074657891 0.0019770914 0.011043925 0.07734111 -0.31355879 -0.94641387 0
-0.0023179194 0.0028533661 0.012151917 0.19866185 -0.31400827 -0.92840308 0
0.0022746387 0.0022399395 0.011595774 -0.24261995 -0.32080367 -0.91554391 0
0.0082020517 0.0020727422 0.012564456 0.35749552 -0.8251887 -0.43733341 0
0.011168258 0.0024688679 0.011596756 0.78276253 -0.014460189 0.62215257 0
-0.045240819 0.0056747729 0.010416625 -0.73853666 0.38724476 0.55191034 0
-0.042279899 0.0061924001 0.012388636 -0.30086026 0.91104585 0.28191939 0
-0.037594527 0.0063983742 0.012518153 0.010136442 0.99989456 -0.010399775 0
-0.032481659 0.0063683079 0.012426703 0.0022261324 0.99999291 -0.0030558377 0
-0.02748825 0.0063716467 0.012535617 -0.001656614 0.99999654 0.0020205053 0
-0.022560503 0.0063869022 0.012444941 -0.0051149405 0.9999733 0.0052254838 0
-0.017485308 0.0063897921 0.01256648 0.0034599013 0.99996102 0.0081305336 0
-0.012410284 0.0063652867 0.012436616 0.0085813254 0.99994731 0.0056361454 0
-0.0074322382 0.0063173454 0.012554923 0.0086950837 0.99996167 0.0010325554 0
-0.0026675211 0.0062758899 0.012461433 0.00840207 0.99996126 -0.0026412073 0
0.0026135894 0.0062335604 0.012519644 0.0057607824 0.99996883 -0.0053967549 0
0.0075814151 0.0061228718 0.012548758 0.10832121 0.98534244 0.13178356 0
0.011100248 0.0057737618 0.011422057 0.6191746 0.66514957 0.41737136 0
-0.040228866 -0.025255408 0.015265458 -0.21351928 -0.93210053 0.29257157 0
-0.037098829 -0.02531633 0.016283588 -0.083217002 -0.98554927 0.14753823 0
-0.032370239 -0.025368165 0.01706462 -0.024323285 -0.99311495 0.11459117 0
-0.027462803 -0.025405258 0.017176187 -0.0052633584 -0.99170643 0.12841627 0
-0.022735352 -0.025464473 0.017106039 -0.014450903 -0.99453408 0.10340754 0
-0.017539598 -0.025514903 0.016936498 -0.010222551 -0.9949314 0.10003536 0
-0.012592248 -0.02552616 0.017205643 -0.0016250162 -0.98568004 0.16861822 0
-0.0075544124 -0.02556419 0.017011054 -0.0078595867 -0.99112964 0.13266605 0
-0.0024638942 -0.02558176 0.017095271 -0.00017295172 -0.98877388 0.14941972 0
0.0020742724 -0.02557689 0.016756808 0.070596859 -0.97720635 0.20020953 0
0.0062674666 -0.025417529 0.0156486 0.35346347 -0.79793012 0.48823258 0
-0.040702429 -0.022809964 0.015524913 -0.59086496 -0.037150357 0.80591476 0
-0.037670311 -0.022542359 0.017303722 -0.44438893 -0.034619056 0.89516479 0
-0.032319229 -0.022454381 0.018940091 -0.10219561 0.0024202778 0.99476147 0
-0.027544217 -0.022741206 0.019184003 -0.11239363 -0.20220482 0.9728725 0
-0.022387946 -0.022635624 0.019202927 0.11747742 -0.17863762 0.9768765 0
-0.017438613 -0.022515573 0.019069437 0.0044111861 -0.0070410129 0.99996549 0
-0.0124668 -0.022831876 0.01915515 -0.10857075 -0.13900654 0.98432189 0
-0.0072498075 -0.022888763 0.019245826 0.085450575 -0.21445873 0.97298801 0
-0.0025613697 -0.02243807 0.019086475 0.061073866 -0.023206795 0.99786341 0
0.0026029556 -0.022545526 0.018070236 0.35606274 -0.012954369 0.93437225 0
0.006607688 -0.022545092 0.01604319 0.55791432 -0.027319327 0.82944876 0
-0.040680848 -0.017318416 0.01553251 -0.59159386 0.0035487988 0.80622834 0
-0.037589598 -0.017565567 0.017146414 -0.46840644 -0.019318905 0.88330185 0
-0.032492518 -0.017535906 0.018904673 -0.12658265 0.0042107478 0.99194723 0
-0.027142851 -0.017447097 0.019177841 0.18931873 0.00061208667 0.98191553 0
-0.022915708 -0.017420076 0.019119998 -0.19287691 -0.010162177 0.98117036 0
-0.017515607 -0.017435294 0.019107072 0.10857283 0.012427866 0.99401081 0
-0.012506501 -0.017494326 0.019318828 0.039942693 0.0059126024 0.99918443 0
-0.007833465 -0.017502844 0.019054253 -0.23719956 -0.033593725 0.97087991 0
-0.0022176316 -0.01763846 0.019152336 0.25037158 -0.0038420574 0.96814221 0
0.0025948614 -0.017613288 0.017821474 0.36454388 -0.016620476 0.9310379 0
0.0065784394 -0.017626001 0.01602599 0.56020814 0.0047698156 0.82833821 0
-0.040725663 -0.01258381 0.015478276 -0.5946542 0.0057316367 0.8039611 0
-0.037578076 -0.012612267 0.017316312 -0.43613103 0.0042766789 0.89987302 0
-0.032510836 -0.012438396 0.018876353 -0.11789822 0.00033622183 0.99302554 0
-0.0275741 -0.012266446 0.019165957 -0.13170148 0.13522929 0.98202223 0
-0.022352366 -0.012256543 0.019216355 0.12386817 0.19050963 0.97383916 0
-0.01747581 -0.012689266 0.018918136 0.030825967 0.065427095 0.99738109 0
-0.012707444 -0.012353514 0.019095724 -0.13897865 0.16420792 0.97658622 0
-0.0074900854 -0.012304161 0.019239975 0.078448594 0.21019477 0.97450697 0
-0.0024297945 -0.012601682 0.019061808 0.068524115 0.017340897 0.99749875 0
0.0025380997 -0.012473465 0.018105015 0.34482819 -0.00028016066 0.93866575 0
0.0064761401 -0.012471476 0.016167482 0.54348081 -0.0019179451 0.83941942 0
-0.04058357 -0.0073686223 0.015547308 -0.586025 0.003793441 0.81028408 0
-0.037540447 -0.0075934818 0.017304318 -0.4365283 0.0038313973 0.89968234 0
-0.032539017 -0.0075797592 0.018869767 -0.12638834 0.002923443 0.9919765 0
-0.027485492 -0.0076620462 0.019101035 -0.064627513 -0.13244364 0.98908138 0
-0.022301532 -0.0075517795 0.01913807 0.10007992 -0.20098583 0.97446841 0
-0.01747709 -0.0073973387 0.018841192 0.026015026 -0.063018866 0.99767321 0
-0.012480217 -0.0077253678 0.019041415 -0.093488984 -0.1009663 0.99048764 0
-0.0074977991 -0.0079693375 0.019170038 0.043215949 -0.20741995 0.97729701 0
-0.002540712 -0.0074962671 0.019043701 0.045466688 -0.012664265 0.99888557 0
0.0025834809 -0.0075947512 0.01809583 0.34086564 -0.0033397968 0.94010609 0
0.0067010494 -0.0076851668 0.016034031 0.55845964 -0.0062866746 0.82950795 0
-0.040666558 -0.0021948786 0.015465947 -0.59979153 0.0050941715 0.80014014 0
-0.037652392 -0.0024106172 0.017071983 -0.45113906 0.0022942196 0.89245075 0
-0.032461882 -0.0026065698 0.018867444 -0.1345205 -0.0010853033 0.99091023 0
-0.027430767 -0.0022212774 0.019245708 0.1206375 0.062347829 0.99073678 0
-0.022915976 -0.0022260316 0.019213725 -0.33596373 0.16494344 0.92731982 0
-0.01755167 -0.0024581011 0.019118423 0.14053199 -0.0050618313 0.99006319 0
-0.012480032 -0.0023368674 0.019250266 -0.032276008 0.059634298 0.99769837 0
-0.0077455109 -0.0021706198 0.019064469 -0.22860311 0.17018174 0.95852953 0
-0.0020737643 -0.002637537 0.019132193 0.20478396 -0.036648363 0.97812092 0
0.0026187948 -0.0024151099 0.018098913 0.34256268 -0.0015667824 0.93949372 0
0.0067164646 -0.0024613184 0.016051548 0.55393046 -0.0020500945 0.83256042 0
-0.040553685 0.002454923 0.015512049 -0.59294045 0.0057056504 0.80522615 0
-0.037492018 0.002531193 0.017302571 -0.44437978 0.0051899469 0.89582348 0
-0.032526221 0.0024753574 0.018863752 -0.12001937 -0.0032392037 0.99276626 0
-0.027516764 0.0025088436 0.019234847 -0.10420555 0.088204153 0.99063683 0
-0.022423847 0.0027681508 0.019240098 0.12636104 0.1658095 0.97802866 0
-0.017511554 0.0024585424 0.019053567 0.02150167 0.0016307774 0.99976748 0
-0.012672191 0.0026207375 0.019194927 -0.11720327 0.11280173 0.98668092 0
-0.0076833293 0.0024844431 0.019269655 0.013549484 0.038969405 0.99914855 0
-0.0023781224 0.002461198 0.019089216 0.10961296 0.024648495 0.99366868 0
0.0026468446 0.0025610337 0.018099412 0.34956497 -0.0027267716 0.93690819 0
0.0065534189 0.0025623546 0.016166996 0.54783362 -0.0034239844 0.83658034 0
-0.040514015 0.0057377699 0.015352651 -0.5659076 0.35897076 0.74221867 0
-0.037177179 0.0060432237 0.016758615 -0.27728507 0.77842402 0.56317765 0
-0.032285616 0.006183011 0.017294196 -0.038242921 0.9432683 0.32982174 0
-0.027608296 0.0062153665 0.017401053 0.0071144239 0.95540392 0.29521632 0
-0.022406302 0.0062066372 0.017439421 -0.0054918556 0.95271486 0.30381602 0
-0.017545519 0.0061740717 0.017432109 -0.0032617876 0.94711375 0.3208814 0
-0.012513461 0.0062153721 0.017241441 0.0065625031 0.96899265 0.2470023 0
-0.0074967551 0.0061484249 0.017400613 0.0052712164 0.96043539 0.27845308 0
-0.0023965631 0.0061345333 0.01739352 0.01662479 0.96270871 0.27002874 0
0.0023184649 0.0060546198 0.016876383 0.14243181 0.9246574 0.35315973 0
0.0063957651 0.0056606908 0.015856909 0.44966802 0.59777421 0.66367513 0
-0.026720362 -0.021053256 0.021704266 -0.52683842 -0.53687793 0.65894115 0
-0.022866869 -0.021112449 0.021735646 0.48243928 -0.58943403 0.64793509 0
-0.011316189 -0.021103906 0.021612996 -0.60000747 -0.70624602 0.37577602 0
-0.0076896758 -0.021313231 0.021861957 0.20899181 -0.3180694 0.92474544 0
-0.0047621112 -0.020434916 0.0209339 0.87233698 -0.47967044 0.094574891 0
-0.028250309 -0.017563963 0.021753039 0.048488911 0.13197097 0.99006689 0
-0.021260817 -0.017536605 0.021819128 -0.26147982 -0.1053838 0.95943868 0
-0.019892262 -0.017616082 0.020622598 0.9923147 -0.020663654 0.12200212 0
-0.012208737 -0.01738463 0.0217034 0.046253528 -0.065786205 0.99676114 0
-0.0059249089 -0.017500855 0.021690493 -0.93616611 -0.035429642 0.34976831 0
-0.0042951847 -0.017370429 0.021780238 0.96256781 0.057319798 0.26491067 0
-0.026629152 -0.013852873 0.021939848 -0.4868663 0.63557303 0.59917283 0
-0.022861723 -0.013900668 0.021814527 0.52378809 0.58612543 0.61814475 0
-0.011249363 -0.013993819 0.021763396 -0.56646061 0.74570954 0.35077015 0
-0.0078827366 -0.013795207 0.021939004 0.28720376 0.56111109 0.77631712 0
-0.0047684168 -0.014741212 0.02081481 0.85290486 0.50867373 0.11749131 0
-0.026488515 -0.0057419096 0.021569736 -0.40518007 -0.86839539 0.28586462 0
-0.023096137 -0.005819309 0.021799715 0.33278802 -0.89703572 0.29082471 0
-0.011059622 -0.0055444078 0.021875545 -0.49351621 -0.81362772 0.3073301 0
-0.0077352333 -0.0059370762 0.021819934 0.23194279 -0.90238798 0.36317837 0
-0.027939627 -0.0027241732 0.021790067 -0.22913256 0.36995319 0.90035158 0
-0.021712739 -0.0029748294 0.021910097 -0.34777108 0.49985352 0.79322237 0
-0.019855872 -0.0015327838 0.021197608 0.99734575 -0.0026956906 0.072760984 0
-0.012159004 -0.0025734794 0.021756688 -0.41366881 0.18063472 0.8923279 0
-0.0066616349 -0.0032462936 0.021786215 -0.69100231 0.6151709 0.37957945 0
-0.0042636911 -0.002404335 0.02169721 0.93904382 -0.17640975 0.29508689 0
-0.027017144 0.0016133903 0.021917406 -0.47355068 0.3997933 0.78480262 0
-0.022594418 0.0018186645 0.021785254 0.40428281 0.49699691 0.76782131 0
-0.011345694 0.0014602698 0.021686001 -0.55525529 0.6372751 0.53438926 0
-0.0074701323 0.0020142111 0.021883566 0.098771095 0.36557999 0.92552447 0
-0.004610403 0.00081878388 0.021629147 0.88333529 0.45146891 0.12607396 0
