# .PCD v0.7 - Point Cloud Data file format
VERSION 0.7
FIELDS x y z normal_x normal_y normal_z curvature
SIZE 4 4 4 4 4 4 4
TYPE F F F F F F F
COUNT 1 1 1 1 1 1 1
WIDTH 544
HEIGHT 1
VIEWPOINT 0 0 0 1 0 0 0
POINTS 544
DATA ascii
-0.018464243 -0.055192005 -3.6463342e-05 -0.022948606 -0.51568735 -0.85646939 0
-0.021623131 -0.051462799 -0.00011598278 -0.0048574172 0.0030060085 -0.99998373 0
-0.017755486 -0.053679466 -0.00010876463 0.091767691 -0.0021010679 -0.99577826 0
-0.013696126 -0.050632641 -9.958868e-05 0.025589086 -0.037961449 -0.99895149 0
-0.026128657 -0.046199739 -0.00011573387 0.026627004 -0.0064142034 -0.99962485 0
-0.023683632 -0.048826743 -0.00011793466 0.062522598 0.080571137 -0.99478602 0
-0.01182724 -0.048840832 -0.00010896845 -0.072793245 0.089762487 -0.99329942 0
-0.0085912319 -0.046180453 -0.00014459492 0.065032266 -0.095550247 -0.99329805 0
-0.030887546 -0.040812928 -0.00010623426 -0.074779056 -0.032694098 -0.99666405 0
-0.028659604 -0.043330215 -0.0001560283 -0.089965224 -0.067013621 -0.99368775 0
-0.0061489283 -0.043803386 -0.00018255619 -0.10634036 0.15516235 -0.98214883 0
-0.0029491144 -0.041388806 -0.00012797397 0.048895374 -0.091423891 -0.99461091 0
-0.035633989 -0.035684679 -0.00011104636 -0.28006971 -0.23315752 -0.93123496 0
-0.033182856 -0.03785146 -0.00010277947 0.061916616 0.058442518 -0.99636883 0
-0.00074888219 -0.039193325 -0.00013995987 -0.11409763 0.093246624 -0.98908383 0
0.0022887918 -0.036923289 -0.00014689929 0.092084788 -0.13892214 -0.98601264 0
-0.040382475 -0.030330973 -8.5245549e-05 -0.38679224 -0.33397225 -0.85956633 0
-0.037740152 -0.032573011 -0.00014482667 0.084409177 0.073764816 -0.99369711 0
-0.00078316533 -0.030537259 -0.0001760813 -0.25336218 -0.23185775 -0.93917495 0
0.00185413 -0.03276315 -0.00019819455 0.016762802 0.012063751 -0.99978667 0
-0.042147759 -0.027501088 -0.00012071097 0.026693676 0.02905933 -0.99922121 0
-0.039988156 -0.029314429 -6.0655566e-05 0.40004614 0.36715758 -0.83973718 0
-0.0052762092 -0.025352465 -0.00016689172 -0.54904062 -0.44935307 -0.70472413 0
-0.0025412303 -0.027679551 -0.00022752488 0.032473754 0.029833836 -0.99902725 0
-0.047124766 -0.02193743 -0.00012349895 -0.071008362 -0.068490334 -0.99512154 0
-0.044129048 -0.024588764 -6.8294066e-05 0.19123738 0.26893327 -0.94398266 0
-0.0071920585 -0.022334697 -0.00024665371 0.013439793 0.030742923 -0.99943697 0
-0.0046131243 -0.024709925 -0.00020925576 0.40892845 0.33372387 -0.84935617 0
-0.046934631 -0.018831886 -0.00012951213 0.013224433 0.015920859 -0.99978578 0
-0.043608915 -0.016140563 -0.00012675881 0.037135463 -0.033645172 -0.99874371 0
-0.012064369 -0.017098805 -0.00018164692 -0.16383554 -0.15259559 -0.97461408 0
-0.0094780233 -0.01937985 -0.00017006759 0.12513334 0.13160704 -0.98337245 0
-0.041245047 -0.0138343 -0.00016046224 -0.025696861 0.025296453 -0.99934971 0
-0.038176276 -0.011483527 -0.00019123327 0.098832093 -0.15771693 -0.98252612 0
-0.016445693 -0.011797244 -0.00027227873 -0.034740575 -0.030234169 -0.99893886 0
-0.014222851 -0.013994152 -0.00019091487 0.21431069 0.16592142 -0.96256995 0
-0.03580793 -0.0093505885 -0.00021158023 0.10380477 -0.050362688 -0.99332178 0
-0.03293404 -0.006905783 -0.00017080797 0.0069053234 -0.0041273511 -0.99996763 0
-0.02123463 -0.0062058424 -0.000207052 0.0095489454 0.0024147632 -0.99995148 0
-0.018904841 -0.0086593283 -0.00020760144 0.091822453 0.066652693 -0.99354219 0
-0.030800771 -0.0046120198 -0.0001557026 -0.17547232 0.20490485 -0.96292442 0
-0.027207179 -0.0020497253 -0.00019187461 0.022077303 -0.049199611 -0.99854493 0
-0.023389701 -0.0034894184 -0.00019051331 0.035904575 0.022859082 -0.99909371 0
-0.018452128 -0.055461235 0.0024604786 0.050314087 -0.99389261 -0.098213598 0
-0.021580305 -0.052096166 0.0024290341 -0.73381424 -0.65848297 -0.16708307 0
-0.017223714 -0.05295578 0.0025769451 0.25726968 0.92723995 -0.27209988 0
-0.013385215 -0.051291279 0.0025729479 0.59404111 -0.80029732 -0.081482932 0
-0.026380727 -0.046605114 0.002557866 -0.74808323 -0.65214533 -0.12279231 0
-0.023156801 -0.048367348 0.0025544681 0.69897699 0.68987364 -0.18842927 0
-0.012385545 -0.048570856 0.0024557 -0.61055863 0.7682851 -0.19223975 0
-0.0082887113 -0.046553962 0.0025606242 0.6462124 -0.75010389 -0.14054772 0
-0.031241478 -0.041356646 0.0021783102 -0.75177091 -0.64883596 -0.11769664 0
-0.028456038 -0.043083005 0.0025281073 0.7459811 0.64507377 -0.16550538 0
-0.017356906 -0.040321056 0.0032787311 -0.041063797 -0.98046631 -0.19235264 0
-0.01470708 -0.040054694 0.0036481114 0.34521136 -0.93852496 -6.9837843e-05 0
-0.0064078919 -0.043603458 0.0025652689 -0.65241075 0.75551337 -0.059663061 0
-0.0028838431 -0.041807681 0.0023928736 0.60049939 -0.77524072 -0.19596499 0
4.7478228e-05 -0.040081035 0.0028328802 0.65230483 -0.75781554 -0.014626894 0
-0.035996504 -0.036113739 0.0023937186 -0.75737172 -0.65094095 -0.05161351 0
-0.032706231 -0.037667111 0.0023419708 0.73198611 0.60214728 -0.31877103 0
-0.021836076 -0.037272293 0.0032092682 -0.46888962 -0.44863275 -0.76083583 0
-0.017782003 -0.03899825 0.0030828784 0.077161066 0.9180097 -0.38897869 0
-0.01249407 -0.037470732 0.0032789949 0.48794299 -0.37688777 -0.78731644 0
-0.00185023 -0.03864048 0.0023105261 -0.6700812 0.72467256 -0.16075115 0
0.00241123 -0.037230603 0.0024040248 0.63736981 -0.74336869 -0.20288615 0
-0.040571991 -0.030801687 0.002597047 -0.7550723 -0.65443897 -0.039691716 0
-0.037673939 -0.032771003 0.0024824261 0.38514131 0.31199157 -0.86852026 0
-0.034850154 -0.034751706 0.0028004963 0.74387509 0.66600496 -0.055562973 0
-0.022722684 -0.032452341 0.0033176863 -0.57077396 -0.01123884 -0.8210302 0
-0.011392559 -0.032502633 0.0031996409 0.12640584 -0.20032415 -0.97154093 0
-0.0014669498 -0.031314533 0.0024358816 -0.68802041 -0.70926428 -0.15353227 0
0.0023239255 -0.032860566 0.0024050232 0.70569164 0.65834957 -0.26186839 0
-0.045317613 -0.025332998 0.0024849973 -0.74955612 -0.65734273 -0.077885389 0
-0.042374101 -0.027448833 0.0025987634 -0.30075008 -0.86045283 -0.41130316 0
-0.039493755 -0.02935468 0.002628736 0.7529012 0.65657377 -0.045284964 0
-0.031552657 -0.026387462 0.0032348402 -0.62783474 -0.64140499 -0.44093442 0
-0.027511062 -0.027561454 0.0032518222 0.065931715 -0.055856731 -0.99625951 0
-0.022526562 -0.027469696 0.0033004158 0.058548592 -0.089310028 -0.99428153 0
-0.017715489 -0.028079072 0.0032493714 0.11734612 -0.070517138 -0.99058431 0
-0.01355952 -0.028785734 0.0033163931 0.52910227 0.65144217 -0.54375899 0
-0.005496732 -0.025546916 0.0025696408 -0.75328171 -0.65697038 -0.03092991 0
-0.0025458797 -0.027599212 0.0023932792 -0.19183388 0.41649148 -0.88867015 0
0.00033060458 -0.029531902 0.0026003518 0.75722814 0.65138417 -0.048000745 0
-0.047149725 -0.022190437 0.0024517593 -0.66724104 -0.70319498 -0.24557327 0
-0.043530285 -0.023922643 0.0024345925 0.58557856 0.79665899 -0.14977388 0
-0.033085108 -0.022557573 0.0032456026 0.36567485 0.20763505 -0.90728694 0
-0.021710984 -0.022662381 0.0032169628 0.058086753 0.053873815 -0.99685681 0
-0.010141941 -0.020202557 0.0026926515 -0.72992945 -0.68351907 -0.0021372219 0
-0.0073276297 -0.022287505 0.0025358705 -0.70673472 -0.59888673 -0.3766441 0
-0.0043194792 -0.024147909 0.0028338991 0.75594008 0.65334982 -0.041092075 0
-0.047030315 -0.018357223 0.0024024565 -0.6614117 0.73973441 -0.12380438 0
-0.043199107 -0.016559657 0.0024797712 0.63966161 -0.72102118 -0.26638597 0
-0.031979077 -0.017926101 0.0032230229 -0.4901503 0.48622414 -0.72342163 0
-0.027369302 -0.016013136 0.0032328207 -0.078355193 -0.058427636 -0.9952119 0
-0.022934891 -0.017862931 0.0031129888 0.53910148 0.46121848 -0.704732 0
-0.012169801 -0.017556103 0.00254934 -0.6561572 -0.72368044 -0.21387935 0
-0.0089478837 -0.018805964 0.0027384742 0.75343931 0.65636253 -0.038954128 0
-0.041619308 -0.013686898 0.002390848 -0.63838404 0.75733954 -0.13748659 0
-0.038155183 -0.011553721 0.0025284397 0.63616329 -0.74692106 -0.19340409 0
-0.027470438 -0.014972086 0.0044691903 0.015711125 0.9997955 -0.012732727 0
-0.016617559 -0.011962819 0.0023148768 -0.75064111 -0.64957583 -0.1207857 0
-0.013822574 -0.013610213 0.0024156591 0.75444275 0.64926982 -0.096253917 0
-0.03634657 -0.008856453 0.0022678564 -0.65325969 0.75030077 -0.10149178 0
-0.032955356 -0.0071496083 0.0025580327 0.24417672 -0.92985517 -0.27522212 0
-0.029649241 -0.0060288697 0.0029274726 0.94159937 -0.32553566 -0.086122565 0
-0.021674903 -0.0068283202 0.0024459979 -0.78854358 -0.59004331 -0.17334311 0
-0.018560473 -0.0082511259 0.002446569 0.75690514 0.64392972 -0.11157545 0
-0.031107046 -0.0040100901 0.0024869987 -0.6569823 0.75337803 -0.028209941 0
-0.027584948 -0.0023515434 0.0024994789 -0.63539588 -0.55914146 -0.53257209 0
-0.023218984 -0.0030094921 0.0025626353 0.75592422 0.64623189 -0.10470384 0
-0.025788406 0.00015293463 0.0027058548 0.0090343356 0.99995351 -0.0033766283 0
-0.018413344 -0.055489961 0.0073672608 0.14518407 -0.98936099 0.009292054 0
-0.021593241 -0.052068524 0.0074209967 -0.69099969 -0.72284895 -0.0029572328 0
-0.016930418 -0.052646324 0.0074491487 -0.35990861 0.9322651 -0.036708605 0
-0.013271891 -0.051410317 0.0075860042 0.64805925 -0.76149052 0.01230409 0
-0.026468497 -0.046618696 0.0074823424 -0.75822616 -0.6519267 -0.0092010507 0
-0.023060217 -0.048364457 0.0074445247 0.73281187 0.67699987 -0.068249397 0
-0.015011333 -0.049927432 0.0065878257 -0.98540819 0.16371509 -0.04656367 0
-0.012209141 -0.048392169 0.0075480547 -0.54100031 0.835316 -0.09780509 0
-0.0082318895 -0.046539351 0.0075522396 0.6513859 -0.75872016 0.0063216449 0
-0.031177461 -0.041487977 0.0073134243 -0.75782698 -0.65245384 -0.0015306185 0
-0.028275719 -0.043048516 0.0075368509 0.75728852 0.65142679 -0.046446379 0
-0.01740369 -0.04042783 0.0075057233 -0.049987964 -0.99807572 -0.036688801 0
-0.014475305 -0.040173665 0.0081661902 0.32150662 -0.93544155 -0.14691038 0
-0.0064077349 -0.043652356 0.0075859777 -0.66405267 0.74661154 -0.040066056 0
-0.0030171603 -0.041985597 0.0076448265 0.6239844 -0.78095567 -0.027416095 0
3.9772112e-05 -0.040053494 0.0076336595 0.64344984 -0.76547927 0.0037162849 0
-0.035968017 -0.036130399 0.0074864319 -0.747289 -0.66443312 -0.0093648201 0
-0.0326805 -0.037589598 0.0074435403 0.81750745 0.56123585 -0.12921272 0
-0.021903379 -0.037407458 0.0075113839 -0.75556433 -0.64974266 -0.083408721 0
-0.017694106 -0.038857203 0.0074837739 0.085694291 0.99543166 0.042098165 0
-0.012430908 -0.037565649 0.0073794234 0.86655152 -0.44965211 -0.21656723 0
-0.0019749559 -0.03847095 0.0075878613 -0.64312023 0.76475167 -0.039385665 0
0.0023353321 -0.037231784 0.0075112549 0.72025055 -0.69367743 -0.0071217353 0
-0.0406227 -0.030721603 0.0073375744 -0.75547844 -0.65516067 0.004114408 0
-0.03754738 -0.032740485 0.0074230926 0.74784213 0.64530432 -0.15593131 0
-0.034700893 -0.034763347 0.0077353939 0.70454222 0.70808476 -0.047288541 0
-0.02257693 -0.032379899 0.0075815921 0.3109898 -0.95036757 -0.009320328 0
-0.011380033 -0.032348923 0.0073965858 -0.21828716 -0.84060746 -0.49571136 0
-0.0099638477 -0.033464793 0.0097626867 0.96550745 0.097593062 -0.24139355 0
-0.0015147346 -0.031521715 0.0075739273 -0.61554497 -0.78608608 -0.056329831 0
0.0021344312 -0.03273591 0.0075265458 0.82035607 0.57183278 -0.0048201676 0
-0.045310099 -0.025339648 0.0074877176 -0.75133532 -0.6599102 0.0037186507 0
-0.042290602 -0.027498344 0.007399573 -0.38075885 -0.9106788 -0.16027153 0
-0.039406199 -0.02930296 0.0075044082 0.76012677 0.64845335 -0.041419119 0
-0.031590577 -0.02648503 0.0074423295 -0.64432693 -0.75949109 -0.089532055 0
-0.027532494 -0.027519589 0.0074909795 -0.44545472 0.86607063 0.22691765 0
-0.022646215 -0.027418695 0.0075595602 -0.85071456 0.18085474 0.49353456 0
-0.017520817 -0.02804249 0.007404644 0.89067286 -0.34529674 -0.2957567 0
-0.013258857 -0.028708382 0.0075836517 0.58977294 0.76080233 -0.27082783 0
-0.0055298493 -0.02557916 0.0076384307 -0.75252646 -0.65839672 -0.014754091 0
-0.002578672 -0.027513348 0.0075597866 0.21613075 0.93610549 -0.27747801 0
0.0003996375 -0.029571434 0.0069479453 0.75678325 0.65366429 -0.0014100876 0
-0.046970349 -0.022161024 0.0075548943 -0.63907689 -0.76535153 -0.076274529 0
-0.043328017 -0.023808081 0.0075784135 0.60044676 0.79900062 -0.032585114 0
-0.033181693 -0.022566266 0.007495454 -0.57248229 0.81968063 -0.019691424 0
-0.021598836 -0.022575747 0.0075192624 0.96160179 0.063730307 -0.26694685 0
-0.010216073 -0.020135736 0.007433577 -0.777291 -0.62907141 -0.0093721747 0
-0.0074026841 -0.022192826 0.0075623305 -0.771285 -0.63378996 -0.058564138 0
-0.0043120766 -0.024112538 0.0076958816 0.7563107 0.65420341 -0.0034820312 0
-0.046681929 -0.018382777 0.0073182709 -0.634381 0.76470912 0.11305202 0
-0.04294163 -0.01675145 0.0076231784 0.62944353 -0.77097863 -0.096916631 0
-0.032116305 -0.017808873 0.0076348018 -0.75416619 0.57596803 -0.31542715 0
-0.02763319 -0.016105371 0.0073285778 0.021190939 -0.99839073 -0.052601323 0
-0.022950785 -0.017619014 0.0075892396 0.6799885 0.63980705 -0.35813767 0
-0.012173915 -0.01747714 0.0075363931 -0.75226355 -0.65335649 -0.084998608 0
-0.0089879762 -0.018723983 0.0073641441 0.75563478 0.65498638 -0.0029794322 0
-0.041431103 -0.013755485 0.0071792747 -0.64892077 0.75067365 0.1240603 0
-0.037868943 -0.011891354 0.0075348951 0.64121926 -0.75189322 -0.15327904 0
-0.034154166 -0.010819178 0.0090837581 0.60850006 -0.70606792 -0.36220965 0
-0.027265621 -0.014814517 0.0085410131 0.0092739668 0.94734293 -0.32008648 0
-0.024581132 -0.014859565 0.0096795419 0.26702312 0.88707292 -0.37656388 0
-0.016709233 -0.0117954 0.0075735655 -0.74808383 -0.66275215 -0.033617456 0
-0.013589636 -0.013659944 0.0076030931 0.75219679 0.65893453 -0.0022737363 0
-0.036205173 -0.0089296885 0.0073331445 -0.65068811 0.74929434 0.12313795 0
-0.032849409 -0.0075529115 0.0074613076 0.28732768 -0.94047654 -0.18151258 0
-0.029409565 -0.0060366141 0.0073697385 0.86708808 -0.49199021 -0.078127764 0
-0.021789812 -0.0069544534 0.0074449992 -0.70877063 -0.70332986 -0.054508723 0
-0.018552752 -0.0083480384 0.0075369827 0.76168412 0.64787132 -0.01000056 0
-0.030823229 -0.0042028879 0.0072655035 -0.65393507 0.74704564 0.11954796 0
-0.02745044 -0.0024522506 0.0074358112 -0.82267666 0.564551 0.066972665 0
-0.023217378 -0.0030099326 0.0075771096 0.72699213 0.68659151 -0.008629702 0
-0.026125111 3.0236277e-05 0.0054075019 -0.44340006 0.89580131 0.030601624 0
-0.018522378 -0.055486191 0.012378297 0.021807998 -0.9997015 0.011011923 0
-0.021760678 -0.052052379 0.012319637 -0.71301591 -0.69928861 -0.051026996 0
-0.017126525 -0.052178137 0.012281687 0.1842927 0.35626122 -0.91603184 0
-0.01332411 -0.051449463 0.012353823 0.65976709 -0.75145578 0.0046586618 0
-0.026548214 -0.046634242 0.012306069 -0.77052313 -0.636756 -0.028912107 0
-0.022531595 -0.047526706 0.011805032 0.33814096 0.32028931 -0.88491547 0
-0.01727307 -0.047578529 0.012734802 -0.23093694 -0.080460258 -0.9696362 0
-0.011943744 -0.047564864 0.01172918 0.26478308 0.25359583 -0.93036503 0
-0.0081328098 -0.046555243 0.012446124 0.66830051 -0.74370396 -0.016702717 0
-0.031239117 -0.041528352 0.012420947 -0.78839922 -0.61482799 0.020327482 0
-0.02779364 -0.042932205 0.012382691 0.39703923 0.25409842 -0.88192624 0
-0.022418914 -0.042615589 0.013326876 -0.067910448 0.20708135 -0.97596389 0
-0.017508237 -0.04198353 0.012733244 -0.091992483 0.013467958 -0.99566865 0
-0.012647362 -0.042349733 0.012737913 0.013436935 -0.027464196 -0.99953252 0
-0.0074587259 -0.042917859 0.012246615 -0.50617164 0.053200565 -0.86079037 0
-0.0025444112 -0.041957676 0.012292691 0.64252681 -0.7651673 -0.040968094 0
9.9618956e-06 -0.040025864 0.014074881 0.63774031 -0.77025115 -0.00073114457 0
-0.035973191 -0.036092557 0.012357063 -0.73499215 -0.67792082 0.014489816 0
-0.032414127 -0.037504595 0.012279564 0.34401399 -0.22876202 -0.91067129 0
-0.027511515 -0.03758245 0.013827479 0.15697113 0.27732435 -0.94786668 0
-0.022494534 -0.03769327 0.012973046 0.071967736 0.32691562 -0.94230932 0
-0.017530946 -0.03940751 0.012329751 0.12180892 0.99252051 -0.0081087714 0
-0.012248006 -0.03783147 0.012115535 -0.78284329 0.29335785 -0.54872352 0
-0.007706447 -0.037529148 0.012179056 -0.0071926601 0.045811772 -0.9989242 0
-0.0023867919 -0.037466753 0.012046997 -0.052469693 0.6549961 -0.75380844 0
0.0023524354 -0.03729536 0.012332022 0.69461793 -0.7091251 -0.12102722 0
-0.040567484 -0.030676965 0.012339044 -0.74861932 -0.66139364 0.046126042 0
-0.037518006 -0.032286186 0.01250477 -0.62620461 -0.1558338 -0.76392645 0
-0.032721575 -0.032525823 0.012731642 0.29681072 0.10561842 -0.94907749 0
-0.028423814 -0.033113383 0.014684714 0.29393184 0.10437276 -0.95011079 0
-0.022577491 -0.032507569 0.012678782 0.19874653 -0.64676684 -0.73633718 0
-0.011787061 -0.032278128 0.012525551 -0.94566494 -0.27540991 -0.17282139 0
-0.0078291381 -0.032523997 0.012115506 0.32301259 0.0068548182 -0.94636983 0
-0.0022959299 -0.032604322 0.012353949 -0.054721732 -0.52651036 -0.84840578 0
0.002347531 -0.032847211 0.0122835 0.71988738 0.66878861 -0.18569861 0
-0.045302045 -0.025326557 0.012198113 -0.75019938 -0.66120529 0.002899084 0
-0.042801246 -0.027420165 0.012305135 -0.73603839 -0.66732186 -0.11370648 0
-0.037797805 -0.027782973 0.012662242 0.4285318 0.049651574 -0.90216148 0
-0.032005504 -0.027245738 0.012289008 -0.16140367 0.25529382 -0.9532963 0
-0.027514916 -0.027416429 0.01249632 0.030903781 0.24574521 -0.96884173 0
-0.022763185 -0.027450236 0.012086546 0.43478176 0.3864086 0.81342071 0
-0.017382847 -0.02755194 0.012456104 -0.87791854 -0.10878577 -0.46628824 0
-0.012741919 -0.027930479 0.012436274 0.16047281 0.59509605 -0.7874701 0
-0.0071525094 -0.027214462 0.012763821 -0.38868713 0.18965262 -0.9016397 0
-0.0022996513 -0.027418917 0.012133244 0.6789158 0.68896794 -0.25376484 0
0.00043699241 -0.029604243 0.012705592 0.75805688 0.65218216 -0.0028661645 0
-0.047086328 -0.022350756 0.012410665 -0.89756054 -0.44018093 -0.025015583 0
-0.042621408 -0.022689074 0.012569357 0.39128524 0.45691389 -0.79882759 0
-0.037582099 -0.02248707 0.012849873 -0.054697022 -0.038356386 -0.99776602 0
-0.033119541 -0.022298686 0.012361646 0.69077694 -0.17784642 -0.70085514 0
-0.02992671 -0.02006036 0.014953031 0.28495571 -0.30234104 -0.90960991 0
-0.02143777 -0.022521121 0.012241332 -0.90696734 -0.32051715 -0.27327463 0
-0.017532166 -0.022366801 0.014363517 -0.088409774 -0.17556109 -0.98049068 0
-0.012455913 -0.022186229 0.013029373 -0.26183575 -0.40064967 -0.8780216 0
-0.0073432256 -0.022560488 0.012550139 0.44723016 -0.21506652 -0.86817712 0
-0.0042373771 -0.02417215 0.012234009 0.75467235 0.65609825 -0.0021867265 0
-0.046385821 -0.018862363 0.012231343 -0.61071974 0.7628324 0.21238656 0
-0.042807311 -0.017437274 0.012126063 -0.61258936 -0.044735365 -0.78913432 0
-0.037536576 -0.017416582 0.012531114 0.1620422 0.063610695 -0.9847315 0
-0.032541644 -0.017793963 0.01189504 -0.064051203 -0.2418697 -0.96819246 0
-0.027390465 -0.017053498 0.012817823 -0.011866574 -0.92259961 -0.38557616 0
-0.022353876 -0.017779605 0.012213168 0.32810459 -0.52421713 -0.78583956 0
-0.01753838 -0.017312722 0.013776967 -0.11233106 0.080141537 -0.99043375 0
-0.01254301 -0.017064171 0.012126814 -0.083135612 0.43611282 -0.8960436 0
-0.0090121496 -0.018710369 0.012455256 0.79079467 0.61142045 -0.028439485 0
-0.040958565 -0.014075138 0.012158724 -0.64199412 0.73734516 0.21015614 0
-0.037399873 -0.012578927 0.012383861 -0.40446872 0.1134182 -0.9074918 0
-0.032780856 -0.012741264 0.011610472 -0.23467276 -0.18011042 -0.95524287 0
-0.027548676 -0.012244532 0.011509554 0.081811957 0.35851297 -0.92993295 0
-0.02259904 -0.012589904 0.012169455 0.27174285 -0.039032947 -0.96157795 0
-0.017220961 -0.012276125 0.012691817 -0.3819119 -0.70469147 -0.59795749 0
-0.013630318 -0.013401286 0.012372104 0.76540279 0.6434567 0.011044348 0
-0.035583109 -0.0093537867 0.011857691 -0.63848728 0.74102527 0.20788351 0
-0.032387968 -0.0074973372 0.012208681 -0.59355563 0.8047722 0.0057848752 0
-0.027841905 -0.0072886837 0.012187861 0.28748563 -0.1291811 -0.94903332 0
-0.022372553 -0.0072193691 0.011580227 -0.30479747 0.016748624 -0.95226991 0
-0.018242583 -0.008098538 0.012383311 0.7606321 0.64909852 -0.010482831 0
-0.030419357 -0.0047006626 0.011331548 -0.6475209 0.7362994 0.19641791 0
-0.027107036 -0.0027726749 0.012267099 -0.5879848 0.8004455 0.11645155 0
-0.023148065 -0.0029483882 0.012351891 0.64898777 0.76003093 -0.034174565 0
-0.018525485 -0.055443838 0.017570546 0.026864583 -0.99963564 0.0026363439 0
-0.022004094 -0.052347533 0.017555002 -0.75698596 -0.65341896 0.0039954605 0
-0.016544357 -0.054101311 0.017603088 0.58735359 -0.80932993 -0.00082902989 0
-0.013276005 -0.051404975 0.017603843 0.6601401 -0.75113261 -0.0038652255 0
-0.026730968 -0.046903633 0.01752435 -0.75510532 -0.65560353 7.4582647e-05 0
-0.024500864 -0.049457401 0.017144198 -0.75118595 -0.66008836 0.0017543491 0
-0.01078934 -0.049226157 0.017539959 0.66037446 -0.75093073 -0.0029159728 0
-0.0078760106 -0.046695165 0.017535632 0.6529327 -0.75741559 -0.00065086153 0
-0.031281166 -0.041517772 0.017485395 -0.79934973 -0.60050547 -0.020815033 0
-0.029239928 -0.043993842 0.01747416 -0.77210742 -0.63548458 -0.0030795594 0
-0.0054766322 -0.044636831 0.017465724 0.64861131 -0.76111847 0.0014229179 0
-0.0024405217 -0.042040162 0.017491469 0.64460534 -0.76450229 0.0045030159 0
1.2234319e-05 -0.040000338 0.017608454 0.62756193 -0.77853888 0.0065860734 0
-0.035904299 -0.036058009 0.017612388 -0.78233081 -0.62177026 0.036879912 0
-0.03370513 -0.03859042 0.017482903 -0.73174649 -0.68114924 0.024139592 0
-0.020850431 -0.036136501 0.015347051 0.39056042 0.1949504 -0.89969826 0
-0.017417213 -0.03722332 0.016131066 0.13430497 0.34648469 -0.9283914 0
-0.014163895 -0.036512583 0.015643548 -0.56901348 0.25503168 -0.78178155 0
0.0027473774 -0.037621453 0.017484853 0.72314578 -0.69065231 0.0077274842 0
-0.040448073 -0.030544344 0.01755481 -0.71782279 -0.69448835 -0.049156651 0
-0.038268849 -0.033067472 0.017334463 -0.77236068 -0.63512999 0.0082984464 0
-0.026723217 -0.031922523 0.015520397 0.17521858 0.22037257 -0.95954901 0
-0.022546945 -0.032036722 0.015459441 -0.036350287 0.22315876 -0.97410405 0
-0.017648447 -0.032627184 0.016287545 0.11475126 -0.12900032 -0.98498273 0
-0.013839376 -0.032537341 0.015676133 -0.46361643 -0.12212552 -0.87757915 0
0.0029854213 -0.032569151 0.017418068 0.78356373 0.62130427 0.0029765759 0
-0.045282774 -0.025290979 0.017401816 -0.7382744 -0.67445731 0.0076304991 0
-0.04307837 -0.02777254 0.017604519 -0.73914599 -0.67354494 0.00058818114 0
-0.026617663 -0.027688939 0.015543443 0.28958303 -0.041041512 -0.95627254 0
-0.022501493 -0.027419632 0.015474568 -0.050936144 -0.058177844 -0.99700588 0
-0.018263826 -0.028138226 0.015300793 -0.10335643 -0.29067987 -0.9512217 0
-0.014582316 -0.029686404 0.015294862 -0.30283526 -0.49844187 -0.81230938 0
-0.0071387333 -0.025042452 0.015093774 -0.23513651 0.57894826 -0.78072381 0
-0.0017376409 -0.027062135 0.017534802 0.76123053 0.64847475 -0.0029205759 0
0.00042922262 -0.029604379 0.016961882 0.76027632 0.64957291 0.005922195 0
-0.046691231 -0.02246034 0.017500039 -0.97543848 -0.04224756 0.21618249 0
-0.044532891 -0.020149345 0.01984434 -0.61117357 0.70422894 0.36128709 0
-0.030351656 -0.022709558 0.015146187 0.41948953 -0.014305582 -0.90764743 0
-0.027581638 -0.022397088 0.015993264 0.19320036 -0.025622375 -0.98082471 0
-0.023271797 -0.022873441 0.015537108 -0.29405841 -0.0090277707 -0.95574474 0
-0.019532071 -0.024631253 0.015032815 -0.012828706 -0.19662239 -0.98039538 0
-0.0068905088 -0.021726282 0.017345827 0.69350165 0.71943808 -0.038265768 0
-0.0042106304 -0.024173003 0.01749406 0.74990082 0.66151792 -0.006543621 0
-0.045696542 -0.019510925 0.016257899 -0.61535335 0.73322767 0.2893399 0
-0.042577796 -0.017343394 0.017387576 -0.6196242 0.71991807 0.312704 0
-0.039553203 -0.015433751 0.018972889 -0.60900408 0.71449423 0.34440112 0
-0.02699098 -0.019403629 0.015345752 0.077709258 -0.39980289 -0.91330111 0
-0.024087161 -0.019475028 0.015210939 -0.2744588 -0.41642681 -0.86675316 0
-0.011240697 -0.016125241 0.017423596 0.75221288 0.65886354 0.0086351736 0
-0.0090633333 -0.018741759 0.017600287 0.85567027 0.51717657 0.018888157 0
-0.040581055 -0.014778083 0.015356574 -0.62325525 0.7288819 0.28334448 0
-0.037379179 -0.012835539 0.017320292 -0.62119287 0.71933949 0.31091818 0
-0.034383863 -0.01070503 0.01838091 -0.62169492 0.71131492 0.32791245 0
-0.016737051 -0.011557651 0.016777575 0.69268751 0.66688895 -0.27466905 0
-0.013664027 -0.013457124 0.017371412 0.75440258 0.65608472 -0.020723887 0
-0.031955149 -0.0081280125 0.017277678 -0.62112254 0.7187627 0.31238911 0
-0.028979519 -0.0058870232 0.018023893 -0.6144312 0.71855658 0.32580793 0
-0.02039519 -0.0054866411 0.017675573 0.75936896 0.65064019 -0.005113415 0
-0.018265303 -0.0079827877 0.017515499 0.77008533 0.63788319 -0.0085855192 0
-0.02671051 -0.0035235104 0.017128458 -0.619672 0.71988207 0.31269228 0
-0.022774244 -0.0030136018 0.017541878 0.54774165 0.83136362 0.093880542 0
-0.018495455 -0.055481602 0.022493269 0.025531821 -0.99965155 0.0067004142 0
-0.022013186 -0.052307922 0.022470893 -0.75826895 -0.65193033 0.0038868347 0
-0.016449947 -0.054005492 0.022468822 0.57288045 -0.81962919 -0.0040144878 0
-0.013254968 -0.05142764 0.022552846 0.65937644 -0.7517879 -0.0061394665 0
-0.026787758 -0.046822879 0.022503745 -0.75265074 -0.65841198 0.0032321732 0
-0.024544228 -0.049384873 0.022373628 -0.7515021 -0.65971941 0.0038629421 0
-0.010833319 -0.04930719 0.022445243 0.65956241 -0.75160474 -0.0082308184 0
-0.007972464 -0.046807401 0.022412675 0.65632451 -0.75442952 -0.0086188382 0
-0.031267975 -0.041610815 0.022688441 -0.76849735 -0.63984859 -0.0024035184 0
-0.02921167 -0.044037689 0.02238936 -0.76443034 -0.64470524 0.0012253976 0
-0.0055110082 -0.044673711 0.02242524 0.65288275 -0.75744635 -0.0043806597 0
-0.0024610409 -0.04204724 0.022569623 0.64938062 -0.76046354 0.00013883715 0
-0.035754733 -0.036064282 0.02237409 -0.76879889 -0.6381579 -0.041264217 0
-0.033777267 -0.038493164 0.022524472 -0.78589052 -0.61723185 -0.037429299 0
-2.7734704e-05 -0.039990734 0.024128193 0.63780195 -0.77020001 -0.00078925298 0
0.0026637265 -0.037674811 0.022398114 0.7066642 -0.70754892 -0.00055176544 0
-0.040525995 -0.030590111 0.022260472 -0.74192089 -0.67045003 0.0070788455 0
-0.03835845 -0.03303818 0.02245949 -0.7412551 -0.6710934 -0.013209453 0
0.0027116004 -0.032243695 0.022556027 0.76958138 0.63853973 -0.0033926293 0
-0.045248523 -0.025325304 0.022987129 -0.77728188 -0.62909156 0.008754178 0
-0.043050952 -0.027805891 0.022427281 -0.74786252 -0.66384763 -0.0028125285 0
-0.0016499511 -0.027146189 0.022535399 0.76146185 0.64820969 -0.00029529541 0
0.00045541651 -0.029631244 0.022662377 0.76708519 0.64154363 -0.0014709409 0
-0.04589637 -0.023326773 0.022182016 -0.92651045 0.15924993 0.34090737 0
-0.043538697 -0.021197418 0.023154587 -0.58774114 0.68757844 0.42637581 0
-0.0064360471 -0.021529375 0.022557778 0.73821151 0.67440945 -0.014681566 0
-0.0042943205 -0.024070535 0.022780621 0.75922012 0.65082532 0.0033582977 0
-0.041469865 -0.018721592 0.02199824 -0.59831887 0.69208205 0.40377846 0
-0.038183715 -0.016446874 0.022940261 -0.59087533 0.68612522 0.42438021 0
-0.011369746 -0.016372764 0.022659078 0.73234397 0.6768896 0.074112482 0
-0.0089302901 -0.018950561 0.022494812 0.72639829 0.6872735 0.00082188385 0
-0.036180656 -0.014059645 0.021856602 -0.59957576 0.69335479 0.39970997 0
-0.032948166 -0.011803759 0.022729499 -0.59376341 0.68519866 0.42183861 0
-0.029784961 -0.010354341 0.024746394 -0.57604885 0.66833878 0.47062835 0
-0.015781503 -0.010953874 0.022355078 0.8004601 0.59905058 -0.020054772 0
-0.01376922 -0.01340221 0.022560393 0.7947129 0.60689747 -0.010339635 0
-0.03097512 -0.0092842774 0.021385953 -0.60124046 0.70046198 0.38452944 0
-0.0276233 -0.0072369147 0.022734581 -0.58901221 0.68713677 0.42533237 0
-0.021465743 -0.0055118715 0.022958646 0.50643635 0.84751558 0.15886948 0
-0.018293129 -0.0079066576 0.022534695 0.75949663 0.65049952 -0.003898748 0
-0.025573121 -0.0044508795 0.021061277 -0.61130905 0.69195551 0.38405582 0
-0.022791285 -0.0038928601 0.022323713 0.083795764 0.94411123 0.31879821 0
-0.018557683 -0.055439401 0.027448246 -0.027017755 -0.9996345 -0.00094587012 0
-0.021905573 -0.052389037 0.027552076 -0.75753808 -0.65273529 0.0085201114 0
-0.016525071 -0.054083541 0.027431618 0.57325053 -0.81936443 0.0050738398 0
-0.013381292 -0.051570073 0.027437549 0.65703529 -0.75385243 -0.0033265881 0
-0.02672701 -0.046852145 0.027435904 -0.75405133 -0.65678382 0.0064532561 0
-0.024464034 -0.049437113 0.0275237 -0.7531544 -0.65782547 0.004914667 0
-0.010810968 -0.049328785 0.027471168 0.65706539 -0.75380707 -0.0063219275 0
-0.0080269892 -0.046910271 0.027433941 0.65552956 -0.75512344 -0.0083444398 0
-0.031275578 -0.041571688 0.027545925 -0.75986063 -0.65004736 0.0070926342 0
-0.029111933 -0.044085238 0.027655395 -0.7604115 -0.64935654 0.010508873 0
-0.0054079359 -0.044641092 0.027563628 0.65568531 -0.7549957 -0.0076341489 0
-0.0025781256 -0.042177536 0.027643362 0.65281224 -0.75742602 -0.011916582 0
-0.0359217 -0.036093086 0.027541453 -0.76051325 -0.64931476 0.0031431324 0
-0.033875156 -0.038506396 0.027455628 -0.76318902 -0.64611244 0.0090106893 0
-3.5696408e-05 -0.039992113 0.025223777 0.62863922 -0.77768224 0.0048032976 0
0.0027152409 -0.037620235 0.027527815 0.70123202 -0.71293163 -0.0014685577 0
0.005011051 -0.03534754 0.026554743 0.99647504 -0.083485223 0.0082309963 0
-0.040559895 -0.030633338 0.027286559 -0.74880964 -0.66266316 -0.012709608 0
-0.038480017 -0.033060391 0.027462468 -0.7612409 -0.64837128 -0.011268217 0
0.0031972528 -0.032752063 0.027534241 0.77428257 0.63276953 -0.0094435373 0
-0.045160223 -0.025390647 0.025151484 -0.85412091 -0.50919956 0.10579786 0
-0.043094274 -0.027512835 0.027515402 -0.85220248 -0.51032919 0.11539058 0
-0.0017976251 -0.02697281 0.02752319 0.7601524 0.64974087 -0.0022609183 0
0.00038824577 -0.029525664 0.027777117 0.75990176 0.64998674 -0.008160037 0
-0.04513118 -0.02423265 0.025413111 -0.80746299 0.37043434 0.45910996 0
-0.042114321 -0.022797391 0.027193297 -0.56635833 0.64714658 0.51033276 0
-0.038860291 -0.021133261 0.028596001 -0.54933679 0.64080215 0.5362851 0
-0.0064638238 -0.021535359 0.027613098 0.76275784 0.64667189 0.0039960099 0
-0.0042365519 -0.02412081 0.027752876 0.76006418 0.64980817 -0.0071976134 0
-0.040368989 -0.019798579 0.025188327 -0.56874156 0.67031139 0.47667155 0
-0.036784675 -0.018079873 0.027009696 -0.56158167 0.65393704 0.50694418 0
-0.033538725 -0.016465424 0.028462004 -0.54916811 0.64076507 0.53650206 0
-0.011167389 -0.016258428 0.027156444 0.74172145 0.65905052 -0.12450562 0
-0.0089089843 -0.018708101 0.027569359 0.73858124 0.67321491 -0.035769951 0
-0.031689748 -0.013523696 0.02680123 -0.5687651 0.65104073 0.50264531 0
-0.028178988 -0.011497439 0.02805973 -0.55232388 0.64854139 0.52376753 0
-0.024991611 -0.010026968 0.029607903 -0.54622012 0.62946796 0.55264252 0
-0.01569101 -0.010894033 0.027553169 0.75284767 0.65817708 -0.0048358887 0
-0.013520383 -0.013404835 0.027603632 0.75956404 0.65002346 -0.023063598 0
-0.02650718 -0.0087686507 0.026378457 -0.56242871 0.66136837 0.49625173 0
-0.022769457 -0.0068512838 0.027831132 -0.44065735 0.73889387 0.50976157 0
-0.018223302 -0.0079169497 0.027309712 0.76075339 0.64901757 -0.0055082082 0
-0.021804454 -0.0047249012 0.025661459 -0.0069490233 0.93279082 0.3603512 0
-0.018477479 -0.055427063 0.032359969 0.0032198559 -0.99996608 0.0075800284 0
-0.021932503 -0.05230476 0.032485072 -0.75922263 -0.6508162 0.0043853931 0
-0.016974863 -0.054165602 0.032512981 0.43243194 -0.90164757 0.0058611003 0
-0.013172462 -0.051394816 0.032583062 0.64828473 -0.76139486 -0.0021995972 0
-0.026661037 -0.04687205 0.032577079 -0.75586575 -0.65467632 0.0081133759 0
-0.024455018 -0.049404263 0.032315694 -0.7492466 -0.66225547 0.0068718512 0
-0.010778747 -0.049347103 0.032061417 0.6525678 -0.75769025 -0.0077880458 0
-0.0079225879 -0.046875227 0.032571759 0.65456557 -0.7559638 -0.007909853 0
-0.031265277 -0.041514549 0.032404523 -0.75988388 -0.65004712 0.0038840703 0
-0.029141726 -0.043996014 0.032530449 -0.75891638 -0.65114284 0.0076789604 0
-0.0053318907 -0.044632915 0.032381739 0.65651155 -0.75422657 -0.011610229 0
-0.0023843073 -0.042081114 0.032464795 0.65403438 -0.75642323 -0.0079278564 0
2.6195677e-05 -0.040011425 0.034739014 0.65429926 -0.75623333 -0.0019041371 0
-0.035811782 -0.036192153 0.032206256 -0.76138026 -0.64829695 0.0033413314 0
-0.033647899 -0.038724609 0.032353427 -0.76028281 -0.64958584 0.0028743846 0
0.0026577278 -0.037690274 0.032495797 0.69956666 -0.71455276 -0.0045628762 0
0.0050229323 -0.035372514 0.033451878 0.99885225 -0.047862884 -0.0018463639 0
-0.040595505 -0.030614251 0.032473911 -0.75959069 -0.65038514 0.0045925337 0
-0.038459685 -0.033091307 0.032330755 -0.75756091 -0.65276057 -0.0022730916 0
0.0030906447 -0.032537773 0.032494098 0.77373594 0.63336527 -0.013457533 0
-0.041677766 -0.027864847 0.032264791 -0.84794194 0.1352969 0.51253211 0
-0.038706951 -0.026218086 0.034002952 -0.49512669 0.58284521 0.64431435 0
-0.0017102996 -0.02702632 0.032435749 0.75830561 0.65185153 -0.0078839278 0
0.00037075405 -0.029433737 0.032298751 0.74895012 0.66253972 -0.010713929 0
-0.040594526 -0.024397258 0.030631911 -0.53062308 0.62332588 0.57437259 0
-0.037299979 -0.023066724 0.032134686 -0.51740032 0.60211885 0.60807055 0
-0.033394262 -0.021618361 0.033964843 -0.49770835 0.58180326 0.64326614 0
-0.0064412844 -0.02153774 0.032639261 0.75497282 0.65575403 0.0016148186 0
-0.0041790316 -0.024156552 0.032256786 0.75584316 0.65475237 -0.00061718735 0
-0.035116717 -0.019569719 0.030498242 -0.52323025 0.62800932 0.5760507 0
-0.03193875 -0.01809122 0.031763498 -0.52295285 0.6076858 0.59769428 0
-0.02818232 -0.016604727 0.033472568 -0.50786889 0.58433187 0.63294989 0
-0.011114126 -0.016137881 0.032681234 0.75707304 0.65331513 -0.0044250563 0
-0.0089219157 -0.018682078 0.032532275 0.75611913 0.65442568 -0.0033098254 0
-0.026634714 -0.013421528 0.031695642 -0.52469045 0.60507023 0.59882385 0
-0.023042198 -0.011988418 0.033300772 -0.50434124 0.5889532 0.63148558 0
-0.015995029 -0.010867351 0.032726761 0.70666802 0.70563322 0.051979769 0
-0.013454932 -0.013426615 0.032407548 0.75899428 0.65099728 -0.011411595 0
-0.021508876 -0.0087340372 0.031400349 -0.51420563 0.62288171 0.58958548 0
-0.01803945 -0.0086838119 0.03253568 0.36428398 0.86809361 0.33721 0
-0.01869835 -0.055357441 0.036576234 -0.14855626 -0.9808619 0.12586072 0
-0.021758078 -0.05194271 0.037175678 -0.68717879 -0.58072227 0.43651676 0
-0.01735191 -0.052894719 0.037629422 0.21004541 -0.47558805 0.85422301 0
-0.013543447 -0.051425979 0.037014995 0.60429943 -0.7227816 0.33527464 0
-0.026399588 -0.046675336 0.037075922 -0.69381237 -0.60233223 0.39474067 0
-0.022530414 -0.047827344 0.038332112 -0.39210251 -0.3791647 0.83814663 0
-0.017536648 -0.047762193 0.038824372 -0.093411289 0.0025860197 0.99562424 0
-0.012199511 -0.04772779 0.038318813 0.33727315 -0.31337294 0.8877185 0
-0.0079951715 -0.046659581 0.037119698 0.61159766 -0.70214516 0.36460999 0
-0.031099195 -0.041420378 0.03677405 -0.72733945 -0.61977291 0.29471821 0
-0.027841868 -0.042900652 0.037750669 -0.33794734 -0.28201005 0.89792091 0
-0.022344461 -0.042574704 0.038695898 -0.17629892 0.17511894 0.96863401 0
-0.017462986 -0.042202894 0.038806338 -0.1097104 -0.21501105 0.97042972 0
-0.012472977 -0.042411916 0.038628496 0.30570617 0.16208087 0.93822896 0
-0.0071486626 -0.042926978 0.038128212 0.10419188 -0.12080078 0.98719358 0
-0.0027300394 -0.04188012 0.037084371 0.59419864 -0.66759634 0.44860131 0
3.2388412e-05 -0.040007178 0.035181433 0.65429926 -0.75623333 -0.0019041371 0
-0.035812542 -0.036038227 0.036880486 -0.74122697 -0.63877791 0.20626505 0
-0.032651573 -0.037571516 0.037947126 -0.44191265 -0.40576601 0.80004197 0
-0.027630264 -0.037350409 0.038800877 0.056677006 -0.042948399 0.99746841 0
-0.022537485 -0.03740913 0.038356397 0.083558574 -0.052959859 0.99509448 0
-0.017455328 -0.037546221 0.03818208 0.011743339 0.1173192 0.99302483 0
-0.012325095 -0.037526172 0.038332686 -0.12207249 -0.0094566699 0.99247611 0
-0.007227629 -0.037358135 0.038759768 -0.039261498 -0.1379704 0.98965788 0
-0.0026238004 -0.037376024 0.03874642 0.24025421 -0.214055 0.94681478 0
0.0022503061 -0.037427228 0.037247594 0.60752678 -0.59306687 0.52837771 0
0.0050155595 -0.035389099 0.035549041 0.99723142 -0.064925969 0.036249023 0
-0.040390577 -0.030586261 0.035782974 -0.88958687 -0.28809878 0.35444924 0
-0.037638679 -0.032493293 0.037433036 -0.57146114 -0.26408505 0.77697575 0
-0.03231376 -0.032583389 0.038764246 0.04661065 -0.0030526652 0.99890852 0
-0.027342064 -0.032290898 0.03847358 -0.37940696 -0.23827291 0.89402264 0
-0.022489998 -0.032542683 0.038586672 0.52362823 0.0081706466 0.85190773 0
-0.017259926 -0.03237937 0.037947863 0.012947861 -0.057082199 0.99828553 0
-0.012223218 -0.032653835 0.038360428 -0.26487055 0.049755502 0.96299946 0
-0.0074950121 -0.032310832 0.038707506 0.08659593 -0.12604256 0.98823798 0
-0.0024349296 -0.032542866 0.038803041 0.20185126 0.052979324 0.97798222 0
0.002555995 -0.032792322 0.037235055 0.62897563 0.52616215 0.57231373 0
-0.04049395 -0.029386608 0.035405103 -0.60781139 0.46869457 0.6410076 0
-0.037211921 -0.027964665 0.036496054 -0.44115108 0.51747704 0.73321432 0
-0.032584257 -0.027353406 0.038044684 -0.28799585 0.37290391 0.88204366 0
-0.027514869 -0.027343193 0.038577471 0.062656246 0.35656756 0.93216616 0
-0.022516392 -0.027601121 0.038310733 0.043224037 0.054139629 0.9975974 0
-0.017387893 -0.027319334 0.038738586 -0.19849817 -0.30553606 0.93126053 0
-0.012573228 -0.02730665 0.03851562 0.21782778 -0.2978754 0.92941988 0
-0.0073084738 -0.027755706 0.03834936 -0.03594761 0.1798427 0.98303831 0
-0.0025373898 -0.027725907 0.037528664 0.50195491 0.48861846 0.71364784 0
0.00040422677 -0.029483855 0.036637411 0.7440986 0.65073752 0.15118819 0
-0.035424005 -0.024788216 0.035232794 -0.48815814 0.56497717 0.66520858 0
-0.031797338 -0.023156967 0.03639961 -0.45329016 0.52949882 0.71704882 0
-0.027629936 -0.022456422 0.037744384 -0.21240172 0.24671373 0.94552517 0
-0.022343159 -0.022771364 0.038436171 -0.35282436 -0.021745721 0.9354369 0
-0.01741343 -0.022519441 0.038384337 0.45786968 0.05948361 0.88702708 0
-0.012679676 -0.022612266 0.038708091 -0.11492441 0.01302205 0.99328887 0
-0.0074222297 -0.022448797 0.037545163 0.39213622 0.34841582 0.85137278 0
-0.0042208578 -0.024148276 0.036554053 0.74216938 0.65818685 0.12639122 0
-0.026625114 -0.018399628 0.036164653 -0.46277502 0.53813589 0.70444947 0
-0.022355311 -0.017340872 0.03756867 -0.32942069 0.35047385 0.87672693 0
-0.017387252 -0.017689832 0.038676947 -0.13722275 0.27930671 0.95034599 0
-0.0123096 -0.017330626 0.037934363 0.51544714 0.48564097 0.70602202 0
-0.0089483308 -0.018904647 0.036898941 0.70736706 0.62710357 0.32614875 0
-0.021481682 -0.013719927 0.035989974 -0.47571349 0.54973227 0.68665206 0
-0.017415043 -0.012413417 0.037119634 -0.20284912 0.48052678 0.85319763 0
-0.013573526 -0.013475893 0.036785867 0.72154522 0.62005681 0.30806184 0
-0.017401503 -0.0097042853 0.035238259 -0.056568969 0.8040269 0.59189582 0
-0.021212654 -0.047050405 0.041459892 -0.48646185 -0.49748686 0.71823519 0
-0.017524069 -0.048636578 0.041343883 0.05040497 0.055970617 0.99715918 0
-0.013953756 -0.046484441 0.041323036 0.62522811 -0.36591551 0.68934435 0
-0.021257663 -0.043072481 0.041572109 -0.34275529 0.39907253 0.85044688 0
-0.017125489 -0.041424252 0.041462723 -0.20079032 -0.051581126 0.97827542 0
-0.013970818 -0.043216813 0.041503541 0.65598303 0.35739154 0.66479886 0
-0.0311266 -0.036074858 0.041433204 -0.60235685 -0.59468144 0.53246617 0
-0.027490476 -0.036531422 0.041405346 0.19018598 -0.15983872 0.96864903 0
-0.024490641 -0.035510641 0.041215453 0.80280817 -0.56719548 0.18381606 0
-0.010191592 -0.035638142 0.041036043 -0.95229477 -0.28105387 0.11892612 0
-0.0076167155 -0.037511028 0.041494872 0.061178423 -0.2210809 0.97333467 0
-0.0029876747 -0.037270077 0.041393016 0.25038651 -0.3968969 0.88305128 0
-0.031938817 -0.032647349 0.041367695 -0.29258513 -0.049466521 0.95495909 0
-0.025790809 -0.031789213 0.041021243 -0.89431769 -0.39149106 0.21663512 0
-0.024016662 -0.032538284 0.041526139 0.87942952 0.067976639 0.47115064 0
-0.010313404 -0.033942163 0.041101955 -0.97387648 0.16845363 0.15227607 0
-0.007949953 -0.031813566 0.041470289 0.030404935 -0.040589303 0.9987132 0
-0.0025097695 -0.03245924 0.04147578 0.18145756 0.15449207 0.97118759 0
-0.030925173 -0.029303415 0.041372739 -0.51560438 0.75549501 0.40420213 0
-0.027685979 -0.029104486 0.041383587 0.23225021 0.21640141 0.94827747 0
-0.024483016 -0.029532718 0.041162778 0.77491945 0.61905164 0.12757315 0
-0.017230881 -0.026140526 0.041452244 -0.20935835 -0.40734723 0.88895291 0
-0.013683223 -0.025884112 0.041364152 0.54015905 -0.67845875 0.4979175 0
-0.0059127202 -0.02981814 0.041143391 -0.20511657 0.96128058 0.18402937 0
-0.0046558585 -0.029801819 0.041022811 0.28386015 0.94739217 0.14789018 0
-0.020569921 -0.022410721 0.04134246 -0.96144736 0.017461097 0.27443424 0
-0.019051049 -0.022450974 0.041414633 0.87759787 -0.00078982132 0.47939685 0
-0.012437737 -0.02255455 0.041276563 0.15673698 0.14390524 0.97710025 0
-0.020025365 -0.019875798 0.040403061 -0.81657606 0.57722092 0.0044049555 0
-0.017297806 -0.018667789 0.041361749 -0.42628419 0.49086311 0.75982577 0
-0.013673944 -0.018895062 0.041436728 0.49238551 0.66056764 0.566751 0
